ply
format ascii 1.0
element vertex 823
property float x
property float y
property float z
end_header
-20.501091665384763 -127.89310355578252 -8.250463060779067
-20.960687443111794 -129.35708094052532 -8.27649728362932
-20.92054760530634 -129.28767261874367 -8.27462727852258
-20.981619162488226 -129.2458832040906 -8.27657104236839
-20.18394069788777 -125.31491849009798 -8.223220371855044
-21.077155093042066 -128.90591480281057 -8.277993572755094
-20.258955146167484 -125.33654110488287 -8.225908519015643
-20.369862740645626 -125.32453709633931 -8.229731095867258
-20.292489350306653 -125.26274449610823 -8.226719256297258
-20.44819572806479 -125.29703732237441 -8.232338562421454
-20.565420276561756 -125.14223361546142 -8.235525855004504
-20.61994615880719 -125.16603699066259 -8.237584398487625
-21.13905226205343 -126.62666076258463 -8.265829506233073
-20.98477945807684 -124.54935014215074 -8.246956186430651
-21.577022713058813 -126.13162659018435 -8.27877293374288
-21.553197037546422 -125.88122241988697 -8.27629338750568
-21.418419331861354 -123.75957875677287 -8.257684183211524
-21.902428401183133 -125.02209779257399 -8.28362992036697
-21.90394056373917 -124.7237045720885 -8.281771124473329
-21.820605879419205 -123.87042814560385 -8.273168363618666
-22.10150574153758 -124.20980726109454 -8.285738743074624
-21.84855915985145 -123.10219771022052 -8.269243281383185
-22.206147495406242 -123.59565450539867 -8.285626138375033
-11.634719680407027 -136.20761279264863 -8.18331872809895
-11.628410726357647 -135.92649915518956 -8.184204693904531
-11.682454745594354 -136.02678789453117 -8.182946335384809
-11.740302432568146 -135.89225742588206 -8.18249158661656
-11.915581474507718 -136.23800304953892 -8.178651220670918
-12.50576933114239 -138.5129920539306 -8.182743649576219
-12.128352123356553 -136.73106546369326 -8.175330438721288
-12.11363674115033 -136.67971112777792 -8.17547124299291
-11.928271843142301 -135.77923736655563 -8.179670738765479
-11.835130831323934 -135.49040103950853 -8.182674164266626
-12.66381994152545 -138.70640149863098 -8.183635260392585
-12.620761319136513 -138.5731889361397 -8.182387406364077
-12.527547491152891 -138.47205964710534 -8.18201330526896
-12.52624352485365 -138.43272275103618 -8.181592103817932
-12.408347487807648 -137.8922931114144 -8.177590121008695
-12.22726959511198 -136.74321605629814 -8.173863405992533
-11.956430933659025 -135.80288080169953 -8.179094054033905
-11.981613930641785 -135.76825158146085 -8.178871694014928
-12.759886211804846 -138.8072551437719 -8.184091125050802
-12.726347842200036 -138.67312523006396 -8.182674612799357
-12.688591773294291 -138.5361782525156 -8.181314254607173
-12.595367714397305 -138.32786311165026 -8.179768007735674
-12.666968194395372 -138.2815643344753 -8.178629116383636
-12.65866052259894 -138.19230749324245 -8.177682073468485
-12.608818281827538 -138.04902005424864 -8.176802623660121
-12.584126341205208 -137.90719394882746 -8.175722081847608
-12.326515243760667 -136.94664877385958 -8.172962668233453
-12.259456395735802 -136.63009990046427 -8.17320963821035
-12.146109674580032 -136.17729194846822 -8.175040034336455
-12.123603326142664 -135.98263161085387 -8.175762039802462
-12.070711033857494 -135.75417019123358 -8.177478261531624
-12.038802051226465 -135.62866498923768 -8.178602773779433
-12.826136192826251 -138.75630097897314 -8.182987808531264
-12.785904197938992 -138.53286833444275 -8.180429544710233
-12.68861245942255 -138.2224163313168 -8.177771834103236
-12.710015939949725 -138.18357152884963 -8.177075535779084
-12.60412289912763 -137.865929765066 -8.175091141882962
-12.412025088135128 -136.734466402551 -8.170977600422438
-12.373811070819055 -136.68293240373285 -8.171534666284547
-12.269376546557247 -136.0287889599201 -8.173274320662223
-12.159923348864815 -135.49125244897584 -8.177215159433258
-12.130748229839943 -135.35071143490956 -8.178583896886236
-12.789688957898449 -138.09275568878368 -8.175368424189411
-12.82696690449368 -138.02347909072503 -8.174261236794433
-12.716215454655265 -137.9592944556379 -8.174699673992789
-12.677655864264356 -137.52713407096505 -8.171333409538644
-12.656821939105459 -137.34435949468119 -8.170346377078983
-12.601893022196057 -137.23214633894173 -8.170374467050259
-12.442116230009118 -136.48061820780075 -8.170165909764403
-12.974423880729349 -138.65192033934844 -8.18045573231755
-12.96786608239553 -138.48511291293983 -8.178352881289717
-12.967150971730495 -138.20412767964226 -8.174879981757293
-12.854054969018426 -137.97261987469798 -8.17342122442925
-12.574062711455479 -136.58500067758587 -8.168244913745749
-12.239773088256882 -134.85407661841896 -8.18019076063109
-13.146207912206666 -138.8742339531676 -8.182468857204519
-12.86149267451903 -137.67429933450805 -8.170390716589305
-12.827499248618137 -137.36644082026925 -8.168248876840101
-12.700105054683108 -136.58612241204503 -8.166300003527125
-12.666833385517323 -136.46757960150845 -8.1665386020153
-12.588565973522204 -136.06437839331676 -8.167926970673728
-12.560333084151566 -135.93534320095236 -8.168662557109727
-12.39715746149281 -135.49661587336692 -8.173230965786601
-12.411735535894035 -135.22138553899185 -8.17466709919363
-12.292911399565297 -134.87554902063226 -8.17921709151479
-13.19631763331615 -138.66444493848215 -8.179157543190529
-12.881292615490203 -137.11813823790882 -8.16588713263976
-12.730932344792894 -136.39508450085881 -8.165488328507713
-12.685638366824017 -136.34639774274672 -8.166131531041879
-12.42544357765988 -134.83900026669411 -8.177214249966735
-13.16811150467798 -137.8977788063207 -8.169491008242549
-12.992299977794708 -137.2164690630661 -8.165126917201258
-12.989614656775789 -137.070392314412 -8.164132538090612
-12.953337787375052 -136.9620723380459 -8.164003689040095
-12.944268043198388 -136.89492603533947 -8.163766745529728
-12.953804197427464 -136.72781277920924 -8.162863965001367
-12.913516574083024 -136.55083549581445 -8.162957556934982
-12.81122803117683 -136.48805493502886 -8.16432572535951
-12.820954643858077 -136.34514081605738 -8.164018191063304
-12.78536608611812 -136.21901265632678 -8.164586221092126
-12.552110197358429 -135.13195399556062 -8.172839280793633
-13.232621068097469 -137.92089101241862 -8.169221675427409
-13.206642368199386 -137.4467878404316 -8.164462382469177
-13.112994443727816 -137.24260089902867 -8.163808190327988
-13.084507002554062 -137.14704973920777 -8.163411524516189
-13.062004840129266 -136.94481541716772 -8.162444742211205
-13.007227135353807 -136.8313203373348 -8.162612260631448
-13.025834658839289 -136.7632832620101 -8.161970224041191
-12.977333547938198 -136.65968401782905 -8.16230727744181
-12.939641885885175 -136.55178841940125 -8.162498938767166
-12.937750554031497 -136.50798051899747 -8.162417996263704
-12.891585474702214 -136.25935458332646 -8.162849103834606
-12.896529845521279 -136.1828913307162 -8.162755220281692
-12.894882590567097 -136.04598899753879 -8.162926650249073
-13.382011643430024 -138.08136036297577 -8.169962704675335
-13.223264201813636 -137.11648890816915 -8.161472008930108
-13.210133641671153 -137.02612345749873 -8.160987186399872
-13.080985612417452 -136.7934218002285 -8.161384151529756
-13.123174881420159 -136.71777901363473 -8.1604052150337
-13.087782117510027 -136.61101612299717 -8.160485857462627
-13.067894898104075 -136.53520865679457 -8.160543125383166
-12.965407224566606 -136.04619465590093 -8.161737010536381
-13.328417686635042 -137.41934883229325 -8.162814018909627
-13.260528001636496 -136.9946751926841 -8.16008280553765
-13.207965895427535 -136.8739387127615 -8.159989875813457
-13.174945509084788 -136.509636636256 -8.158890215744439
-13.133863216245663 -136.17535988194533 -8.158917908860383
-13.073184976477679 -135.8759525288284 -8.160281278194542
-12.94928456986616 -135.5083351211145 -8.163822263799062
-12.934915451736694 -135.45083992892265 -8.164385489311508
-13.600373257947824 -138.02595891272426 -8.16760697614432
-13.417330813745318 -137.4133795938414 -8.16185424799902
-13.35344238770559 -137.0413775795567 -8.159225345904584
-13.390011478483139 -136.86824400122356 -8.15757499256241
-13.300843209090866 -136.57774907174365 -8.157270935292745
-12.838540263009929 -134.65296649262874 -8.172064437410686
-12.75237176444677 -134.03875954318784 -8.179602209267193
-13.344474649639697 -136.5673084002233 -8.156539533439753
-12.810312573363808 -134.12843665995095 -8.17769464437546
-13.455583976857428 -136.65153355602095 -8.155350352792297
-13.280887126892116 -135.442834409033 -8.158515609627718
-12.927006917179252 -134.0256788609057 -8.177030868216752
-12.219252328383266 -130.74841733082383 -8.184817825226006
-12.209708535459253 -130.70085934126013 -8.185619394728425
-13.643637047654796 -136.85649919320534 -8.154251679706027
-13.518774131853998 -136.04365516994113 -8.152788089669036
-13.46125712765857 -135.95953031762096 -8.153752548048162
-13.440411484651289 -135.7286918974552 -8.154500805649938
-13.400736336848697 -135.67628810967673 -8.155390037737753
-13.56396194981623 -135.99936213018205 -8.152031113565693
-13.507527551140246 -135.87671772004424 -8.153039404569745
-13.565118416135222 -135.83540190801725 -8.152215889798027
-13.469108452956894 -135.73135089800095 -8.154035949817995
-13.525830993213933 -135.61067186671065 -8.153508653214047
-13.502017623654458 -135.53591130864754 -8.154275687101036
-13.483203280432061 -135.42042325541956 -8.155284850883259
-13.475218242680016 -135.35842050995473 -8.155802343509064
-13.181084797785104 -134.12218674123605 -8.17190023218986
-13.87863251386576 -136.92791049211397 -8.152090731726831
-13.8486567621738 -136.83701478173603 -8.151607691127257
-13.843260290872752 -136.7784161397453 -8.151164996577778
-13.596580469933157 -135.82982605725795 -8.151656631794602
-13.576214065654083 -135.5182781878847 -8.153147491791355
-13.546659506590647 -135.3912472250053 -8.154350211729687
-13.424196802650783 -135.10662478805878 -8.158378284005062
-13.22153517328534 -134.1377848517653 -8.171123276326902
-14.077426748161258 -137.40314622709062 -8.155869377275565
-14.008164857962154 -136.9288530967019 -8.150736776581468
-13.672345397097224 -135.58128567964974 -8.151213423499367
-13.64454726609435 -135.26067032543008 -8.153566605392575
-14.025876577606454 -136.9034717711685 -8.150258176138436
-13.86651852912664 -136.0472408248471 -8.147215754217969
-13.800459329827474 -135.6547567292323 -8.148738609086196
-13.754990667229887 -135.43125831820944 -8.150573512137804
-13.677710315926875 -135.1559769577477 -8.153779310767732
-14.207104879403685 -137.19840124858993 -8.15219267974591
-13.820916172037794 -135.43862130972227 -8.14946717245358
-14.243887388189137 -136.83511664271452 -8.147387539849207
-13.90268499250846 -135.2368687148202 -8.149414962953172
-13.306600271096706 -131.52867432792644 -8.18021242605141
-13.480039042978065 -131.4153181204536 -8.185033908646771
-13.793552108487953 -132.30693857957394 -8.168934441731464
-13.66236790604072 -131.65561771805994 -8.182076553880536
-13.587298379311523 -131.46459208657433 -8.185450649119216
-13.853416097068115 -132.28340591095187 -8.170274757230832
-13.768486274830295 -131.58443048336798 -8.185647199804997
-14.447243391048406 -133.489470147269 -8.150813584502528
-14.539182611296427 -133.11193597852835 -8.16101400441641
-14.536010839803831 -133.08457408066818 -8.16160017667522
-14.646454254556645 -133.05290367853874 -8.16457508831135
-14.631100873231988 -132.95621336641102 -8.166826580954357
-14.785990329745058 -133.34447082838457 -8.159708841612652
-14.829148318750345 -133.201206837467 -8.164442945249002
-14.723539410025364 -132.85536132752742 -8.171427312277544
-14.72016358647504 -132.81827746806124 -8.1724059728168
-15.079173714760294 -132.7345150634235 -8.183515866966774
-15.459306257749452 -132.7820557587548 -8.099715215050857
-15.536886865295365 -132.7436021401451 -8.102169898008228
-15.597115846561483 -132.71397894617516 -8.104102393198135
-15.371384461575547 -131.1028893565347 -8.087372870935987
-15.589927769918656 -131.0276284331799 -8.094520610454834
-17.953707963558188 -141.11487043577569 -8.08445251595881
-17.96513195097746 -141.03268444345227 -8.085653934121522
-15.74426895891088 -130.98300069184248 -8.099636928108998
-18.097447208518112 -141.1250897787532 -8.086563302218725
-17.994906480954747 -140.99381207149108 -8.086467421414923
-15.841889628642283 -131.06039443136507 -8.103443584910723
-18.13657089635191 -141.11276222388918 -8.08733562362135
-18.144039455156793 -141.05711120240488 -8.08799174594919
-18.1664622436951 -140.96642662563312 -8.089565273024768
-18.073560413778065 -140.9134138263871 -8.088611702543778
-16.298584310442067 -132.45975090948644 -8.127019706852035
-16.168438340589933 -131.9780155232817 -8.1198610871439
-18.165518626380265 -140.91424790464004 -8.08999474283905
-18.17161947031386 -140.87852765301267 -8.090722386662936
-16.424123088193305 -132.5046856791744 -8.131618078778189
-16.393587017917106 -132.44964338103185 -8.130256127747746
-18.337365318385583 -141.18978983786377 -8.089253270667855
-18.29342557461809 -141.01728172092217 -8.090777069948196
-16.486948338935537 -132.49545308188323 -8.13374560181878
-16.19987367017043 -131.14824610968606 -8.11638361322287
-15.912931008207456 -129.62605919573193 -8.098038932541336
-15.834716538473618 -129.52350265011256 -8.09475103721051
-17.130940805254365 -134.94792803646712 -8.170465487630851
-16.594300724981387 -132.4893727443749 -8.137436039080555
-16.587517829055695 -132.4375544587722 -8.136916178315222
-18.7511313827612 -141.79744180083782 -8.08832320465108
-18.654290021867826 -141.65090676736162 -8.088421688254565
-16.410939476002778 -131.07327992880064 -8.12332988279934
-16.14152673480388 -130.04883334834184 -8.108292202570656
-16.104010268128267 -129.77702600591041 -8.105523514394495
-16.044723239301884 -129.62568487621826 -8.10260345372357
-16.098662764605614 -129.57412294160318 -8.104179375208439
-15.837786660434327 -128.44528948580705 -8.088851374409067
-18.751481919458463 -141.7417656607298 -8.088770243929082
-18.812943476836804 -141.67132637148453 -8.09061146910624
-18.45441959732549 -139.9857012272978 -8.105246078847777
-17.797966945951522 -136.9040148030545 -8.127067088659265
-16.222108825369236 -129.8905184472802 -8.110243937150784
-16.224261872196394 -129.76105860893156 -8.109620411736165
-16.2450892663491 -129.75302795141087 -8.110269949696315
-16.197491173032205 -129.62807575342222 -8.107955096782394
-16.14742702672175 -129.4734383000459 -8.105324517226165
-18.898572057705493 -141.7056743002749 -8.09148084154481
-18.91252586206402 -141.62500062750286 -8.092479587634905
-18.51288047143719 -139.86922022436278 -8.107317693056373
-17.941471388050825 -137.22146813316962 -8.126230590480274
-16.453124197939136 -130.25599640133345 -8.120288141307341
-16.36326822152455 -129.94315034308 -8.115461386133545
-16.34872295855232 -129.73595772412676 -8.11381363312499
-16.33098817172183 -129.71380042481476 -8.11304626955131
-15.910868682686436 -128.0960997891311 -8.089493598069895
-18.97267687322635 -141.6351465690641 -8.093446704555308
-18.96503426973595 -141.42014943351336 -8.095637022159952
-18.567699093242116 -139.68963076345335 -8.10999234942647
-16.41617300608407 -129.67160509889695 -8.115783048175015
-16.324199272808972 -129.59030105930964 -8.112159531604332
-19.04353137064979 -141.46135323989463 -8.096242858023395
-18.984711890765272 -141.30633581805964 -8.09743172732692
-18.906399798390513 -141.0311217992081 -8.099306301875975
-18.660248895380636 -139.63525136657347 -8.111740326061632
-18.648369775264907 -139.54230393549355 -8.112489814934804
-18.18326264793439 -137.33698209346412 -8.127379217336797
-18.167305651184172 -137.28400788968858 -8.127581428898017
-16.513339465020238 -129.97985967178536 -8.12088633174626
-16.51921937231246 -129.88273147860477 -8.120545589470659
-16.456028660405785 -129.68687184407295 -8.117253052726989
-16.447800923264815 -129.58491943229672 -8.116433798756727
-19.11690771905286 -141.164984099044 -8.100867285202538
-19.035664410315626 -140.85628244091458 -8.103244998338123
-18.695316199936148 -139.42874207566632 -8.11423980860656
-18.732473407714743 -139.3220193124375 -8.11585432362139
-18.238552354997548 -137.2830424264454 -8.128135205440088
-16.705183975398697 -130.29543912094144 -8.129284483022719
-18.80187764238933 -139.2148513813121 -8.117540065839773
-18.2979965735217 -137.29187392946957 -8.128478890711929
-17.06130385941649 -131.20686432547413 -8.14667079904235
-16.72781284305807 -129.7683700957111 -8.127173792193465
-16.717586100400275 -129.59990715314217 -8.125887894813008
-16.06029310204762 -126.63561244801767 -8.086612299137101
-19.259520436336995 -140.95609181200663 -8.10507679976026
-18.804946405239267 -139.13934953106542 -8.118470459984227
-18.858565497715958 -139.0349891156745 -8.119972340544727
-18.39573400439123 -137.09157609587308 -8.130198691802546
-17.104753192978567 -131.32042850507344 -8.148793230788884
-16.791276616908394 -129.53603540822215 -8.128125550633946
-16.176780424121233 -126.75751091905666 -8.091348777617847
-16.153784935250044 -126.63206968771101 -8.089914633640715
-16.109466086192064 -126.58079037961215 -8.08805377349331
-19.318631273769718 -140.92221432033074 -8.1060048626737
-19.299483800697697 -140.853272498268 -8.106724781395531
-18.875909407200893 -139.0169089888093 -8.120406293470817
-16.260764029693284 -126.85686458403651 -8.09488453789334
-19.379033726912414 -140.78722394791433 -8.10833083589814
-19.365659653231457 -140.70887169353654 -8.10910690286162
-18.9588856290764 -138.83911173994665 -8.12273072792631
-17.225293142721743 -130.91779604033613 -8.150794877816372
-16.91695768885201 -129.1059629547926 -8.13014034812715
-19.06153367686813 -138.61984782682106 -8.125572507690997
-17.358251333318393 -130.79262665462753 -8.154727648367794
-17.017812632091978 -129.22655288165654 -8.134308284064257
-19.568409658000558 -140.571458822666 -8.112817089034523
-19.13684746854219 -138.55745008576116 -8.126764560526068
-19.12734647937877 -138.47337852536705 -8.127388499700965
-17.341432208503132 -130.5179451467688 -8.152643955477116
-17.07036948176162 -129.24620794514937 -8.136251294042253
-17.1014366570989 -129.0011415312753 -8.135974156920723
-19.684232650865628 -140.6277126252913 -8.11370303613169
-19.673353194548497 -140.4878398217491 -8.114900100934726
-19.62361945073337 -140.2983753874673 -8.116295426966058
-19.193316312953705 -138.37323204232715 -8.128764548177891
-19.219297728546128 -138.3134557047729 -8.129406090146215
-17.47450948697054 -130.38609054311527 -8.156556737788225
-19.769856880188403 -140.35559655279775 -8.117489085354862
-19.91720540631354 -140.75900444040334 -8.115220196130837
-19.833566847384496 -140.36224588582073 -8.117929934497909
-19.848186063844942 -140.31051617439502 -8.118792656833271
-19.780422592010098 -140.19740226765612 -8.118923258719422
-19.74217823313247 -140.10351486145834 -8.119498162517221
-19.687339384057385 -139.53958705757876 -8.12394104765096
-19.159504381107958 -137.22396154089967 -8.134363420290674
-18.815955859787497 -135.81755168875463 -8.131139890456046
-18.388991703567196 -133.7089412539854 -8.097016861940634
-18.342660186827384 -133.65968304217114 -8.095441994238715
-18.36207512970515 -133.59151749919067 -8.093869112858252
-20.051591176835647 -140.88719183425846 -8.115256140191104
-19.856463772963853 -140.08527378091395 -8.120788380911513
-19.807236473099064 -139.997687720969 -8.121269958901525
-19.208624112355018 -137.23331512616582 -8.134492527794455
-18.79107622308283 -134.86554764013232 -8.120604455366434
-18.537522254274386 -133.80401236880536 -8.100266443197848
-18.51170851339327 -133.73547027801152 -8.098492151294694
-20.000185953830005 -140.1139835700708 -8.122041881950782
-19.942014177049156 -140.0832353822976 -8.121916905269751
-19.827162066626776 -139.59545168923927 -8.125034459033053
-18.907061259283125 -135.04221047839974 -8.123400598363851
-18.916076473879762 -134.98127416502766 -8.122531482206151
-18.810129897221103 -134.86855780217198 -8.120731794888806
-18.824673219879866 -134.8023704174243 -8.119874360850112
-18.608241062227275 -133.8305557792226 -8.101336837309747
-18.545677426369902 -133.71920964925647 -8.098348146145552
-20.074862447264643 -140.16201140297923 -8.122589856523408
-20.01108616084669 -139.9969211402195 -8.123200911567702
-20.03218978598054 -139.95590112493295 -8.123977444373507
-19.947860406178744 -139.6712657898087 -8.125474471001528
-19.920265461047862 -139.54373150928575 -8.126184970633885
-19.933493916031956 -139.45607975870405 -8.12710664270706
-19.829542514065096 -139.14501234832352 -8.128586715897864
-19.8328348782461 -138.78889244419005 -8.131096626047297
-19.50657096671303 -137.5981999743422 -8.135123089456181
-18.938050471646797 -134.96431317673267 -8.12236399204941
-17.752482844600028 -129.1498168743019 -8.15947104589221
-20.009765779357203 -139.40198387248307 -8.128148565179536
-20.045715148853116 -139.22937583352362 -8.12986084737796
-19.903427869622835 -138.94269055652063 -8.130620119137209
-19.896953962794086 -138.79199458989112 -8.131599011272192
-19.847521852129105 -138.77695498457933 -8.131465073866359
-19.812521884684873 -138.23808502991702 -8.134240911489893
-19.72057213347506 -138.14540965581523 -8.134149605854056
-19.716938818502214 -138.1020656829371 -8.13433578877143
-19.61855186316188 -137.35613718989438 -8.136517783852439
-18.926296142202474 -134.4512358952979 -8.114898791446212
-17.78146553617284 -129.13410736243296 -8.160401302522095
-17.778521066273445 -128.91439007656902 -8.159089968693287
-20.105319267771474 -139.1627198123141 -8.130780445559342
-20.0232354191173 -138.99226390578417 -8.131283505599738
-19.688357022387045 -137.37285462467605 -8.1367276268216
-17.918685285898842 -129.0222840988983 -8.164570050889473
-19.7938340332311 -137.39455114277902 -8.137270766009927
-19.8309069021732 -137.33706852213479 -8.137615214512222
-19.719842003732406 -137.11046028397803 -8.137338066630711
-19.733881599290278 -137.07596096037258 -8.137488723218727
-18.033743745114894 -129.21810321307058 -8.169642684930578
-18.011948091449803 -129.10870303606492 -8.168291850676212
-18.039478668168552 -129.03353903215742 -8.168823017257493
-20.225534222291586 -138.96440835736362 -8.133197696322737
-20.217757669885568 -138.62981605285978 -8.135215292762197
-20.153701054054856 -138.56092763769158 -8.13495741181899
-20.159024643895613 -138.51806100864076 -8.135222721231463
-19.946180052619287 -137.3539702932732 -8.13807606641342
-19.92470610678873 -137.3086020966117 -8.138033551751255
-19.828733313791332 -137.19763361914735 -8.137703172323464
-19.77877268756371 -137.01068522673603 -8.137591327743422
-19.79835235957969 -136.91484808492166 -8.137701065758543
-19.212264944170396 -134.1719842094022 -8.111061268301663
-19.216450066513957 -134.09328095194718 -8.109649814218956
-19.060617303260432 -133.35778082714413 -8.092957046382361
-18.146084600584246 -129.19676374903514 -8.173437918989942
-18.100273059908456 -129.14173245961092 -8.171530077830836
-19.95059914492235 -137.2977939400612 -8.138267182948164
-19.88604994209135 -136.69288556711712 -8.137773378051882
-18.208543284200534 -129.18853932267191 -8.17557485928995
-18.16101091093216 -129.11589443839688 -8.173501994564848
-19.929846048000083 -136.64192322333005 -8.137830063006653
-19.947597693747582 -136.5994519737968 -8.137910975832693
-19.428477133984046 -134.21773421732695 -8.112625401514007
-19.38030382328581 -134.18316214555713 -8.111868669636909
-18.316499242462537 -129.01652636342857 -8.178382302170464
-20.419259656494923 -138.2456342108496 -8.13829135118059
-20.091518577504722 -136.85501636301265 -8.138788919833955
-19.99481351810759 -136.45247310334307 -8.137531629150489
-18.36971518527836 -129.11011768219402 -8.180735642949607
-20.529681052657317 -138.20882350594945 -8.139018262274927
-20.25802930440654 -136.98748494405697 -8.13963734838324
-20.22693975590348 -136.9073622040064 -8.139435080231648
-20.103483393612333 -136.28519162750473 -8.137317050068042
-20.565070574724196 -138.28559318644912 -8.139029878092613
-20.5596497701028 -138.19236891070838 -8.139336270139996
-20.598370562092594 -138.1035434739734 -8.139866468833883
-20.568758383332618 -137.90293767489285 -8.140332577658477
-20.668544379764146 -138.06330011561073 -8.140300386217751
-20.222952589715817 -136.09121803761806 -8.136640012243385
-20.24780266628794 -135.97101994697414 -8.13584880167567
-20.74161248230281 -138.07886478821462 -8.140822886520212
-20.7186477183972 -137.95651685037367 -8.140851218861687
-20.50399058519021 -136.9500874568021 -8.140486215101784
-20.273351520713316 -135.95819402885593 -8.135935910587786
-20.298022780944873 -135.87125294614484 -8.135326634998037
-20.652599624601766 -136.97714342311176 -8.141216883331698
-20.86894306748676 -137.4907052488599 -8.142403541762098
-20.822019671502765 -137.45152925046116 -8.142057450818527
-20.456771799844063 -135.47827916041467 -8.132365811438369
-20.980801076379706 -137.42805464589043 -8.14274127708613
-20.498087583448516 -135.31399955967476 -8.130706016658902
-22.038925649259795 -142.18344861897154 -8.12480350365905
-21.025239749978226 -137.0717051916231 -8.142620702204177
-21.00859621258987 -136.9055480503036 -8.142223930665674
-21.147279721198615 -137.03648820596368 -8.14307918568038
-21.086660651852796 -136.78795293127612 -8.142321543136203
-21.111602662510478 -136.75314942072933 -8.142288054700323
-21.255496448612607 -136.87114766796935 -8.143137102309803
-21.231537291096338 -136.7412633582346 -8.142636422039315
-20.834948063686483 -134.93940996487842 -8.126988385194382
-21.30475540374981 -136.90457088269858 -8.143251128971881
-21.292476697724485 -136.69393588625778 -8.142660344633482
-21.312417377345607 -136.57503723271265 -8.142104023532712
-20.963821243513216 -135.3519014528969 -8.13217008487343
-21.3741198624193 -136.6808316877731 -8.142795289188939
-21.346679274889574 -136.55102310030523 -8.142169071655779
-21.392371663859734 -136.5086584323384 -8.142044980191502
-21.052938891672234 -135.31279479917524 -8.131957257814948
-21.096264906801494 -135.218387334987 -8.13104015470701
-21.03060142645738 -135.09498099428325 -8.129400166531074
-21.05573358239277 -134.93635110393973 -8.127413074638339
-21.48266099681352 -136.6412201139712 -8.142975401775349
-21.444828543006526 -136.4769658015011 -8.142136064080285
-21.42544986279917 -136.35031133636394 -8.141329263223048
-21.109298446549534 -135.1023061385629 -8.129749781611
-20.991165550909745 -134.25837331850138 -8.117807414656639
-21.519497634013906 -136.43855018488682 -8.142138181377344
-21.520210261886735 -136.2406949176276 -8.1409548094557
-21.471512281992137 -136.17257348245815 -8.140397722808116
-21.015553042611987 -134.20402508349633 -8.117157019506577
-21.61417703983443 -136.41147755093633 -8.142258675408476
-21.619439553814356 -136.3384972573635 -8.141803741190147
-21.537788920712824 -136.07823100612347 -8.139943713107407
-21.55183551873766 -136.05909413440511 -8.139977605071246
-21.130740598465604 -134.12692721130546 -8.116409424321922
-21.70712628057941 -136.31928081324057 -8.14200004936355
-21.6196721454226 -136.00253399306567 -8.139607402129032
-21.62048908285366 -135.888868759238 -8.138808070190157
-21.639193239335345 -135.81692301047687 -8.138246730826026
-21.351884534173447 -134.80833448970023 -8.126534888474188
-21.72824099703067 -135.73779810700697 -8.137872080435246
-21.711374853610977 -135.58936381777895 -8.136353038653393
-21.793548854770712 -135.75217320822372 -8.138097978748583
-21.672534392862527 -135.1409399402855 -8.131549218951635
-21.820623520379364 -135.50806598216158 -8.135835558137053
-21.558493010557843 -133.95770828089172 -8.114938697676607
-21.440312322741335 -133.76185608340566 -8.111592538476007
-21.456152469970004 -133.72385129523255 -8.11095197962563
-21.99267440056909 -135.685003095051 -8.137924146293827
-21.61621650565933 -133.95777912503763 -8.115198033696547
-21.537938740259165 -133.76801838892254 -8.112079663833013
-21.689145922564954 -133.87985543694458 -8.114128635604382
-21.67827559734331 -133.79368355201123 -8.112763671464611
-21.77259091944365 -133.81261791656897 -8.113430409415347
-21.742848273785246 -133.74255477858898 -8.112225127685146
-22.21832374148517 -135.37312746467754 -8.135390746155494
-22.08892409770959 -134.95104654843536 -8.130294455392043
-22.075913847186694 -134.7499227321672 -8.127497415100033
-22.06165891739126 -134.4110199230273 -8.122634593215306
-21.69341805735497 -132.78570281015118 -8.094711979521168
-21.71173520163817 -132.73849493954796 -8.093767379163333
-22.420545750555263 -135.3942604704977 -8.136227563659153
-22.12950637538807 -133.97893204452572 -8.11697267713129
-21.80448260384149 -132.55571994959269 -8.090491617917467
-22.562935791484236 -134.30406072073006 -8.12227820875427
-23.13462945194044 -133.09631456652562 -8.106064397166012
-23.16806364659265 -132.42083362658846 -8.094033849390177
-23.12915292801032 -132.2552438321056 -8.090619891662286
-23.229637035068237 -132.35213405684522 -8.092891704561573
-23.18493107924261 -132.29431815315493 -8.091541114156046
-23.28305962703011 -132.40644308003934 -8.094079821742987
-23.70543160797235 -131.97540153997636 -8.087445785241709
-9.113359514778828 -137.02011147549376 -7.986720869358226
-8.355233809747443 -133.85336741596475 -7.99001014895889
-9.178772171087356 -136.95709052004165 -7.988436610981043
-8.478786967449075 -133.98448289195886 -7.99200365932546
-9.377804054826512 -137.52598651740666 -7.986654577537271
-9.280206899042241 -137.0269109436115 -7.98950125411
-9.269395319391958 -136.93622229712489 -7.99006720052245
-9.24228207049169 -136.77798072554933 -7.99095202725768
-8.643618504407957 -133.9676667983708 -7.99493086308245
-8.512762965038915 -133.6219718939525 -7.992913117329983
-9.311554422519222 -136.78713184520151 -7.992263607852457
-8.958542992082474 -135.20228200503666 -7.996907082147517
-9.00785602526371 -134.30888235099943 -8.000938974168333
-8.865121844547096 -133.737625080075 -7.999156643571278
-8.982065192312241 -133.69226429498906 -8.00102287993207
-10.081616347913574 -138.4062827611139 -7.989484420240645
-9.103165106230914 -133.62730457466142 -8.003126256036273
-10.336778924923156 -138.87188963273445 -7.988374156418264
-9.594013982344464 -135.54339185878666 -8.006332767164716
-9.516546745250205 -135.0286447028161 -8.007571902271435
-9.491800485198276 -134.9832684464901 -8.007316071358659
-10.422774637023263 -138.84314878721136 -7.990017825577052
-9.772972986314997 -135.89069764244695 -8.007445178697195
-10.619483296193058 -139.43552444146255 -7.986151569268342
-10.507774383071402 -138.9974288143833 -7.989579866564316
-10.491341035120218 -138.5971232800884 -7.994041983388076
-10.42950240724846 -138.41476585633654 -7.995241002244456
-9.903345263221453 -135.9428354250617 -8.009266801843097
-9.837986411655116 -135.8451256468442 -8.008931354550372
-9.825750225599855 -135.73380016413074 -8.009391836090536
-9.520619490410805 -134.41858640511435 -8.0096221278803
-10.809270137370412 -139.62724860622242 -7.98679801870421
-10.704974945609582 -139.31409361709692 -7.989041372692363
-10.575855865032247 -138.57073358962754 -7.995874262576462
-10.547954437767814 -138.39478537996084 -7.997330233666606
-9.927032583378162 -135.85852026478452 -8.010284177689567
-9.931091214615794 -135.75889910426721 -8.011193325087504
-9.866751483705716 -135.33615729457645 -8.012407767610867
-9.59512401055055 -134.25543009259246 -8.011247106479148
-10.820351243943108 -139.50353487579827 -7.988537860110396
-10.7502599736826 -139.25160528586335 -7.990436710235034
-10.791200028162606 -139.19312794238553 -7.991929156779627
-10.747486801266405 -139.07895808854937 -7.99256484332326
-10.716714197604945 -138.98302024931024 -7.993290000798799
-10.67274787973033 -138.85944330816858 -7.994062562290825
-10.54046270040027 -138.28071374419332 -7.9985058860659715
-10.43302441701902 -137.470313074241 -8.005554601250239
-10.386738626725773 -137.41924960763274 -8.005175902352319
-10.366195302962513 -137.37007276775162 -8.005414257262709
-10.239341044380225 -136.91498821463398 -8.00755723438677
-9.921014101397462 -135.03603362971973 -8.014957556843454
-9.911819307323572 -134.97417612955803 -8.014895304109357
-9.697608358433648 -134.18865321830145 -8.01329347799958
-10.882298302115828 -139.04471041137825 -7.995125724742058
-10.662600101175865 -138.26210427816852 -8.000781498358593
-10.63950882226657 -138.09227966986188 -8.002306626459381
-10.463875719796487 -137.41610847830702 -8.00663732529246
-10.146039159384888 -135.80601686904305 -8.014597948983909
-11.17811841431195 -140.17657671819458 -7.985463510027294
-10.91703126659079 -139.07112805920084 -7.9953643184879315
-10.745149782175893 -138.28247432259653 -8.002038543526714
-10.553655948729391 -137.28255993234828 -8.009421736155975
-10.483850568345023 -137.12483597974017 -8.009873973543444
-10.131738762961495 -135.08988345990105 -8.018508473076192
-9.987757378300003 -134.7001249757873 -8.017212026295086
-10.008375754156908 -134.68206081503635 -8.017769641141124
-11.347747455011568 -140.24222924537764 -7.987286783612747
-11.318114646098376 -140.1604713938193 -7.987857094785953
-11.31845717684358 -140.09485919853367 -7.988782443236661
-10.446014249353144 -136.19335168739323 -8.01718189235763
-10.240248493111356 -135.11566136024058 -8.02020653886057
-10.056505788111632 -134.58712685587741 -8.018727069586578
-9.190352455658754 -130.62469474210855 -7.990572580370634
-11.402764432888702 -140.2663159070907 -7.987868954187392
-11.23913334368812 -139.3694737020768 -7.996914196022584
-11.183342428074315 -139.25512090237697 -7.997469129330237
-11.089291076761999 -138.55440683004278 -8.00445993636807
-11.011410394232076 -138.41980944541206 -8.004766471267216
-11.022665844935819 -138.21124443146724 -8.007493701611788
-10.934301730520893 -137.7929885216894 -8.010735484133805
-10.837696100429568 -137.71552371563504 -8.00993282899234
-10.250460246095647 -134.87821062445457 -8.02139519118987
-11.510872321680033 -140.14711432533414 -7.991028914739605
-11.448506866117626 -140.0850490205035 -7.990876638119599
-11.341531125188553 -139.52773185431602 -7.996430020673955
-11.040139580351315 -138.1578106466886 -8.008405994544832
-10.995476038269722 -137.80403675745976 -8.011650864576575
-10.367174702534651 -134.8239841826951 -8.023592760774013
-10.310481503014099 -134.67394693946733 -8.023090763900656
-11.678515080243738 -140.46010420523916 -7.989538355844108
-11.21333605582112 -138.24865496972166 -8.010129769282724
-11.164050238875795 -138.15968402220238 -8.010396044822995
-11.196360855102863 -138.08841737743106 -8.011711975922044
-11.07365678901974 -137.48954422356067 -8.016390057309922
-11.042425436738625 -137.4062827422796 -8.01661933551432
-10.435428460466003 -134.77773252816567 -8.025103514693406
-11.839394449705258 -140.73270099680596 -7.988256744291056
-11.267792803148975 -138.32352898735985 -8.010254198877387
-11.240763672630868 -137.91922177862736 -8.014498622004968
-11.19196263729664 -137.78494446418534 -8.015189384389824
-11.133758016494662 -137.3498178274624 -8.018892251189772
-10.898017160171005 -136.33522999521924 -8.024145815470936
-10.83036559773925 -135.91543160310206 -8.026241361233616
-10.604497135700427 -134.99537331531036 -8.02724350671216
-10.53812206080342 -134.9538357283143 -8.026213062640515
-12.021327156470383 -140.99413404054903 -7.987535466681247
-11.886569758182702 -140.74726992235486 -7.988780087375663
-11.897153449449346 -140.69316823457223 -7.9897408330014015
-11.851964379748111 -140.29673485766517 -7.994331147835866
-11.578558310373467 -139.04679201772285 -8.006324414828438
-11.38411147561634 -138.44393344651377 -8.010630698646215
-11.178565054377405 -137.3253980403402 -8.019881366129859
-10.968522248130084 -136.10310907992115 -8.027353255303034
-10.889332160892081 -135.94350935175393 -8.027102888837515
-11.896506852033092 -140.29124932215066 -7.995046579236632
-11.675322127704442 -139.1641778067242 -8.006371451006846
-11.634958297727096 -139.0986675824264 -8.006652390131402
-11.381519394486048 -137.5923266421371 -8.020429336333523
-10.966128263389948 -135.98558154679512 -8.028059709785085
-10.74551439080695 -134.99092103905483 -8.029917528911511
-11.830938529090389 -139.30411547801376 -8.007111125181183
-11.568536720118797 -138.33792869850686 -8.015028474639577
-11.108283422121117 -136.14843244961537 -8.029503001236561
-10.172605915980158 -131.46667072515424 -8.010577046989846
-9.703508816497607 -129.71783839781054 -7.98756017068783
-12.217672803537223 -140.8622872775646 -7.992269695246317
-12.129765047882588 -140.09535049112264 -8.001301208093649
-11.513956414403225 -137.45503658058306 -8.024283871915893
-11.210398270342177 -135.97454021040787 -8.032645108966172
-11.975576432557194 -139.18585850277978 -8.0108357051165
-11.729854141814005 -137.9470384792238 -8.022340039417196
-10.160380038562911 -130.57774944463497 -8.002035460106438
-11.858517125558793 -138.15601881307995 -8.021889477901563
-10.161193056482087 -130.37020758232958 -7.999821660769534
-12.301756152036454 -139.65516321843702 -8.00973494306355
-11.684939820403295 -136.21924032047346 -8.039232762432222
-12.20955740437119 -138.47724594592734 -8.0236867088749
-12.236837233125469 -138.37037039575117 -8.025393770429531
-11.877559173270303 -136.79780303799558 -8.03738885384335
-11.815646284092375 -136.3150627183585 -8.040713990804177
-12.43196237164009 -138.5943343195708 -8.025651454974941
-12.343063966591385 -138.42352226972295 -8.02642418440829
-12.10882033057846 -137.1103971821043 -8.038074018174193
-11.973085589222853 -136.6348176866651 -8.040552857747782
-11.934216091839897 -136.53272012029763 -8.0408276891553
-11.419839261341739 -134.31386712690386 -8.043169865605615
-12.711630886224018 -139.82434617160305 -8.01376165634315
-11.899128481654003 -136.01511168953266 -8.044588349994134
-12.537033796424838 -138.51609037318764 -8.02838785349576
-12.431123078330511 -138.05487788811274 -8.03252669394536
-12.424934705048901 -137.6088425623393 -8.03783769484922
-12.234726318583013 -136.79630968819842 -8.043527459440709
-12.087697484270398 -136.43500511643893 -8.044431907765903
-12.038526823726588 -136.11317843409208 -8.046407864400345
-12.822136486443249 -139.22530950336682 -8.02344041991516
-12.790643660305603 -138.8097453262601 -8.028478560486555
-12.766198438955922 -138.78828590123103 -8.02837358002816
-12.525735319387461 -137.96174324846447 -8.035138567990566
-12.523967050479754 -137.73942172090088 -8.03790542958713
-12.473710608054198 -137.6011351086154 -8.038699924962053
-12.280929955526492 -136.8128773082166 -8.044197456588153
-12.224826488281206 -136.6077599847197 -8.045218089258514
-12.148317129577862 -135.90294341058438 -8.049903699423783
-12.025090655570477 -135.46893840625646 -8.050692772151482
-10.64184809542763 -129.04602020773336 -7.987554052539727
-12.781976703920717 -138.61370679093042 -8.030971287907242
-12.302645297822995 -136.10146963673378 -8.051124880867379
-10.833290506942609 -129.66950304837115 -7.9978495282196445
-10.836831590737047 -129.42274900329056 -7.994472149405252
-12.38596302854849 -136.17094214775307 -8.052120801324051
-10.817355911579273 -129.17767731372817 -7.990745848406265
-11.030674279119662 -129.32121948213677 -7.994469940689645
-10.979073676879986 -129.1195510555949 -7.99106646823263
-12.785994598801505 -137.03986253543476 -8.050433739932537
-12.700930458531321 -136.6461769812866 -8.053171764856403
-12.585793635324247 -136.07034726190818 -8.05643609298955
-12.8621808389511 -137.1966633191476 -8.049860845612946
-12.845012101359238 -136.98205415440378 -8.052032984639842
-12.765045459518012 -136.35645406144567 -8.057130439493902
-12.135650916820442 -133.64462911790582 -8.053422356789886
-11.143068324106483 -128.96831033748836 -7.9898750223988655
-13.022857729021649 -137.29799113321775 -8.051399278136417
-12.93414852042174 -136.6381344485864 -8.057250454342855
-12.796502539361288 -136.2748098847639 -8.058427053006362
-11.858131575198716 -131.74420209450645 -8.033691706901958
-13.223394359873986 -137.88825604222012 -8.047296424812075
-13.05722523285562 -137.09012734623707 -8.054412122697174
-12.996215955492254 -136.64556165271802 -8.05830743681835
-11.745366236955743 -130.8946392606652 -8.02200522678894
-11.733983076377669 -130.6680164222837 -8.018889530009362
-11.715021531380563 -130.6109786276169 -8.017868132420414
-11.549499996879868 -129.79691274165293 -8.004960889120992
-13.138894272762428 -136.72470372581805 -8.059841467590902
-13.047171285118786 -136.6125243853257 -8.059468890608736
-13.019004514240784 -136.25303308718415 -8.062592800245403
-11.785326888610628 -130.45164420742765 -8.016254299320225
-12.785764657524584 -134.1531813660837 -8.065699587827064
-11.952328935523852 -130.30498185615926 -8.01528882103603
-12.038570880461162 -130.38563189832283 -8.016986575120505
-12.21991065785201 -130.80861711257134 -8.024557086145158
-12.190419782517143 -130.7008468238916 -8.022766167070026
-13.852645516446698 -136.81116155796087 -8.070857838002985
-13.522404943677337 -135.17331613778302 -8.00151715859445
-13.649279970583649 -135.2991550121328 -8.02261896052834
-13.571162947533393 -135.17361786791122 -8.022548363520247
-14.684115281354046 -139.6526769453848 -8.044903180689392
-14.18425870166714 -137.22583464745344 -8.070953041434457
-13.994724053839422 -136.73937156094595 -8.07407405028496
-13.73742115551035 -135.4914141269401 -8.029527772413584
-14.261167698517285 -137.28820162474415 -8.016498325832648
-14.211307653927882 -137.2174766210486 -8.071485650486219
-14.90621071435863 -139.6090508959029 -8.048633570986249
-14.79787698523346 -139.49040451678368 -8.048782417572411
-14.84879184697619 -139.45376149668473 -8.050018795611603
-13.352830844703009 -132.50601764017696 -8.057221800409957
-16.478942140644676 -146.78471965705876 -7.984467588553903
-14.90599666397978 -139.3866969566221 -8.051762666167033
-14.93649904336695 -139.30727388135972 -8.053310797091791
-14.88694079709235 -139.2111098472762 -8.053967273376852
-16.560662913976504 -146.32153552379893 -7.992421705208312
-16.50755221360947 -146.1210393940343 -7.993737012743833
-16.59518768963396 -146.2766364883268 -7.9933538905297175
-16.62110590039119 -146.1359872561392 -7.995995052900144
-16.644772725996386 -145.96930752131158 -7.9983161247436
-15.16520395199741 -139.35008009234812 -8.056504906033632
-13.507353374251172 -131.68038010974064 -8.0274500302963
-13.52402616969949 -131.6639211069646 -8.0278132370373
-13.646376513592646 -131.73187508168814 -8.032076604548484
-16.792984932020744 -145.63327687170968 -8.005815330146856
-16.569426269974752 -144.58246150696138 -8.015240675861003
-14.82635954739833 -136.67318498476115 -8.035464776755687
-13.762431199175197 -131.55109464220837 -8.034602264915673
-13.75113204259275 -131.49429168978477 -8.033974867951116
-16.917165789503414 -145.91826043905579 -8.004241776395137
-16.646187129778667 -144.55880054805894 -8.016869260407704
-13.891672325787567 -131.87538273870578 -8.040945430956016
-13.81772743912233 -131.5620364111919 -8.03662451036714
-13.32192438347527 -129.18430781990705 -8.005869530654783
-16.952778322389154 -145.4718783358733 -8.01060915746371
-16.692711042686344 -144.3909245922493 -8.01993590379235
-13.943434022349825 -131.5852160930468 -8.040932397854249
-13.897815873238006 -131.4479056956054 -8.038668793513509
-13.82177572241506 -131.21915605967527 -8.034711120233048
-16.999692147137722 -145.28938948181437 -8.014156706209581
-16.784542758053085 -144.3742597992062 -8.02213411411077
-14.452321938332327 -133.5412303461491 -8.070530710106222
-17.064090854339828 -145.24947808455866 -8.015577238407342
-17.102562316116888 -145.15414146589717 -8.01767819651026
-14.09153394408779 -131.41220037951092 -8.04499102020974
-13.957933875711525 -130.9663293296525 -8.037834958961565
-13.9064671101657 -130.68646229865388 -8.03456153534244
-13.12236400087465 -127.11487670477166 -7.987272285386304
-17.164048313035945 -145.2189192193465 -8.018106722732577
-17.17888349541906 -144.9769372264007 -8.021391750713157
-14.11782826635938 -131.16265781310875 -8.044510942878542
-17.22699303974823 -144.9582413627149 -8.022366327264422
-17.234474059248342 -144.796985296519 -8.024892271576588
-14.636981893681343 -132.99073131315978 -8.07269122969224
-14.133553611475888 -130.58684888986485 -8.041773102699318
-17.339368288625188 -144.84075328658918 -8.026155023422485
-17.021020546261344 -143.32821031211554 -8.03992036185054
-14.76664535844868 -132.914108901697 -8.076655177683346
-14.373805031350015 -131.13619650319944 -8.053129605290492
-17.41504497843469 -144.8855816911921 -8.026749163395145
-17.44932057572589 -144.7958788777369 -8.028670401158461
-14.431815605610767 -131.10653168954352 -8.054947878945564
-17.531471635897436 -144.87184921124523 -8.029158108782196
-14.548829364996589 -131.06005515015352 -8.058710186828225
-14.490744992578643 -130.90159115954282 -8.055749109857711
-14.229956706927386 -129.4824099339267 -8.038868336239846
-14.152726651515241 -129.43776147127113 -8.035855802238263
-17.4982246375523 -144.4483436498312 -8.034203327218487
-17.477537488635047 -144.18526810822144 -8.036976293319357
-17.207325888007226 -142.72382472024546 -8.051373807231515
-14.33811205132771 -129.47758384351815 -8.042486017124434
-14.2817632938704 -129.32222508813183 -8.039757000673593
-17.5945642594885 -144.139139703154 -8.039916473019664
-17.583408088772796 -144.08738824425373 -8.040121846301767
-17.231904038822616 -142.71462082825659 -8.05170269292383
-14.77889058531799 -131.0824809429411 -8.066763337361524
-14.758674125723427 -130.9049277982115 -8.065006796120434
-14.461468350967268 -129.65126634314683 -8.047721371179069
-14.383052408777868 -129.58434482326533 -8.044723770870803
-14.389052954063942 -129.5133984132953 -8.04444583897104
-17.64795018746824 -144.09359183244118 -8.041174933842509
-17.25726365246549 -142.1375514069107 -8.059629990924162
-17.227213836309623 -142.1136858924798 -8.059621340397698
-17.240938730842526 -141.86399749508826 -8.062882854783403
-17.16206821339736 -141.62989813447786 -8.064724590612283
-14.835866977830165 -131.04866088073976 -8.068540375716482
-14.54739862076619 -129.55031908388443 -8.050127431390477
-14.057341181376167 -127.31093020284078 -8.020779665478543
-17.363904670866393 -142.22104444941544 -8.060518487639287
-17.38659109826046 -142.16184256037118 -8.061785887885783
-17.284324180291293 -141.661679773575 -8.066246815495502
-14.649044109584676 -129.64648121063664 -8.054264626390177
-17.842048149588813 -143.73400832038303 -8.04945317379865
-17.51589172386132 -142.27302909751648 -8.062587831508521
-17.489791975782886 -142.0812718728567 -8.064385479380295
-17.337704150503814 -141.68919700533957 -8.066811446147922
-15.455558171262801 -132.8092163963038 -8.007092545169476
-14.787947490926932 -129.8014666646721 -8.059897957099787
-14.744307586599502 -129.7203499639509 -8.057896559496395
-14.761768767347213 -129.56965342581364 -8.05774010334601
-14.394112247800381 -128.13981880737907 -8.037001605064955
-15.48090611162148 -132.7757070020725 -8.00669834298884
-14.872197478833364 -129.8025754735174 -8.062834316780295
-14.870982472082009 -129.67472116545454 -8.062067849237094
-18.073683889265997 -143.89735599391102 -8.051324234739518
-17.98879232038821 -143.70510364700567 -8.052071173231749
-17.946256018360625 -143.66286800451604 -8.052152368342934
-15.625649565542352 -132.71775029001572 -8.009589827930261
-14.944221444677899 -129.685026049965 -8.064700649899322
-14.855357699879024 -129.1661843875269 -8.058661188084738
-18.111014800462677 -143.91383369734723 -8.051468702469679
-18.143324680906588 -143.80596133205768 -8.053574061744609
-15.753595760536868 -132.662578486298 -8.011788339141596
-15.070028899853556 -129.8171051443017 -8.069762734893477
-15.028476411000856 -129.70904719876063 -8.067755633491513
-18.244061330958043 -143.93331359970415 -8.053468530514918
-18.237462621730643 -143.75454762839018 -8.055775374051379
-15.769098112681748 -132.65699071399197 -8.012092798690382
-15.816142860797353 -132.56471974924185 -8.009923780295843
-15.153386369304846 -129.74233786949895 -8.072271893149997
-14.695380007809117 -127.52528038259418 -8.043987616656887
