ply
format ascii 1.0
element vertex 835
property float x
property float y
property float z
end_header
83.29275897146519 -129.66261654487676 0.11729731966469292
72.86868548228145 -170.082229401309 0.08667440912698088
83.19716953374426 -129.65054619585075 0.10903287483087443
72.60281703963253 -170.48267816730635 0.0853076950158953
72.66027316957774 -170.4196888765919 0.08697406721532519
72.71522962220378 -170.17539653239496 0.07797523531714767
72.53506228097959 -170.49659621666032 0.08004779034785314
72.38926456544495 -170.4485074997413 0.06415099975412653
72.22605067159125 -170.70720857430663 0.06428268805651327
72.33635931816066 -170.5238763907381 0.06364820728714449
82.67423356907949 -130.11172251612382 0.058396618482879914
72.11168079800636 -170.84566492553276 0.06202429431589951
72.15923195778758 -170.71949896863188 0.059086600162922664
71.97138939695488 -170.8924999420393 0.05225447932292582
72.03987814126589 -170.86240474199167 0.05667012143291017
77.31134558445143 -148.46169245424124 0.09343864186106066
77.22184310303291 -148.424024415116 0.07938375801382835
77.16605701555403 -148.3765373547961 0.07117366232431466
77.14471415741497 -148.3172198523633 0.06886195657284544
77.1394870508539 -148.22181665936108 0.07006288323428467
77.19133696366984 -148.12126852205236 0.08079480257061888
77.23194979132316 -148.0567480944078 0.08889726008830512
69.0647180337068 -176.20821639566262 0.11470613623537207
73.89929297033665 -157.28615516007966 0.08172553177878461
73.79363244725633 -157.31482011264336 0.06769369759733856
68.88703777296364 -176.19111955770637 0.09935454149017309
73.05964805613941 -158.62940631652262 0.09710098562722069
73.05590683205742 -158.53176775023618 0.08560747697103532
73.03935223237644 -158.4139711144985 0.07004420554059387
73.03115960523024 -158.3427256491336 0.06096522271806659
72.98809231117647 -158.18635459378706 0.03732367328070074
73.01634897696857 -158.09311361866696 0.03110479343688466
72.71439285431225 -158.7565020831139 0.06286130806820833
72.74837078054811 -158.50610416821806 0.03897207755747112
72.76749416109631 -158.44887790000365 0.03518970859341097
72.81786778668724 -158.35730706714537 0.031987502373987065
72.6939362674822 -158.62064803019226 0.04443873150878819
72.70935734311188 -158.52553763423157 0.03573291062141104
72.53063736416274 -158.666183141145 0.027135896590116948
71.7770773676345 -160.00558428041867 0.0895031457586124
72.17944603527096 -155.90824096399794 0.1079040673332472
72.02758273790757 -156.0978814533191 0.1097840084644448
72.05485878685056 -156.02457408009016 0.10278564155707914
72.1162437360414 -155.9276868100718 0.09864856228281638
71.95057182280003 -156.12175396320097 0.09916997462107258
71.98667058272363 -156.11271782545901 0.10451308265775427
72.04243907860094 -155.95019054565677 0.08796965535009793
71.85909857052849 -156.22927175308806 0.10036564907061596
71.87797606171011 -156.1386058682202 0.08834944716925652
72.14934939528233 -153.57153576074734 0.0897006501465698
72.19473396749763 -153.4462556087274 0.08355915271248415
72.24582537427021 -153.38996233582475 0.09073030357024248
72.11305409333745 -153.61102344123805 0.08518966311275955
72.12954766556528 -153.55684914577574 0.08128382968636472
72.1704895975831 -153.3935343166214 0.06783869699456058
72.18635197598294 -153.38653076320023 0.0716487560171375
69.81710239675003 -145.79913749921124 0.12603170905581074
69.73567287946393 -145.8053951223196 0.11331473419617888
69.91651657723655 -144.96972137489084 0.122756797169703
69.68105143814222 -145.8220053239984 0.10170575363760026
69.4021221591621 -145.8193078675041 0.0675117412656514
69.32941864194642 -145.89285761035816 0.03977194642499593
69.10704139447864 -145.83487259620017 0.030730510221498974
69.06729989577558 -145.74994448931525 0.04902162488866879
70.2578674312108 -139.9960833211693 0.06474591430906229
70.32052752651114 -139.97043465562734 0.0738320928306504
70.22178839024686 -139.97276439792762 0.06400511985259882
72.97202276076922 -127.52192572147 0.10304650323197873
72.87953192545159 -127.32546536255555 0.10416738521969204
72.76482283611591 -127.48756252054139 0.08644606517648135
72.6682324129767 -127.54775226200707 0.07514813624858907
72.48281703368112 -127.67844526998076 0.052778581142679304
72.56661299398866 -127.66409880438498 0.06076310299828647
72.4182962394551 -127.57082041394347 0.05224396949076504
72.30168870957696 -127.79882329081252 0.03132663896569654
57.90818860473739 -173.82216948820553 0.0913236714302903
66.43839547534917 -140.53311084309067 0.09555999409022387
57.851888373825915 -173.73169148692403 0.08133207889705507
65.47223799749759 -144.00312407498782 0.11299158390211916
66.3689555039131 -140.55917414470292 0.08840940223754634
66.32109905061652 -140.51879786388415 0.09227438082302664
57.73732284539467 -173.5642206735717 0.06228881238276007
57.675033902486305 -173.4941503566619 0.05365208367555496
57.54019040026746 -173.57057678963275 0.0545668262796104
57.542336033451726 -173.37132382655562 0.037775604230804616
57.158270702322454 -173.94084768657748 0.06993548822641249
56.99471313888034 -174.0665944205901 0.07369692967476582
56.316067613329494 -174.88745146304774 0.11500331726408741
63.4986346207795 -144.68286854498962 0.06146642948684833
55.68461862335511 -174.77844454235526 0.08123023363784765
61.29004203547368 -152.9110176295578 0.05584166330020213
63.45713971810835 -144.491945323474 0.09749685263713093
66.89867782768376 -131.30662691084405 0.12355077529263525
66.78191593921176 -131.17694960869358 0.12598312443867066
63.330129003491095 -144.42913813698198 0.11639152406243047
66.54225778234223 -131.22252761798862 0.10536291893047633
66.60732436648793 -131.17775954316537 0.11361698729951519
66.41118994935383 -131.28483755297077 0.09111146576286822
66.45587718748521 -131.07727732887167 0.11134689636575223
55.10933910411299 -175.03562120561008 0.08064018284827168
66.3137950894011 -131.3281082161382 0.0808296497599803
55.06505879236748 -174.91665628040712 0.06914423681992488
66.2117949810668 -131.3462910668153 0.07234098785263376
59.431486787690524 -157.58559542463593 0.10368851710826354
59.404385449231974 -157.53549826957718 0.09984015080508701
59.35048429032773 -157.45163675517344 0.09427167996716923
59.31734250186292 -157.37727999389148 0.08829616376681737
66.10542542368002 -131.06802000848256 0.0880084096928726
59.25371252160229 -157.3258715573063 0.08746530261932062
65.96142388863177 -131.03029812640523 0.08135978896060414
59.21057103416693 -157.28460718209686 0.08621036985805586
65.7952030531875 -131.31701158313086 0.04665373958450614
65.83517624578496 -131.1098830620191 0.06633395085661431
65.99667052538187 -130.78629239046225 0.10383564520295852
65.86584513831137 -130.83180966069287 0.09126545794460772
65.68616230214911 -131.06268935342732 0.060289591306813994
65.5948071782174 -130.93307376886935 0.06490033912655013
65.50994389761502 -130.8511224768395 0.06602535189590819
58.64269337010073 -157.17412387257468 0.12064107376452382
65.43680013314946 -130.8443404407943 0.061797112047296876
65.19578959972965 -130.7056886777407 0.057484716054542195
65.22951148191562 -130.47558816959383 0.07851480690834145
65.27257555459617 -130.29270410867372 0.09627943197741051
64.91826569774908 -130.37113511179948 0.0670630554588969
65.01415607270238 -130.09301742616384 0.09592742057398396
57.88400117433068 -156.60690249623894 0.12962591383621747
60.49775409152905 -143.8334412533091 0.042239990162295626
60.357187851221845 -143.66028618511686 0.07271809632619797
62.31593850347356 -136.11953450633587 0.03763971082649675
62.33046156410725 -136.00968927780718 0.050019816552062224
56.8967748579977 -154.46317485303885 0.06030184168978647
56.876291312844 -154.40296717194758 0.05884643960268732
56.68386268303075 -154.3906356946298 0.07835530654970557
58.89006204951322 -144.57308562040797 0.07510725800109164
58.92669130926738 -144.4753894250821 0.08225088770193967
58.94388424202593 -144.41329913686576 0.08736319321648178
58.770074342308234 -144.64076097020134 0.07794452851735922
58.91455047886953 -144.343895796177 0.09695132381264915
57.223826843070356 -146.80703584506426 0.04256480852581346
57.28600432385424 -146.58391120604114 0.05074290104956658
57.137151885819826 -146.47980434418275 0.07244513049187562
57.14569464712573 -146.43698334974064 0.07446330695530068
57.12480577836472 -146.38283891006665 0.08021017451210177
53.5787066501061 -157.698234406304 0.04592170066616097
53.266272655947276 -158.15726616462013 0.09811938009064636
53.31829594383508 -158.0704406279377 0.08868817372907767
53.33593735060975 -157.99880861135978 0.08238169479693513
52.04712509427529 -156.45820931980504 0.07070241870447536
51.9760074671421 -156.32200141813973 0.06830416713487986
51.803618019835014 -156.18431018890013 0.073093107473442
51.64521037004553 -156.13604259433393 0.08176944490982097
51.66400447177071 -156.06646239542474 0.07682681690979831
54.73505960937835 -142.5613101942569 0.040406345300008084
54.69575077184539 -142.2698086648145 0.06544703993682632
54.65627324519828 -142.10915398618835 0.08039612150126052
54.59494217452807 -142.1386407285767 0.08127851021503751
51.03877634680107 -155.65868186030988 0.10222798296782565
51.013252185812775 -155.6001291346746 0.10150469378876137
50.86096038039848 -155.90347051843173 0.1261264949002996
50.86807601209767 -155.76928977617237 0.11951230806125213
50.98458975095096 -155.41421303232448 0.09555737105339479
50.79983517815182 -155.8536253100117 0.12822605058301972
53.58636114429559 -143.23769100442004 0.05674609186776536
53.685943861000545 -142.38133310430186 0.11216380524138736
53.69955840124052 -142.28501355022044 0.11862626202043747
50.44139699789717 -154.62406040860765 0.1050977080515243
50.382340371153205 -154.57099581073552 0.10767781591556225
50.362299002262986 -154.50906618006442 0.10704726456850211
50.179979752720854 -154.74029745236282 0.1286437130553051
52.49433749852345 -144.31625282255496 0.05806444951336176
52.510367613281204 -144.19115226176916 0.06412080654576968
51.94595963362365 -144.22342644960716 0.09915783270303735
51.18909344818458 -145.28728611810274 0.09705797855056941
45.96197623102738 -163.96124133002624 0.06949295445300296
34.87393119619719 -152.48495186911762 0.06377909294233053
34.956603498853575 -152.12699993750803 0.05709266630892951
35.192100104335914 -151.31042069670215 0.041501664746872
34.87719319603616 -152.01498934265 0.05951998191007446
34.88755879137684 -151.43024044000518 0.05509215682240609
34.646425586571986 -151.90562726867515 0.06846443998816776
34.82777125626723 -151.19595510035228 0.056363521078106826
34.8374054290933 -151.07838333595302 0.05537522150100238
34.89750936368784 -150.96031331161922 0.05234288712957569
35.55283304385704 -145.2698962105199 0.060717023598354736
35.505052217426716 -145.1387506324589 0.06488372450183699
35.04900702068959 -146.2651250762507 0.06665497617468774
35.0548026563608 -146.14079063533606 0.06801666794424888
35.244123077291555 -145.46273342682332 0.07012907203146201
34.977976173475035 -145.76828262065516 0.07637103689358593
34.84561366868182 -145.63316946633324 0.08375004445499834
34.97249476511298 -145.53771831902844 0.08004355581716993
84.03569650279437 -160.16972908821657 0.21237369510802995
84.03821359014175 -159.56143938248533 0.2040503548571142
84.11591848218507 -159.46890471745232 0.21019656934080433
84.32993532661592 -158.45297240716957 0.21713908330315634
84.11111080541275 -158.9508117948726 0.20263755485314716
84.13435504696261 -158.86045376118298 0.20369562874796188
84.17849044817989 -158.78081617556288 0.20690506927558627
84.22461497059088 -158.7028217566588 0.21025574028778515
84.25112492129217 -158.34890346324113 0.20814320944839548
84.29444335446036 -158.30263747852658 0.2117898136301526
84.66071480092127 -137.12837584452225 0.17351898787728848
78.32890089945725 -161.3039580034876 0.19141996466545175
84.54251953639755 -137.08844100435957 0.1630369528014468
78.24002289430577 -161.34975728268225 0.18307719805001255
78.25598239743077 -161.29639896690702 0.1826628893096296
84.45955065220281 -137.06370913867778 0.155698906466041
84.38555079394875 -137.03130971875615 0.14918004122259942
84.42642389271747 -136.69795517590742 0.15544058529524407
78.10708619614581 -161.27812884188805 0.16454474317766254
84.33232583978153 -136.9344931160248 0.145083095447341
84.11055708547144 -130.5239666523313 0.18102032662417789
84.09442281415303 -130.39941923388614 0.18077314312940929
73.6709122997526 -169.94493219394394 0.15299628718750014
73.70738018117306 -169.81724413680115 0.14913201093571904
73.74017993004216 -169.67994564167938 0.14451931990255784
73.50672093726902 -170.12865342969312 0.14802955132487328
73.5814690383267 -170.0070160161204 0.14813179771983997
84.02875525182327 -129.07478553346192 0.188018741158839
73.43248807444137 -170.11478013952174 0.14041738032149254
72.66032818990234 -171.50095167469027 0.1487682621873112
83.43708377457526 -129.6117033762002 0.13053203981074968
78.17492137301849 -149.5682375231621 0.22236803807001415
78.16532663798732 -149.51967746624297 0.22117165986221576
78.16741655720699 -149.43391304099148 0.2222261495716651
74.7024517728596 -161.20959862945352 0.19886706514857688
74.56301385256435 -161.1752501843868 0.17863302826287164
74.52581732157329 -161.19264519997554 0.1753515463604871
75.43191541015499 -155.87344024940776 0.2199596844547378
75.4561773442059 -155.73095452517467 0.21352855560593365
75.37830078980224 -155.79940941577712 0.20446362109454141
74.97141966366586 -156.80582007194755 0.21548842198567475
75.00961406023221 -156.66164106434562 0.2094749861286449
74.90586176861498 -156.84607668566863 0.2077436911899866
74.87978524654598 -156.72088049909365 0.19215749746120947
74.88808860431259 -156.6110315861587 0.18391471342964394
74.97666588422466 -156.34332476503278 0.1763542531878013
74.90107205128233 -156.3925651404375 0.16726601943259634
74.89558959405517 -156.3317872810504 0.16113582627482614
74.68677917168603 -156.7023879486763 0.15727957136733428
69.58868531448363 -176.34023306279715 0.16511827247862554
74.62920486692973 -156.72536159393795 0.14948806955979022
69.50053179572326 -176.2657625470358 0.1534629646425989
69.4135351014533 -176.22288373118286 0.14394182296417535
69.24272325712207 -176.33988875518807 0.13681943505115512
69.32740006664652 -176.20167991469907 0.13558099823264036
73.32723423908226 -156.79000852476085 0.20890905464622578
73.21101480772138 -156.70470351515314 0.1767104869434295
73.02251259972917 -157.00687658271454 0.18269942701328112
73.13626382717159 -156.69085582894667 0.16131563996086307
71.90817480949997 -160.94770131692604 0.22073799704529629
72.96494846824241 -157.1487586094454 0.19177220720616117
72.98726503009843 -157.04522284172006 0.18167962575530772
73.00712801655979 -156.94252374426512 0.17142001880183755
72.98195645969618 -156.84376875287455 0.15378137356333
73.02876872902246 -156.75857066765323 0.15084344687119944
73.07599334337414 -156.6958758649663 0.15109825164652912
71.83491761997695 -160.95345227522142 0.21273780608350146
71.87040279529803 -160.94792202242078 0.21623323909188175
72.8381054852314 -157.17167677954205 0.17294265627984529
72.85787698884911 -157.1315096479316 0.17083466667933545
72.55172286624287 -157.68116455802678 0.19635441581050173
71.64598955564135 -158.77786117894644 0.22317697866078312
72.3604704304837 -156.0306324326123 0.16382369795137963
72.3943162417912 -155.93083609322082 0.15449974527388965
71.55071121166004 -158.8477989687966 0.22086161040886654
71.6077498140886 -158.79724885168457 0.22088553672029265
72.30411669472036 -156.0270551459926 0.15201948974978596
72.35438991295582 -155.94965783758417 0.14949381423591634
72.38023005393737 -155.85919965215342 0.140140648503561
71.49609134359244 -158.90951365121418 0.22297571857745502
69.95875442470849 -145.59038931343898 0.19979102559750017
69.81996373916557 -145.78495437336835 0.13008716725227587
69.88641328954226 -145.6946825304346 0.16266351533890688
69.91982333692106 -145.67597234860412 0.17220835398531364
69.8854441446975 -144.90165289350753 0.13399719413968003
73.76918204434816 -127.55777512113538 0.17228905708375852
66.80781622061593 -144.70726123597518 0.20765546725738782
66.84125740850607 -144.65749856585447 0.22046243482283523
66.73090144920545 -144.7315835774043 0.20114404967285449
66.6625452740151 -144.70131654632942 0.20856149244435684
68.4305972619261 -137.47226590126155 0.2054781425874208
68.36122104537385 -137.47933402331194 0.19932074479823636
68.2895677038322 -137.45101000440008 0.19721961164467094
58.6642375345012 -174.49954493071357 0.18313166303510475
57.90730553136643 -174.6568300296031 0.16241644825548285
64.62605751449455 -143.8114239679299 0.1705794311111366
64.49621433012632 -143.70129267736831 0.1962905311175751
64.50908606263314 -143.66485729650896 0.20301160859507483
55.75060115469763 -176.29719061226513 0.21015374794619324
67.28042932930475 -130.84353788109826 0.18944271153683778
55.62778825612375 -175.89724729118078 0.17171007316175135
67.08642779561879 -131.0652142732543 0.1569916600175989
67.1441497437893 -130.90894515230264 0.17411020318739823
67.20792627459338 -130.82044491731455 0.186068778554358
55.52100640852663 -175.8955023222191 0.16744782005943626
63.37745938769954 -145.39621717891654 0.23054277559615488
67.00854019953152 -130.97328888783974 0.15899890255789573
66.94818440160016 -131.0862534149614 0.14531635928493447
63.05169237958025 -145.67558403153737 0.212752932387549
55.101902659044256 -176.4759340600294 0.19909296625914097
63.023567419632414 -145.61170391073344 0.22735322668218405
54.99576534790033 -176.24265653401582 0.17563552526496196
66.65470669851119 -130.96060573739783 0.13488119372123597
64.80724543159955 -135.47400221062082 0.21189150104352894
64.67396864605679 -135.73920751331897 0.17489881568326604
64.73406830890526 -135.65205012836822 0.18783217712942712
64.7641904049939 -135.53579555426535 0.20263357594911535
58.73447359704245 -158.17869045097672 0.22722692182214987
58.614192078427635 -158.03578504643016 0.219599681268708
58.522791771780476 -157.34574819314892 0.14914265181854636
58.500331076695154 -157.309810279265 0.147182158354368
58.46010723452898 -157.23703498171278 0.1427501721480957
63.06307517288022 -139.14222650645624 0.20034402404342733
58.37916683325882 -157.237598909905 0.14958134188244032
60.32969516231123 -149.5679766506135 0.19072135818961256
62.94899634436039 -139.27299165238122 0.18084823886917412
62.980622990590035 -139.18201625758815 0.19378817130207215
60.011980849155016 -150.25847098840143 0.22707856490021228
62.751481024234955 -139.58127224387596 0.13659628986323935
62.799174044321475 -139.38379257010175 0.16404813814848485
62.87006692710312 -139.21620945438673 0.1877765371443405
62.708005745870665 -139.59242778253537 0.13476861267636853
62.71000670363416 -139.3573628815633 0.16684819373298732
62.63078048371953 -138.8932278820615 0.22974658375075196
57.9182589711225 -156.80440366543306 0.14555809956453225
57.944063427873644 -156.71819682536307 0.1348430975932342
63.40093202495832 -135.30179926744054 0.16746908115556103
57.785753778196245 -156.94718173646268 0.17137903632365736
57.92335213157908 -156.67926544140136 0.1330083689462791
63.338428965237 -135.38985478063276 0.15508561367190632
63.20036012241523 -135.42430363549448 0.14572160479689766
63.25116713186716 -135.39631211741533 0.15087939117185423
62.165727395271155 -139.16666855625058 0.1891210203403293
63.10844928659424 -135.33822381488258 0.1517441001105957
63.04724629178737 -135.33650121121912 0.1495372341390715
57.50878466974515 -156.55816675054493 0.15936210180705523
57.5200277358902 -156.4824239394277 0.15142408230249127
59.980262538825734 -143.08314464127426 0.1689932696038967
59.90009441699411 -143.14852422762766 0.1656516488276636
59.942450560566314 -143.13158436193214 0.16520327418367353
59.981800824479365 -143.00134261873856 0.17930670791850045
61.70267397137935 -134.3741436613466 0.20772478263324978
53.01503706776506 -167.1025669918315 0.20423377067844517
52.875257218189844 -167.3585841920999 0.22886101512074952
52.94739167703776 -167.05903842081872 0.20039605531640792
60.03241616153551 -139.0923060782208 0.2070960663688437
59.885878984076484 -139.2356699215457 0.19124276292591236
52.5637232573154 -166.77812218870056 0.17671727666498982
52.5461889198043 -166.6889692388521 0.16877694738233773
52.549518001329616 -166.46878764605304 0.14868936137810107
52.13158609157341 -167.30892605082784 0.2285612732092237
52.13596482875995 -166.97687239968172 0.19801004227635466
55.027507064012376 -151.0437812250838 0.16143451642044337
54.76837234236487 -151.42781155499281 0.19332551967812384
54.73962961406689 -151.1401713416803 0.19434148100219395
54.788415912343034 -150.85292824759398 0.18778043085715068
54.92052652026617 -150.52006140540277 0.1731389271167827
54.54071486455761 -151.38594499539462 0.2185724847553181
54.55149237631694 -151.3368047446826 0.21691391702964147
54.8079012313805 -150.61233543169732 0.18559556172045877
55.50270762533788 -147.89031423489345 0.16624995946631604
55.516358221455924 -147.8220241614368 0.16761397926232902
52.658483938048235 -158.23705104987587 0.1420551111039492
54.49724836895626 -150.94409726958025 0.2207830081716533
55.310769155114926 -147.6737004399076 0.1958676201013856
55.36822164329004 -147.59017940270795 0.19339087750170036
55.39182987129715 -147.42165605179295 0.19854692238336025
55.26811821653231 -147.4638542224193 0.20970191969071528
54.43404451967747 -150.55149770066637 0.22776359308719063
55.232072471424345 -147.32825547627235 0.2197992147620158
54.648138095685034 -148.69741124458383 0.23165604907558213
48.08897029876999 -166.53799758771623 0.21216377878329973
47.97439726646381 -166.7369760330376 0.22991476995263005
48.013712995749366 -166.48451804798424 0.20909386338249547
47.96592970510481 -166.41405067280195 0.20446303151918976
50.061871476201134 -155.37142904713278 0.16120693523714147
50.072040459786066 -155.30023866839048 0.15763458704587197
49.94940953302482 -155.46772170542616 0.17335772231589575
53.38416487738432 -141.92254180165185 0.16364088320402526
49.77739952685381 -155.77991538110635 0.19895126815305586
49.98175061430528 -154.84654343346384 0.1471403807147098
52.64579628270386 -142.32931303436192 0.17547990091600996
52.53133231207439 -142.33959654044122 0.1814434951690702
49.90785930776812 -145.57933274176878 0.17477770535118875
50.00433878409867 -144.5367189682476 0.213617846190421
49.64318524835414 -145.5757373511616 0.19377179330135763
49.4647987513203 -145.66324682015835 0.20311786761006
49.482665338864166 -145.60002935677102 0.2042578088775553
52.17395982583574 -120.27994500402995 0.2235345318573645
32.886724054867244 -153.68845824168778 0.16147526300395154
32.81612864813948 -153.57160851565635 0.16287380390002992
40.84618956696363 -114.84369539930205 0.2334567580402851
40.5880556570665 -114.76995682862344 0.231463136877885
39.9247620888093 -114.94914540374185 0.20242603745878562
85.01468255219825 -160.21585951533345 0.3064823944356643
85.14501877068408 -159.91885434192704 0.31473114350708475
85.09142607361157 -159.81595752684873 0.3082837589186922
85.22874993315037 -159.02110339231297 0.3108110976648897
84.64454914539151 -160.2316528098229 0.2712945330934926
84.82345932002735 -159.5295168910514 0.2787401900437889
84.8063056142706 -159.45026032286887 0.27593817347436267
84.84067416831073 -159.39644183207105 0.278589012351091
84.48146216434566 -160.21166301177612 0.25554593927389435
84.91591548625414 -158.25169171835594 0.27080272247289683
84.29372458591266 -160.24949189749412 0.23818773581170483
84.31885679601169 -160.19058349536567 0.23965445737259938
84.75410505335586 -158.31179957695227 0.2559974902538049
84.61994742216146 -158.31857519978468 0.24327113740469564
84.42277294675196 -158.2952676572502 0.2239433148054455
85.65632136769939 -137.41141179430585 0.262425940255403
85.54698490618911 -137.35353638537802 0.25280498266024165
85.56533403187139 -137.19114856080066 0.25559289439075683
85.23326933411084 -135.85079533290562 0.23515482113999409
85.43407395529306 -131.159996341201 0.29277591808329917
85.29238020526932 -131.19193449478547 0.279809660060242
85.1497535256368 -131.1522011418947 0.26746263668849335
85.59972095480789 -129.33197206829317 0.3244784842191457
85.11862302036191 -130.98015410649938 0.2662831040728215
85.28050495790782 -129.89602825739257 0.29081274240588373
84.53457448713448 -129.50270018577814 0.2284347651159795
84.5804073070235 -129.27373738689136 0.23474601613114965
75.37318068436487 -161.53505321350727 0.31013156637988804
75.32949820652057 -161.62931462099777 0.31205019665769695
78.31746414743463 -149.73593354723346 0.24515762698781884
78.27246575533597 -149.6902712785882 0.23786259622935857
78.23872853136837 -149.64223971219232 0.23254944428448
78.36900965222551 -149.24142245150784 0.2578317386877822
78.4227198766769 -149.17924721329987 0.2674357786358248
78.19724690538294 -149.59747011674986 0.22593867661128852
78.18847525977174 -149.46487676791503 0.22553377574493494
78.19012827446302 -149.37931563104053 0.22655405091770953
78.21042009706235 -149.32363355268498 0.23050642680637035
78.21192194648881 -147.67715881604923 0.25823821892656684
78.22685173793204 -147.5769621537879 0.26302605698487214
78.19990676566094 -147.642635669907 0.2570279161730049
75.58360664390094 -156.49167763847927 0.29633416216551156
75.35318776960449 -156.88325450733444 0.28857686567171514
75.54173105691157 -155.80782444528938 0.23500351597554947
75.54660052883774 -155.7762540231784 0.23347177683611986
75.45507551007866 -155.92589184284938 0.2281742442584429
73.38850379753092 -159.40127309682973 0.23080724143189602
72.27535906924062 -161.33423319193776 0.3123090804021418
72.6858689359336 -158.3162628061283 0.30923628260256786
72.75422255228179 -158.1428608050054 0.295261162092316
71.99262508512713 -160.97311323494685 0.23396241129706308
72.57416769375887 -158.3809083617703 0.3009929679050398
72.68855372312198 -158.2017778643517 0.2931246117808253
71.62586482372262 -161.83608649551113 0.2978184490219753
71.67750248025465 -161.7354430132884 0.29119745981592393
72.21458104830319 -158.88863227175756 0.32154816906465
72.22636794654274 -158.8072002987042 0.31103413576683137
71.8646416417949 -158.81928553087417 0.2602712449295077
71.7834063922958 -158.77187337091573 0.24149333790637195
78.00505022239513 -134.489758057513 0.27167069234633767
71.70568108430277 -158.7717630855091 0.2305566104197012
77.88100132859662 -134.51813240527258 0.25758275219528715
71.48499379170802 -158.96599899107278 0.23028662673228428
77.80058543697187 -134.4597004355504 0.25167248031982337
71.47070854903407 -159.0131307058391 0.23567013422383232
77.7706171201571 -134.30674069430307 0.2549543485501775
77.75084327823075 -134.20292027488 0.2572398381762311
71.93441002153898 -156.1005825520914 0.31766447669707043
71.97238403233143 -156.00493036788427 0.3066358725176108
71.82978348757096 -156.17142647408605 0.3101366125006664
71.74428504581996 -156.11169121211 0.280375063438995
71.68529285788937 -156.09409723326152 0.2647548655336529
57.60515867519668 -193.5542985350575 0.27917375426806856
71.26378441891885 -138.64253413013552 0.32395604879358686
71.17769727205531 -138.6243910476534 0.3171129950889624
71.11893712134136 -138.5870660233016 0.31538435706640544
71.08604671237038 -138.5238869396441 0.3193546537537677
70.8254240892645 -138.86082631500108 0.2536153959896459
70.77736105153207 -138.75047888015214 0.26167831964736776
70.64549530553951 -138.47074308550987 0.2813226020282602
70.60602390310298 -138.44231837551237 0.2807812789138848
66.84851827432944 -144.60110357154542 0.23480800199846885
65.32152891056676 -144.33576512456168 0.3224909323263798
65.24973973466702 -144.42360804871268 0.3046788266875837
65.28748425839431 -144.38509796824655 0.31220381892175464
65.18275828427946 -144.4051352131541 0.31172469435840333
65.93417950607049 -141.29560706970855 0.32336244777607215
65.04285768911686 -144.57878563223497 0.27793662029887756
65.04884870233862 -144.48442129753127 0.29930529711521925
65.0451034821586 -144.4243577142578 0.31327039887776365
64.85495494270563 -144.71036907591417 0.2577745391072668
64.87269539058502 -144.6649179760681 0.26705320235690233
64.86475641290998 -144.55222887826866 0.29293734309611974
64.8820774897766 -144.45591431607926 0.31389032134881734
64.78237974731182 -144.69218154324108 0.265917310511393
64.81088742621704 -144.6888486244258 0.2650813894769737
64.84689557943953 -144.4466703978436 0.31780537721258884
65.60339750448264 -141.52212658712168 0.2740112172336999
64.69227067611581 -144.61996845895402 0.2872317377601039
67.6588446455894 -130.0298757762788 0.2849002622268981
67.72629128382587 -129.90722964135855 0.30013461429994415
67.58779129011862 -130.0731035479268 0.2760088991334524
63.604626019036694 -145.04570874348045 0.27763818843483
63.64423252287527 -144.9675818414734 0.28983537105873625
67.47709902210339 -130.0478421733254 0.26988547987274414
63.52027026390232 -145.13503599502167 0.267552356326783
63.56712354886732 -145.08549363442268 0.2730462929183328
63.34152785548714 -145.39738942432768 0.2338707440943617
63.41052006259814 -145.1140801754564 0.2819090201118568
63.31794634026541 -145.09377275902312 0.2946497053354833
63.032699716882234 -145.58286350820194 0.23163121806264275
63.146038254532726 -145.00968982434193 0.32749265134532846
62.938971553074886 -145.4546201517783 0.2651091993957153
62.95162688059763 -145.41002530386638 0.27193396049937624
62.74572640592613 -145.55899827986124 0.26765436537550946
62.78446888911718 -145.46137094041956 0.2807583555337123
62.747121400689565 -145.5032588558818 0.2774022659546358
62.7192529232295 -145.43883059588794 0.2920702008345448
62.63586179250554 -145.51582020267657 0.2877436276291705
63.02474164501598 -138.67714233556924 0.26459317426919493
57.89957188669189 -158.04224925701445 0.27693612189004835
62.96720905186224 -138.43969519873946 0.2969611103413565
63.008083712568784 -138.4193357420496 0.30042009763258637
59.86633348719952 -150.05965564700915 0.2581561746900467
59.88116093729846 -150.00062117872406 0.25700133541492165
60.025594369093085 -149.40675023365594 0.2523919779103285
60.06513964175154 -149.3084610533725 0.24992060507989766
62.8870599983835 -138.4932028240669 0.28829916479396456
57.7544948671049 -158.08137959533016 0.29312366468274087
57.74092731020947 -157.93561004866814 0.27808485165055874
57.60331249333656 -158.12525464094912 0.3102520144727121
57.6167771248262 -158.06558733209542 0.3026202039352981
62.146504590930775 -138.628187063491 0.2618042408968251
63.177099759839464 -134.44891478604427 0.2539405202016465
57.71162035114614 -153.4101716338282 0.3181009043894205
56.65623586267304 -156.82620998302193 0.26278450544691223
57.62275039059928 -153.03534306681584 0.31248490216950686
57.70166149860986 -152.9821542154717 0.2987082260033245
57.54224896863602 -153.08951824365383 0.32659757495143316
57.553999126517496 -152.9297633092507 0.3178022808546763
62.44613952854108 -133.85711195209754 0.2909881744792444
59.251471406064695 -145.89053813710802 0.3020053244672227
62.36096829496837 -133.90055377179178 0.2829305649768934
57.452538906164634 -152.06266533803557 0.30312161130981274
57.33191481912076 -152.1327620974006 0.32266418639356464
53.041489220920845 -168.329972018489 0.32123466093695474
52.990880950148146 -168.1470755897593 0.30363524320513924
61.82175623187039 -133.57861031115007 0.2988667475451141
52.85635280546012 -168.41289582356234 0.32968349723808177
52.9868630731058 -167.57233634078145 0.24872617933089813
61.706481789979854 -133.63978875847644 0.28813156931597894
53.00215323679066 -167.44396644238114 0.2363869706280577
61.606552781966464 -133.64741507739328 0.283862269924944
52.65882463488618 -168.1533185223254 0.3052048058844574
52.71318214993616 -167.97757762768907 0.2881520255128105
52.86767730708687 -167.4757207019325 0.24004437589727057
61.32723315146734 -133.22534586037327 0.3206456830727724
52.49718559789151 -167.3972661186307 0.2345056418497804
52.11457326943098 -167.43618705770723 0.24030064955530572
51.874194601803794 -167.7883978612023 0.27449071686595095
49.62112619702107 -167.922427965316 0.30599010041850794
54.15262069592572 -150.33820596025637 0.26019245505209687
54.57749506451917 -148.47973625572487 0.24570632339098442
49.58192700733851 -167.8392265554413 0.29929077822129413
54.60599015987629 -147.93067650430572 0.2612344858137703
54.17852925066969 -149.5365774582944 0.26558880232661597
54.49210093333126 -147.9576303520556 0.2725290158994005
53.924499230445036 -149.81650070961314 0.29015458123519866
54.461016508344876 -147.69250619358255 0.28609016568815715
53.80420869319909 -150.06477869533364 0.3011662772013819
53.903288011819406 -149.4567043671572 0.29758124123099483
53.81037971270319 -149.3921458318088 0.3089964051095275
53.542336588155344 -150.41425905083537 0.32846758196225245
53.520892455700555 -150.360232017565 0.33111223288530245
48.81724837464934 -167.4469610787438 0.2752239662740701
48.82981678452655 -167.31818449561865 0.26435543848359955
48.83284581339221 -167.19920428035078 0.2542459094876752
48.56295651780689 -167.18992527034567 0.25742158277305816
48.59442731865085 -166.94513831310513 0.2367450624444627
48.44093443193573 -167.17837093664224 0.25841436766415526
48.12806634360102 -166.95944271232815 0.2454199054478352
47.85657580216553 -167.40572370066886 0.286110071738505
48.085618119940115 -166.87862415853255 0.23944899938837683
47.87663137446846 -167.2697926247093 0.2745772543201881
47.940103445884745 -166.87619988243003 0.24179081010516423
50.02989841571012 -157.8367420897928 0.28785908609754807
49.977540437762556 -157.7480627568433 0.28615212311782123
55.46492709959088 -132.46553253112504 0.27890127171051793
55.53113099215333 -132.35323983480544 0.2903081267544023
55.59961753789288 -132.17469162217907 0.30824956802839876
55.37018240352768 -132.5414106815688 0.27074437221588976
55.24712510249244 -132.5769393305755 0.2662610653446813
49.559613473057965 -144.6784145687533 0.23768466510606312
49.687296613505566 -144.50128688852044 0.2370542587372273
48.67416185456852 -145.06925827722745 0.2828417901146474
48.64931058221039 -144.98626673503932 0.28802372932093556
47.730792535092334 -116.98022983521439 0.2981179747490368
47.59865467334913 -117.03100509050135 0.29013049899698484
47.42857623543267 -117.01643220407446 0.28528511127986333
47.24286007108198 -116.97692975159066 0.28189277896985665
39.450723331830545 -113.8287597861055 0.2624532101340429
39.1394898534021 -113.6995775275221 0.2625300395478436
38.3110448705572 -112.10921740042163 0.3437842118769703
96.84164224671002 -156.56178293320033 0.4002112351720397
96.67313508592144 -156.824136252851 0.3900854706234018
96.72000258967425 -156.73380992090878 0.39295352141673434
96.65650758192535 -156.62413331469392 0.3885993848573388
96.7921359825766 -156.44997029680687 0.3967115741528351
96.60738260336032 -156.11117738646598 0.3843764467962598
97.19654695466355 -151.8928422244943 0.40419631977025894
85.92852511956214 -159.28410452612678 0.3813148009982399
85.3682910871729 -159.88889529432066 0.3356752047884086
85.97456803072916 -129.62792441050343 0.3550578278395715
85.92047227687738 -129.53801247613598 0.3510525940211833
85.91218911409942 -127.09236245716787 0.37382403945609677
85.71966757634328 -126.4663297856096 0.36303593341252616
77.23270664518579 -148.44540972704579 0.40369967014905894
77.15898428832881 -148.38791157888147 0.3907352965249187
77.12890138808288 -148.31456659539663 0.3870388142713408
77.13996307091827 -148.24626757035134 0.391471624181742
77.20579019386808 -148.10799964812975 0.4091247861282734
77.11810555169727 -148.20465654001953 0.38848175281733055
74.3765543389291 -156.56664241394057 0.3810546712995504
72.56713817400461 -158.8575507249643 0.3699086544518111
72.62335497647648 -158.73190119620546 0.36007064491318275
73.12875474146864 -156.66844587748793 0.42156282996675554
72.48419856144727 -158.8590741971144 0.3575000689350354
72.5230175434487 -158.83387300400665 0.359696043078932
73.08614739840601 -156.67552365798582 0.41399466173042665
72.36159122047377 -158.91858817915053 0.34789619281762874
72.39455794108228 -158.84932887060543 0.3424848556208142
72.31052012796631 -158.88009685131968 0.334462404377011
72.2951423766662 -156.05943583252096 0.38734785528299054
72.14902849807319 -155.96423886347958 0.33679413619086107
72.17293245474097 -155.92508285822453 0.3344298108113586
71.92834576663581 -156.1693275826663 0.3301679250144851
71.97027898329794 -156.1159182385084 0.3282630126262118
71.66788492198981 -155.82238925035495 0.4210058039589153
71.81296850172151 -138.88478232718592 0.35484487889690897
71.69463710825652 -138.81532721291944 0.3498868795640582
71.75275169778905 -138.76266769521496 0.3622742832242156
71.8123077721461 -138.70642351550936 0.3752455127712562
69.77496241953729 -144.8726822396986 0.36070261631608225
69.72129158174542 -144.71690051156094 0.3944559195399089
69.67904033565635 -144.69289943475493 0.3954426890870886
69.65529218852339 -144.70453034124534 0.3894774384098083
69.61481681997662 -144.67840045973256 0.3913708796783548
70.57914732798754 -140.47259549348027 0.4249179782034953
70.36577750551267 -140.84898502196705 0.34492665774411213
70.50763302547553 -140.44477920931192 0.4214729131092476
74.74485349385276 -123.91476729252408 0.4303879284137906
70.29671651641536 -140.8312783359755 0.3403622118207261
70.34321851423621 -140.7610762382335 0.35593072183924535
66.3600062133309 -141.27226576948857 0.34130768911193554
66.37621091005637 -141.23969095215762 0.34792412361125935
65.54693418630173 -143.94984969069725 0.40729539278189275
66.2684343480433 -141.26425521345175 0.3395652229198227
65.46846824336625 -143.97379888201235 0.4036380278036462
66.21043958944931 -141.2406802803488 0.3419479525639675
65.39547336811476 -144.00589008096793 0.39807562550398345
66.03817897052457 -141.20977490879085 0.3421234602302936
65.97703478527423 -141.2564613963912 0.3317466495164423
64.98149739364659 -144.25484157041538 0.35524454654957127
64.73562121929511 -144.15089884601304 0.39072575710818547
63.05367203878803 -145.01285741018296 0.3359146247909668
58.96024689338891 -156.46172842641187 0.4170530995932453
58.93484886201006 -156.38821246065515 0.4114495637864488
58.928786476884326 -156.34861369167103 0.4075132934501402
64.57495505759793 -134.07661044220066 0.36071427934420974
58.87340221606776 -156.03472876777005 0.378624702379206
64.50399550466177 -134.03418514541724 0.36197329960430413
58.702232042215556 -156.03392802355197 0.3996028999734489
58.70921701862689 -155.96649047346654 0.39144200049884104
58.69985505916448 -155.88753504708353 0.3841251200303015
58.58210412345808 -155.8805016185179 0.3981067284329405
57.08424045296374 -157.960435199728 0.3357208497002664
57.06176145070094 -157.91906665902494 0.33322051018778787
53.956628103270056 -168.87056486298042 0.3752552866450385
60.298226247268985 -144.08021215501603 0.4152525929296589
53.73572704228964 -169.3952068074033 0.4275350563690383
53.82816079893898 -168.8344747860176 0.37127771348006466
57.58458420699929 -154.14569289489094 0.3800625322014748
57.53704856276991 -154.09695618629337 0.3834548929681545
57.45992118603797 -153.76964595396072 0.37402890987539306
57.55403458621403 -153.52450856059232 0.34677212783591926
57.34997377189851 -153.73592850163126 0.3876459894686035
57.41197725797938 -153.6801907669079 0.3756641789181645
57.205622878604196 -154.0605601155068 0.4276380817394154
57.2985308245461 -153.66429756062496 0.39088360151296153
53.183097713580054 -169.2831655668199 0.4150183355320354
53.24813375688166 -169.08216880111564 0.3950087708908858
53.27264518841271 -168.9275626809945 0.37980870502958264
53.1256887177969 -168.7294636937336 0.36014064171072424
52.86848491758825 -169.2693185659648 0.41326648374474284
53.06284320808174 -168.67711376453582 0.35513935374816463
53.03050904243397 -168.59006406139454 0.3465499440261035
57.026649497754555 -152.9787747498791 0.39632634524191745
52.823726931582755 -169.1964292415096 0.4061762963581055
56.963427228829815 -152.94775845528721 0.4042236627286153
57.201958328401005 -152.18519884426158 0.3431945841412207
56.9019693924463 -152.9150281276284 0.4117927838175768
57.10163361532119 -152.2354489255171 0.35930753744219746
56.80170831656662 -152.8885632072235 0.42532292499455826
52.35563880361296 -168.59845548527963 0.3485999972731253
57.77726511817248 -147.3365521223926 0.36484992696220586
52.13255994238861 -168.95976713292146 0.383985611090629
57.669385528932544 -147.38355977043756 0.37629126244236044
53.0914237103631 -152.33401583611507 0.39547074673128124
45.24028146312042 -182.79433321352926 0.37369538782636247
48.892179539910565 -168.32428102233402 0.3492414625292819
45.07496136681312 -182.78668776195283 0.36859619911161623
45.029029635685475 -182.61817306486176 0.35432774267969225
48.7370695284603 -168.33801107341105 0.3523764211391005
48.62449127743483 -168.25388518832114 0.34643474909793914
53.30758734230924 -149.8762083743372 0.35859516912720135
53.50065696365404 -148.98495980799999 0.35131972970259473
44.79845712519759 -182.69024864764248 0.3535426200117531
48.573061755117344 -168.11743282451073 0.33532507115992916
50.760942282438016 -159.61714413289275 0.3603013616584374
50.777237337064776 -159.53137755370926 0.35304232132624036
53.63730153654378 -148.36305838562882 0.3522049733156063
56.204130438772125 -138.22974598042526 0.3888225213881149
56.214136447399895 -138.15101725702058 0.39710455339176787
50.60857073320304 -159.5337767467014 0.36356084755405815
53.63374204492366 -147.66171005035295 0.37634667989441906
56.06040674448655 -138.17216523764563 0.39927179887123887
53.116723686459146 -149.5897932446669 0.38340273142785186
55.97227542267991 -138.17200554439543 0.4019736512275851
50.38215974753844 -159.56280145773167 0.3798267175254424
53.1932053547018 -148.66899429855417 0.3926871917865298
55.91902625285574 -138.20750715561346 0.39966196521241004
53.02280573655603 -149.1958987963969 0.4001623525376854
53.12567764307892 -148.77004226866927 0.3976889151843712
53.18595372778894 -148.56219680272395 0.3962254392986635
55.77358814246634 -138.2820068477277 0.3961386306372552
55.81237918627478 -138.18988042368198 0.40488756827676897
55.659541548578815 -138.3008079788504 0.3976860012895149
47.35368196328309 -169.02502185721724 0.42854183789976363
54.67636927836459 -138.77956077622665 0.3823007957360034
54.621751698943726 -138.8176100834081 0.38062627418679607
54.420595922909406 -138.81214792043014 0.3888953712105252
47.96885161269289 -156.92307260867074 0.3811156832917313
47.746690415340204 -156.1384070483409 0.36196110245540836
47.52786192455919 -156.1160079190121 0.3769846643924395
48.07359432077095 -144.58080196066297 0.3456088949436744
47.267238537420596 -144.24822371385662 0.4164712351624391
47.21505178124296 -144.14974434000928 0.424401831822687
97.29404545043377 -157.99865426624035 0.43132669176050853
98.20758765244338 -154.19709810500413 0.47819693149361076
98.0018111210855 -154.5944087939127 0.4668542437709977
98.3311730896871 -153.38002213771364 0.4824612593543318
97.54084543741683 -156.07128896093337 0.44285219617906524
97.59756633877748 -155.92271819223023 0.4459287985518461
97.67014084961886 -155.68315690518972 0.44985079438534337
97.72562175045799 -155.58783004629478 0.4529176838295488
97.92218100617035 -154.68605712176713 0.46232432461650497
98.17263977957123 -153.78174268983474 0.47430569875016304
97.34726355854292 -156.34910039546685 0.4313186690814088
97.64041605811587 -155.47189368892145 0.4473376301137961
97.62375150471927 -155.3683166639441 0.4458472242161844
97.71261588719881 -154.96863580255865 0.4500865244084
97.82239721196902 -154.7760573348682 0.4562801801820262
97.90287358994256 -154.4792328800833 0.460347321693102
97.3756451858685 -156.14699706343254 0.4325695753355341
97.59095737678065 -155.26163374793714 0.4435698141993061
97.59762247978013 -155.15928919063327 0.4435297716385802
98.20998692142649 -152.74985633531867 0.4719185041817717
97.35493037248547 -155.73253715770815 0.4301055620884213
97.52472137784542 -155.04607009061507 0.4387019342087317
97.61126161062982 -154.85196706018363 0.44344810756214526
98.23067298667686 -152.34163406141204 0.4711574144090356
98.02173990699026 -152.53453889455872 0.4590845439748861
97.93493560935603 -152.4286439343389 0.45323534936559917
97.48627780132621 -151.407258506936 0.4198875161745639
86.81623664501288 -130.11051868310167 0.42577360583469326
76.35286141622471 -161.82668045346483 0.460321253050181
76.4026541587735 -161.77689734022601 0.46310491574497736
76.39938097305932 -161.6168084296097 0.45042706952394185
76.36449996309642 -161.64517550017018 0.4479029162082284
79.64101306673403 -148.14111254856874 0.48456773720985846
75.96898668245007 -162.2128612045448 0.4403399475291023
79.56886332138122 -148.20123591863907 0.4716711585444022
75.36787915385347 -155.46488821841 0.47046594676972986
74.70593233269209 -156.54559085841817 0.444031361461634
74.70107688045155 -156.48339052862545 0.43610450818442414
73.22693100227103 -156.71326574387555 0.4488122196378477
73.16461964878188 -156.6741164730341 0.4298590218196676
72.28959374880502 -159.68550752309707 0.4531281558731586
72.86772930014604 -157.32059573109865 0.476251659104723
72.8668802178049 -157.2716123032599 0.4678405183173102
72.39694198410494 -156.16325893100438 0.42994552234788697
71.76252616470347 -156.01303596035146 0.48729467705259766
71.81222325377554 -155.90020766604127 0.4724461702210965
71.80993625445493 -155.80497269376824 0.44994152202400506
71.66157316685793 -156.08504830492421 0.4814094658448409
71.67440021854372 -156.0264619263359 0.4704532772297221
71.6944260179979 -155.82768929746757 0.42837653903666006
75.37871580138065 -124.14652610356427 0.4771250567190357
75.26049336330493 -124.22389851524085 0.46273850173233244
75.17732331327586 -124.15815325794293 0.45821898585098464
75.18214109848549 -123.71780166047873 0.4791482942555163
75.08744566531686 -123.69308412939243 0.4717067661365424
75.01025795627098 -123.60110213308153 0.4690007571431083
74.96701997129675 -123.35749991305408 0.4764573427448322
70.26667685114805 -140.01349933243893 0.4619641665977472
70.32944651637692 -139.98528774193008 0.47272825437154076
70.22979118983321 -139.99600622782148 0.46086490891535226
59.59404123858005 -177.50229743140315 0.49168992571377657
66.49329577743329 -140.56060939973077 0.4783762339261193
66.42367312380121 -140.58817731491595 0.4704377234082753
64.88239217973693 -143.901380628215 0.44132842762984126
64.82219780538328 -143.84913591592692 0.4560452301127609
59.486101385441145 -157.5185865758536 0.494074396834675
59.43896009518506 -157.48290572818604 0.49410166921371235
59.432856130544664 -157.39175029704094 0.48223981620348333
59.46351278119431 -157.32174896282828 0.46945373307994664
59.41899685520464 -157.28128283667775 0.46876654405231055
59.426155895780695 -157.16151664985114 0.45192474320081133
62.97025446788229 -137.0675464423827 0.49071786085541613
53.871341808908284 -169.48601952913867 0.4372417883393356
60.51279528470198 -143.64222569361556 0.46014175404082147
53.80478102833386 -169.44048297556438 0.43225871919505754
53.35956754420148 -169.7243475813394 0.45950719821812935
57.02451848635428 -154.19411650872763 0.46157910266794566
58.85751613595385 -144.6405713028318 0.48982641194878496
58.91883110428938 -144.58402031992748 0.48995854801294736
58.946818742492184 -144.50547814040874 0.4965784351644478
58.80007514278861 -144.67584257414674 0.49193751436371635
56.34757745348683 -152.09873163410094 0.46671950454006206
58.27970653462545 -141.33507534038455 0.4957048465415277
48.3796311879633 -169.4006711739745 0.44917943795252
48.30563184581419 -169.3398416518774 0.4444583092508072
52.44528671625007 -149.4110186312988 0.46096540064007874
46.520346462063216 -169.5972874901182 0.4879800770145246
45.32762464076172 -152.83297569732485 0.44882693451121036
45.31380880328697 -152.75479451933091 0.4486422508559913
45.023548233301426 -153.100825717914 0.47685225867200054
45.19686488156334 -152.4385388507098 0.45295243473413005
45.22174496047514 -152.3514501845027 0.4498390093808149
44.93502324613593 -153.02567041703693 0.4822936864647682
