ply
format ascii 1.0
element vertex 818
property float x
property float y
property float z
end_header
98.34087355911974 -195.23185452172785 -0.22422125148065195
98.81008000787376 -193.5709145079938 -0.19764129219122084
98.27495558533184 -195.15612944076517 -0.224840282723494
98.67608780401468 -193.56512780340867 -0.2003803513371888
98.76651335782344 -193.4664670121341 -0.19748618740908375
99.02463354711271 -192.48743454340982 -0.18225206004155797
98.3434711464554 -194.6923211587905 -0.2187747956369791
98.47023477820112 -193.92214165497398 -0.20836179362789953
98.44385493936502 -193.89633588631216 -0.20871109266650667
98.46127961898348 -193.65310557929797 -0.2059052628076775
98.34311132357246 -193.93573876905734 -0.21130756418946978
98.31982873827832 -193.71571264667145 -0.2096871962699075
98.4373989670414 -193.4366269550655 -0.20434393821156172
98.13507213664391 -194.04664566030064 -0.2171380490346697
98.24144720362305 -193.88446643385106 -0.21312486091704713
98.11615723607484 -193.97247835198758 -0.21689015070060874
98.09583909434467 -193.9043459935401 -0.2166937813206531
98.27082269156503 -193.43478459088604 -0.20811665802980617
98.07275092302054 -193.7538539796565 -0.21581738631277042
98.03678066493185 -193.6764472827305 -0.21595352227171227
97.952762097406 -193.69346862103075 -0.2181426203853966
98.01145201181795 -193.6241729385187 -0.21604863385333567
97.85657150975966 -193.5824610619333 -0.21948759194736894
97.90801832032078 -193.55502072864806 -0.21794017715070996
97.76621268915552 -193.5269068239116 -0.22122985203020112
97.67029126806283 -193.51393083680512 -0.22359030495494897
97.74119773258258 -193.46152582398986 -0.22127717131894353
97.71888056430022 -193.36843904831724 -0.22096976334844404
97.58237738993031 -193.0668054499187 -0.22177068313802661
95.91609243377444 -198.2877698873935 -0.16440673430292263
95.8034596527493 -198.433735421458 -0.1745134198863087
95.8683780406318 -198.36859015365593 -0.16952337188124816
95.91430199917468 -198.27698177732105 -0.16399789372238266
95.7118443842288 -198.44236091285913 -0.1778935448194794
95.62253293954336 -198.42788636170937 -0.18019284019806775
95.57297366625909 -198.39133685964651 -0.18022152219168963
95.52441136452451 -198.26757174757577 -0.17633542941136854
95.50727348460762 -198.26380795097847 -0.17674961600673433
93.90713026838361 -201.0486002250405 -0.1411748562903113
93.96122155880565 -200.97676494831154 -0.13572814277732081
93.99119629627894 -200.9234200036075 -0.13143774802748248
93.78843829007809 -201.10496300257435 -0.14396338482939441
93.84897346648411 -201.0858681703616 -0.14340936595508147
93.74297706460341 -201.11210235638322 -0.14373852969471668
68.81185572123066 -216.03844470248248 -0.24869153881861325
76.60545938095969 -181.8768846215806 -0.12448914668040895
76.31658125853872 -181.87014934251246 -0.135890583458192
76.1569429579828 -181.85299642618995 -0.14162241906769596
76.2262700425184 -181.63146299506315 -0.1278930909200915
75.93725877514052 -182.49909018239254 -0.1824922781779973
75.99272111645963 -182.1263536419324 -0.16171210674585135
76.04657112546336 -182.03276030963107 -0.15498411867948958
76.0294702659228 -181.8692726223746 -0.14752473236010388
75.84716206365663 -182.54884846958117 -0.18855983729770487
75.75149565226651 -182.17700834485402 -0.1740590910781778
75.64447496578194 -182.49395253572789 -0.19421458210474762
75.67937856907594 -181.96230173270996 -0.16647143138140386
75.39157617618112 -182.5388521464664 -0.2067972350253211
66.04253634499759 -217.10710062731644 -0.23171028463960372
66.06749071259628 -216.96720867219895 -0.22762628128520193
65.98274551857399 -216.87013359107164 -0.2226256630599543
70.97901155325731 -196.94985980546366 -0.22900792587482094
70.98506937876104 -196.85921509659963 -0.22325434221739493
70.9646314617274 -196.76024852368667 -0.21714565762717303
70.87257341366573 -196.64397755406887 -0.2107407984185507
70.71145950375998 -196.50829428654404 -0.2037075570330832
64.3067464102443 -218.05877455727085 -0.2305292247359186
64.86539006982431 -194.6531851227918 -0.14485002673952657
64.8075285877341 -194.86884064082903 -0.159187875962445
64.82853094663152 -194.7589379217493 -0.15202066394433422
106.87981279057264 -189.85302136764963 -0.0783854752191363
106.8320033248835 -187.56866289443897 -0.03690457830223215
105.76128947552957 -191.34489481019227 -0.10803766210539295
101.70715383374166 -206.10212487986914 -0.04130772100984359
101.75532603706608 -206.01386787226133 -0.035060180006709574
101.77269936400981 -205.95509980233905 -0.031998735510383236
101.57629696422572 -206.37013017149792 -0.05941550710334792
102.91036600994168 -200.9134250053935 -0.12473068527089387
101.31116744105141 -206.8394809810787 -0.0920987578841489
101.42259392252464 -206.63911836638388 -0.07863494631157225
102.85962213310161 -200.88247885309298 -0.12388071202289047
102.85332347654533 -200.75330538167327 -0.11677030841265557
102.914584388449 -200.63811745370913 -0.10926721684214474
102.7235594967723 -200.8879881143326 -0.12655708303902619
102.79003904008847 -200.72623551018242 -0.1163473387468349
102.81341929450835 -200.62574249448335 -0.11033740469852582
102.88079532715292 -200.4564109852108 -0.09987486424376962
102.88856525255956 -200.3308098669311 -0.09329133163150644
102.87196210412428 -200.25096489673294 -0.08952624632411194
105.83074833495621 -188.52785741226847 -0.057190169244249134
100.95960645643402 -207.45576266266008 -0.1313437197771264
100.99985708877776 -207.38489545138148 -0.12706902561068212
101.04510226923297 -207.30565597921603 -0.12219552544633988
101.07356038563542 -207.24195277286327 -0.11879539614062534
101.36300906247959 -205.7875156319004 -0.05911644330847304
102.61107709125824 -200.87572222589446 -0.1278480616656304
102.70305763869239 -200.6155838751463 -0.11176949887665566
102.75661494885435 -200.54792451813523 -0.10703075305643378
102.84969529440544 -200.185081991343 -0.08660074815201113
102.81172918794769 -200.06157840097796 -0.08103810130683048
102.84917347848118 -199.95565698998954 -0.07496961948275194
103.05251454676787 -199.09548903593873 -0.027887875127895423
102.61539226728044 -200.64625698013197 -0.11498430826062367
102.74116477609908 -200.17898725114193 -0.08839384952498591
102.74597609751154 -200.08975871318808 -0.08377176166138811
102.73485810910083 -199.94297658808992 -0.0765383367976456
102.79065356722386 -199.9001897758373 -0.07332006422181359
102.79193981687986 -199.7869447122529 -0.06757142096066004
102.86747925603667 -199.67251844816045 -0.06032128443885143
102.87655387215234 -199.64117909638298 -0.05861833199123556
102.92783318889545 -199.22577156363573 -0.036822164319315676
101.0137379581096 -206.6699991751539 -0.11010944523272354
101.3916084709894 -205.03562587656114 -0.03311152261107059
102.02925209476163 -202.61383541965344 -0.050850419433125627
102.73619706994165 -199.86513060905182 -0.07263315345076315
102.74307676519072 -199.7592249654503 -0.06717240932689872
102.62872137519793 -199.7242232921492 -0.06764340064131708
102.64523308087742 -199.6501807753529 -0.063599263117601
102.66052427072394 -199.4304159948889 -0.05236256523024663
100.91880762340918 -206.10188940678154 -0.10267904126339467
100.89897147091523 -205.99084483362554 -0.10116475855291429
102.56216287656345 -199.62746028708378 -0.06411691549706577
102.59019465419773 -199.54670451737329 -0.0595362473305136
102.61371303409145 -199.48230858427573 -0.05583186486317704
100.75000198981978 -206.22853333564956 -0.1188694663683762
100.83675403246296 -206.07183667246701 -0.10817305583911108
100.63601389740701 -206.30100644644207 -0.12914040397142817
100.72668608671731 -206.08849507906345 -0.11697074973647142
100.82312069837874 -205.539191746289 -0.0939863460918367
100.71945141724795 -205.5193365629104 -0.10156538197446635
100.73773013582576 -205.50143847040655 -0.09960538424429644
100.58865933295463 -205.634734233757 -0.11519128520978744
100.6365379593456 -205.52317940172193 -0.10820680752994932
100.60920148238151 -205.4733259035583 -0.10884692335842316
100.71929953908065 -205.40684425140046 -0.09831155892566135
100.50635372179983 -205.6655574228885 -0.12247397881517103
100.51451595808837 -205.65150043860154 -0.12139802809547573
100.5419208054273 -205.50638999872427 -0.11514270696635637
100.41107368740809 -205.65491079706558 -0.1295185128082581
100.71689333571662 -203.9024118128568 -0.04498993220466241
100.99188990818674 -202.73812969371716 -0.11226709243075983
100.91831516155167 -202.72901596590967 -0.11555851951529755
100.96081289325022 -202.6641600269709 -0.10944697069046394
100.99584864304792 -202.37760545331406 -0.09014980687271745
100.27144960206407 -203.63072771295268 -0.07069937221283029
100.41586768741641 -203.11039885436836 -0.032163010720283325
100.38767364761435 -203.05520102059873 -0.03159878862538029
98.56923115986432 -209.9295859068604 -0.03945028411079049
100.38879774053201 -203.04190537355103 -0.03078197323301446
98.47524299345139 -210.08780472716182 -0.04019158851753052
98.5704341399402 -209.8340772454143 -0.04192761833750103
98.53577134234298 -209.7522447971959 -0.04603222208043822
98.32955175453041 -210.03217889406568 -0.049362762001634475
98.43569723959281 -209.8216957721365 -0.0495849746182902
98.44236745802155 -209.69008301985275 -0.052794499854675214
98.2147923700988 -210.11676820853737 -0.05279444917546755
98.31102001146434 -209.72458020592168 -0.05882372898536059
98.10175576159179 -210.21510297599863 -0.05558708264546475
98.21953511725111 -210.01566788874655 -0.05541255317755667
98.21616306636403 -209.87527967702104 -0.05948737690957984
98.2365946995144 -209.7888765322163 -0.06087002573951361
98.28264869553314 -209.71274798759504 -0.06060193261211949
98.06579988318455 -210.1670117399743 -0.05866286651067398
98.08793735269485 -209.93775365481457 -0.06410751102117695
98.12589593689563 -209.87195450233375 -0.0641010561264424
97.99199347969959 -209.91045112419127 -0.06951694826332261
97.32110760061875 -211.19884409492707 -0.06025052074776727
97.27680816746322 -211.19621989694846 -0.06199428304172411
95.6051407125329 -198.45127618941788 -0.02823446298916904
93.99161100205501 -200.86985682306786 -0.1265930149453114
93.95114814909664 -200.78050093019286 -0.1178306416542707
93.94016995522932 -200.74428804167408 -0.114340802071914
92.15541670415561 -203.8274705742574 -0.11638357879191763
92.18021690416931 -203.7282291499305 -0.11408016317997521
92.19695748353381 -203.65364488621364 -0.11212887656990789
92.08517779863077 -203.89656869837552 -0.11486732319929804
92.14868012311682 -203.80849901860495 -0.11529405372124474
92.17283345714566 -203.71576598809284 -0.11318059927607071
92.17152635162407 -203.60463605313413 -0.10866827037373522
92.13472762003386 -203.53619850124664 -0.10366991791710356
92.08641568633794 -203.48731621006291 -0.0987320581920571
92.03333988371374 -203.45499892077837 -0.09419575649832063
90.18834319795755 -206.58528276163838 -0.0725704717439315
90.23258695499264 -206.51310311236793 -0.07387075514405678
90.24758212150223 -206.43010060645972 -0.07368675790832896
90.22671137751169 -206.32521585642175 -0.07150876544635976
90.15311227678038 -206.24756162366324 -0.06701211574857696
90.0681809072805 -206.20651746371874 -0.06236423666937402
93.2623200735674 -193.52905619922538 -0.041911538562948825
76.45127292525717 -181.57019414548895 -0.11574714042799317
60.98975111092896 -217.12367446557454 -0.13246252945048315
61.077283198344425 -216.80425593056833 -0.12251811701087634
60.95463746070185 -216.99360418511975 -0.1270595090378614
60.71842913407074 -216.80486070427665 -0.11521681127351868
111.45975495051621 -181.77965595828695 0.0792530691760096
111.32180293821533 -182.12805225683206 0.07268132514835546
110.8356084464599 -183.10819617986832 0.053823316140142574
110.83610640607856 -182.96068317388574 0.056462992018653346
110.59920864043403 -183.5765135623606 0.04475919530978134
110.05722649418496 -184.4560030424813 0.02756345134322935
109.72414489163111 -185.04012347218676 0.016151668895411198
108.73015712919269 -186.61860295468819 -0.014850303444666701
109.44076229127563 -181.99827407703327 0.06763511933614685
109.51641961326385 -181.55225769678572 0.07525097015230686
108.7335398728736 -184.31860446574862 0.02588900060678162
108.78491651969318 -184.09186732404874 0.02993811001770197
109.06697871073908 -182.91963078881992 0.050711155477286884
108.85202127541456 -183.4152099270852 0.04152177226053644
109.11640765643048 -182.6818151086399 0.054852610187179796
108.94886310357776 -182.64429695959464 0.05460653073488175
103.7325452350362 -202.50727719265876 0.044210016766079496
103.87637520880689 -202.20336397053234 0.07023937524475643
103.7000945335414 -202.49602356009166 0.043193199887978095
108.14577713511848 -184.67453565614443 0.017388030553538214
107.90728820076393 -185.18190711489459 0.007872425825740714
103.49217678218528 -202.49058312371287 0.0326924648239546
103.36847471311872 -202.40210595343922 0.031640729993659744
103.28587730153973 -202.37127352269155 0.02924181515527058
103.34987292644293 -202.15758911365674 0.04569044266445943
103.20544046497754 -202.22875418775806 0.03378657451069089
102.39712227363518 -204.90393372542988 0.05468952124129334
102.42308982256844 -204.85691229662973 0.05873576794010982
102.4632368023239 -204.7696410475538 0.06563162557524882
102.24188587428814 -205.1846009128417 0.03111235116147182
102.27377234145584 -205.12306781872272 0.03602442527609617
102.32874295186248 -205.0369325781465 0.04383257893424142
102.37258073854103 -204.95126702159172 0.050787478472068215
102.44341712254182 -204.67235351062175 0.06798275314747049
102.05604397666085 -205.49194260111238 0.0051217791163502
102.1014680549343 -205.43148923117712 0.010853316633640808
102.19144777445898 -205.18522850224855 0.026941229498893327
102.20387887303339 -205.12173922462532 0.030308900680152573
102.84545106881606 -202.57666511517527 -0.006128326194886735
103.92312651560027 -198.15776004071643 0.03602173462392522
101.84041896361592 -205.8989222505828 -0.02502505869991478
101.85901647250151 -205.83840129617656 -0.021735003255394902
101.90003895385372 -205.7647552725764 -0.01621732483261834
101.94689123905606 -205.67909285153289 -0.009787057529742182
102.0043067939795 -205.55936612406086 -0.001304263806379713
102.79098662319196 -202.45001462123682 -0.0012786212314757073
102.80047753707039 -202.33317152027828 0.0063413714658608344
102.84213763914275 -202.29812523980965 0.010643766105683128
101.79181577094789 -205.91815372821893 -0.02941614590466074
101.83560833506391 -205.87222120215202 -0.02460739700675796
101.86426185655884 -205.62379858248877 -0.014622915288770744
102.15120261365782 -204.447226750879 0.05284845938282079
103.65422333791365 -198.36074439599827 0.020536440483504392
101.90613854454506 -205.09953110189758 0.006640460092346423
101.89215678033297 -205.0721417354139 0.006491386601382709
102.0748910277171 -204.32013874798795 0.051881436007057524
103.48189770589282 -198.59932188550198 0.005291500003996752
101.69602862868761 -205.50706433308525 -0.024322493262783018
101.95301083027869 -204.36543218051628 0.039595693222281625
103.34743712248559 -198.77555681218448 -0.006127182260241171
103.43627096494488 -198.65914351103396 0.0014648702190120932
101.62761231088908 -205.41346362196603 -0.026768863362609363
101.7130436279208 -205.1412285696052 -0.010637571650822186
101.88041385023158 -204.30220081024785 0.03619236450454866
101.92456758149535 -204.09945814217613 0.04895565378558209
103.2351387325976 -198.87239039957254 -0.013125214162827692
101.55554306537275 -205.04463027676317 -0.02007501250374205
101.78502129268594 -204.2731005860456 0.029365351971067155
101.80615197530312 -204.12594032291165 0.037658340867313456
103.0933299748634 -199.02800515340874 -0.023699407859047894
103.19539641761628 -198.6786268918376 -0.004352367279378877
101.51846411984145 -204.95375915266706 -0.019862171980735477
102.22223234746413 -202.09740970343452 -0.009109991907903514
101.43198638780522 -205.0254948417138 -0.029472328131200987
101.44115073402101 -204.9593421353735 -0.026387836865302272
102.04847401119132 -202.20060584772455 -0.024561863053423838
102.97263435876496 -198.87716162034425 -0.018640441521255435
100.3360357839327 -208.60014676602273 0.05065256325051992
100.45301398121399 -208.38827335511166 0.05701478802449078
100.49487453535127 -208.28228019458115 0.05905627269823743
102.04562323579603 -202.17238479855234 -0.022944719217283582
100.1573599642097 -208.91857409271583 0.04191839624024751
100.20765948363325 -208.83143158345226 0.044274762331716344
100.25027133150174 -208.73797917968452 0.04601836671973092
100.30171201045175 -208.65911780977015 0.04881723360590462
100.5771879424011 -207.56906557015895 0.058129142346425744
99.966669968492 -209.24793436100884 0.0338366165772801
99.9996824772097 -209.20101632507348 0.03531183152121409
100.04902733105956 -209.10696153645972 0.03717128126563496
100.0944831674606 -209.00933158619569 0.03876808571498869
100.1279837602136 -208.96953852187428 0.04055481486917778
101.34757108433575 -203.99103049794167 0.004687163051971255
99.79120231289951 -209.5615065583623 0.027757248735648554
99.83699395111366 -209.47453437748226 0.02912703130253136
99.88903513512858 -209.37810613373722 0.03083259487762735
99.93839515128676 -209.3054547974698 0.03289962320879236
100.37580862607372 -207.25412241120998 0.037183267689484656
100.48934156130048 -207.04634026460639 0.04607641080601521
100.51210620533598 -206.92336102056524 0.047439114914990754
100.48979754742204 -206.82687494299995 0.0448698589386326
101.24181004491192 -204.022256523329 -0.005711570052257475
99.60731877770576 -209.89887673862245 0.022724279027782013
99.63788740775848 -209.8327127565919 0.023278181717184487
99.6895051057913 -209.75202253963735 0.02492735597265977
99.73253629424495 -209.65238078923392 0.025672286003846245
99.76715710831382 -209.60327118728975 0.026963583200666053
100.12574515359843 -208.1352080247752 0.026391618510410275
100.25681871617525 -207.27978414115424 0.02677139688379382
100.31193356117667 -207.2308166480292 0.031267172999091764
100.427283614481 -206.70473475669584 0.03837288477414724
99.41123851679713 -210.25822702956586 0.018583490982607365
99.44484998274173 -210.18716411647227 0.018984515722219653
99.48592442781491 -210.1063524685739 0.019669396122651395
99.5360625759838 -210.01169425822178 0.020687431945082158
99.57623026317813 -209.92993076424105 0.021405225332211675
100.02961512102107 -207.86657615244533 0.014567148844041644
100.02758431224524 -207.78644570718836 0.013241185875537853
100.05259812303616 -207.67537684957745 0.013782307825350448
100.105881757906 -207.50085485557904 0.01600385972957108
100.14347590101879 -207.36499288264784 0.017686323373209523
100.32532402491816 -206.7751541469004 0.02906054164134475
100.31388128577747 -206.73422598319326 0.027803389431135472
101.01449416788321 -203.95735989198036 -0.02214266431712525
99.24693545646086 -210.55573068116442 0.015876930340148754
99.30365716644022 -210.45438995459423 0.016756758209286182
99.34938281299401 -210.37531579574883 0.017596256681623457
99.38313935872324 -210.3045886905192 0.017973219549797304
99.98011786655941 -207.79037056082143 0.00934029572853512
100.00669579445118 -207.6632524488363 0.009753363671701432
100.02893509382616 -207.5141301979489 0.009633837773671383
100.08390665363021 -207.50438500502702 0.014210635419758422
100.15882251189898 -207.2362743254861 0.017623368937963346
100.31625312585835 -206.21755602318888 0.026309438008899177
99.05202496950027 -210.90455133039148 0.01346743376971049
99.09076992498801 -210.830485263981 0.01374813343664466
99.14127383765097 -210.74325090930338 0.014416595123573572
99.18884526466279 -210.65562487769782 0.014950987615074629
99.90122141038391 -207.74534501535388 0.0022454376135487286
99.96252453918925 -207.23472890060614 0.00046751144521306465
100.04561795850896 -207.1530438571884 0.006812850313881125
100.18794212254586 -206.41184439483203 0.014276651361379344
100.19648607192644 -206.3575549151271 0.014927133409869953
100.2282181568884 -206.29100904288407 0.017796220362737203
100.25865386946651 -206.06894452026623 0.020521739093058045
100.33363105430121 -205.93135728775357 0.02814522729674096
100.36834326758766 -205.88354720007868 0.031833114547117014
100.39252293433215 -205.78358355597354 0.03470530841731978
100.40271068629592 -205.6853835343632 0.03621122296348045
100.42427711927306 -205.59804210458805 0.03902007154689846
99.00843688757043 -210.91310397521977 0.0112036511975806
99.81697923341804 -207.68797439848254 -0.005488567532395627
99.91877650461997 -207.20736478094784 -0.0035840437051306018
100.17344653246562 -206.1664601253035 0.012192034826280895
100.21707556409972 -206.07653863733927 0.016365247391590676
100.21361796474933 -205.94703595976716 0.016046589909198383
100.20950520633023 -205.8551947884302 0.01573944524218651
100.09151835413483 -206.22574769730232 0.004376587373424723
100.13063427937571 -206.10849106052441 0.007861707877882373
100.70527340829024 -203.55690495334215 -0.030026341853525318
100.79586220598445 -203.33990909654239 -0.011354148431823474
98.84646403561011 -210.44395022382977 -0.010309859887244699
98.77509729711306 -210.38927215656085 -0.01575423274664217
100.61979568751758 -203.22896038724176 -0.02081604749137833
98.74117652939448 -210.1664034590831 -0.023608691623993816
100.53444485363808 -203.20441820732805 -0.02690726818822159
100.4893191330916 -203.1786596344539 -0.02945830628074564
100.61257507647447 -202.7796646434052 0.0037268616974071578
100.40376961442146 -203.03001964184682 -0.028810120964463726
100.4337199852123 -202.9017439921998 -0.018971016238885807
100.4919731674895 -202.83113224203504 -0.009810408707025153
100.39468320124085 -202.99033181006646 -0.02739434241481359
100.40835336006697 -202.91565401857446 -0.021977282082570604
101.41617502553832 -197.81597456058557 6.836656534142671e-05
101.31648229891799 -197.83384908573746 -0.002941285351641787
101.33443888670125 -197.81520861468763 -0.0016674834965270668
101.2668573673743 -197.74830293755795 1.2569450275112803e-05
101.23704523739826 -197.67828647500684 0.0026575515664809535
101.43218624325502 -196.93892102637318 0.041704798556382316
101.17793634928911 -197.63807468171737 0.0032477193517116976
101.15283267447896 -197.57666990553668 0.005585478954918899
101.38195708229601 -196.9184565575646 0.041524025388206764
101.3716577768197 -196.8896037259506 0.042654045548034425
101.15053698816797 -197.5428928066333 0.007107651160273232
101.27455612196695 -196.8645781637225 0.0416342984514283
101.17134837701342 -196.82813392217878 0.04100260131043387
101.18474186091183 -196.70347646051937 0.04710543947871382
96.9996977294617 -212.87337022879473 0.05095002433730911
101.09935624411841 -196.66631069969404 0.04689520665454028
101.07989725228444 -196.62619906648763 0.048317860157317205
96.9010470510483 -213.19996467614305 0.05903014815450447
96.86098322747398 -213.04278586874753 0.05199679325593243
96.96382148307879 -212.85250485145446 0.04867367536298539
97.01907468188901 -212.3848218992483 0.033685868254805684
96.67937352343833 -213.41831254434908 0.05909417698897501
96.75492368675211 -213.28407093102118 0.05683148660008264
96.92412014364706 -212.62759757293261 0.039143518196249394
96.8024327534531 -212.62794449295527 0.03463918431776991
96.53386870949674 -213.36945410441115 0.05232050232307217
100.69511382190424 -196.15102327789677 0.06136275691189008
97.60731309165085 -208.01791367431863 0.04641323792908414
100.67752374795187 -196.102854121162 0.06316470458998247
100.67169041434428 -195.95151716256046 0.06998239446812227
97.54634991270761 -207.93140830716206 0.03773065322833624
100.57561453470743 -195.9538122989021 0.06760599685749369
97.49740545033619 -207.9123188445417 0.03398244080232282
97.44660967097074 -207.87358143879038 0.028946323992131373
100.47787740252029 -195.9039711791402 0.06756831059267832
97.35985819031825 -207.87595677494465 0.02484638483348367
97.3713533947735 -207.85866200159654 0.024312053185824745
100.41542924291282 -195.8517319448378 0.06847335051328685
100.38596422893471 -195.78809615244768 0.07067987182790525
100.3792272013588 -195.71545453822364 0.0738350716695586
97.21061577094954 -207.9459975920956 0.02246155963822405
97.26821833700603 -207.89966644743947 0.0220761171876116
97.14606661096062 -208.03665363413842 0.025516346122377687
97.17700817915923 -207.97154052302977 0.022638280619440232
98.91672212452953 -196.38853712119752 0.007273329656597272
93.66011560604224 -213.3384087961254 -0.010025354794295005
93.63740044134882 -213.27785379783745 -0.012082097970781358
93.61958666390873 -213.20202514498592 -0.01487669003383607
93.56127518833884 -213.12923628392795 -0.017648125250129043
93.47137426052538 -213.09821830004475 -0.01937485614612683
93.37373273169295 -213.1001837409144 -0.020024313880190547
93.25339680394733 -213.1665055481793 -0.018629184021229928
93.17308984456491 -213.2263659675734 -0.01710335745656022
97.02394505140826 -194.88531755291774 0.019723079768160567
96.96898532216005 -194.90697835995425 0.017105073572363294
97.08230946187561 -194.2240666404872 0.050568637437728436
95.81071894773831 -198.42816435063963 -0.02124221847356128
95.86584515571947 -198.3509107571317 -0.013743742587015495
95.89923485119964 -198.27720130347106 -0.0070685555422597135
95.72894979338608 -198.44693096987854 -0.024799501960005743
95.64264936790795 -198.44468539461218 -0.026785447097945447
95.55688418285094 -198.3900863180002 -0.024620852782629044
96.27638506147366 -193.39659789696935 0.062200826404152476
96.05659440608764 -192.99984997634226 0.07278625763508795
93.89426244221711 -201.02226188676602 -0.02405764620793499
93.93230007129615 -200.96628904639488 -0.019818308997377743
93.95412040200517 -200.86611476517504 -0.009862763781420147
93.94683505362353 -200.79980576173384 -0.002190013387421086
93.84891467817613 -201.06135393611856 -0.02602470131777751
93.91280683167969 -200.75485071178537 0.0043322015619222665
93.7528404257001 -201.09977918475843 -0.025357564784907694
93.76011692386689 -201.0703007357885 -0.022665584913825587
93.85963264036216 -200.6957474479355 0.013284425687723478
95.3605039537838 -193.2823263580432 0.03832848438420655
95.39322868372136 -193.15084428588565 0.04516000571973833
95.54155111649428 -192.67973071867445 0.07062775136962762
95.3750575362058 -192.7621808834172 0.06171148319434583
95.46744187205059 -192.65407277185543 0.06940148685673664
92.17953649059264 -203.7378649394985 0.04826044706306287
92.08256387474765 -203.88687165615363 0.052822661257226455
92.1406238409636 -203.8133689971996 0.049584681677010134
92.17181059657989 -203.71516705161864 0.049669046888735524
92.1733938161822 -203.61678501048561 0.05272811570484337
92.14343205875434 -203.54176056317755 0.058126118766013035
92.10155637648215 -203.50032066522402 0.06355059592654844
91.75808366285766 -190.656689927309 0.03493673326212676
91.60764255646859 -190.8776140563093 0.01982068854921376
91.6543817600277 -190.81868615557295 0.024098095459273217
91.708158603498 -190.7139341607097 0.03063105932909449
91.54542735505451 -190.90440265138253 0.016506391864020642
91.44389126237934 -190.89756607923488 0.013304391346503519
91.35777183793319 -190.86912035700004 0.011638959462236198
69.49642333646383 -172.6768650764044 0.03936941954394135
69.5907813011145 -172.57029345804597 0.04851703416445852
69.62406341641122 -172.39553371901806 0.058260338118491406
69.39189914809609 -172.7717759827249 0.030646938367367205
69.58390311133667 -172.13963172540693 0.06928709752165974
69.19009710163945 -172.76112621419355 0.02289936082970162
110.17162218954999 -180.29630642566775 0.098987884417989
110.2245320978266 -180.02719018955995 0.10358895010254643
104.48912198344678 -201.14898473055376 0.16828102890760777
104.30281869677758 -201.44591737238613 0.13967437217743972
104.4508402952036 -201.21213279122068 0.16225586919809654
105.43704154485438 -197.12002661856698 0.11774803486126639
104.10861567787907 -201.846783166584 0.10436256649381925
104.11542585806664 -201.79335003421545 0.10808276138333528
104.17255135389827 -201.7074431041374 0.11642161108442084
104.22932849152924 -201.5664576712367 0.12823468926559234
105.33709259901283 -197.11977444173849 0.11570229740755245
103.97023338379954 -202.05588541083242 0.08419650309499582
104.05200830543122 -201.93160950454276 0.09617150503492544
104.10469162498872 -201.66428769610013 0.11564477851672161
104.09909864678805 -201.61276706663526 0.11860465911359253
104.2289207810386 -201.0761621884905 0.15953476352506968
104.30024603441476 -200.9486576657364 0.17145379599678956
105.27581224347153 -197.09512811422613 0.11563962901116631
105.29461364072449 -197.01834184848408 0.11981708059656837
105.29016459714833 -196.9575425606218 0.12273350131409766
104.15889532382367 -201.06452789650575 0.15672207369472402
103.8540229349074 -201.67481651649462 0.10196344021473258
103.76553159147072 -201.58618854177635 0.10302194811151921
104.85738870175737 -197.5302993026722 0.08576370261889199
103.9159383807182 -200.689564684086 0.16866487966463617
103.62559272583465 -201.6085135828454 0.09433166643865842
103.56414984459008 -201.52048010291225 0.09674507765843399
103.67794901467431 -201.39960888791381 0.11033666498174577
103.85928799266729 -200.65102553315336 0.1683323307599578
103.87339900262857 -200.62108055721941 0.1709874936732454
102.84750410208024 -204.07024001023407 0.12931583426165905
102.89889814712319 -203.96865084895688 0.13862860802955645
102.91442239624465 -203.8699254790885 0.14483525508426653
102.94550581122857 -203.75268074497487 0.15340209583464626
103.50868003016691 -201.5129035291795 0.09438472682051036
103.5587951616575 -201.44623631819155 0.10123794651432239
104.49203110228353 -197.41069830757334 0.08425385904380756
104.58557792858979 -197.38846037512886 0.08719909504443357
102.74023859814419 -203.95877129983222 0.12547414324549022
102.83856920145465 -203.56079922239 0.15404223538335682
102.51185843804984 -204.66639354254102 0.07399497005726252
102.54348365739287 -204.61656419906404 0.07876015526652724
102.65991670075549 -204.05062224810422 0.11414113962350025
102.6972123506415 -204.0048643391812 0.11954014922175238
102.68400057797554 -203.90357679196913 0.12332945945507001
102.74624025848054 -203.69793086903402 0.13898114172272436
104.36285553678991 -197.45878750359614 0.07920809040363785
104.37120859866741 -197.41455357341314 0.08159160630859308
104.4013606630017 -197.31436439135763 0.08710258972855445
102.65472732469784 -203.85443201576464 0.12322616916528017
104.25604916572351 -197.45523524191756 0.07719427863727957
102.60678724535346 -203.63383678704878 0.1302032693362538
102.6052712302904 -203.5697787965456 0.13337757386547555
103.15511041091871 -200.6803828652256 0.1303716857425289
101.65430066729267 -206.2242105455915 0.16482209855920416
102.24095621168857 -203.9776740551417 0.0816817937405413
102.3468075432262 -203.69448790025615 0.10463236259475617
102.34772627382524 -203.61323199228724 0.10883839303274012
103.075643349482 -200.68067391931046 0.12634117110988807
101.5718406737339 -206.37369595196486 0.15465669591808828
101.61212438291156 -206.33712326135947 0.15924498275524535
101.59019786329355 -206.20465460832912 0.1580591860018108
102.19081864643896 -204.0272789766901 0.07503555932381611
102.16444532444382 -203.99061782388802 0.0745053370585883
102.22621859036647 -203.65377267436395 0.09628923778226295
101.4420597876378 -206.62016605989973 0.13951751285887282
101.45838720301933 -206.13566740620902 0.14463125125439213
101.57614875862258 -205.48002880710357 0.16466758008050564
100.90175394231963 -207.59801566756937 0.08797547586130339
101.39284409015853 -205.66329796842425 0.1421784817653522
101.52004089491629 -205.40442524575565 0.1596004859510971
100.71995695826597 -207.92504700610695 0.07433611603933954
100.82509630979364 -207.71500906897526 0.08182945776496875
100.86476512997618 -207.65642489490554 0.08499450259126007
101.32981976077848 -205.85422892888388 0.13349625982218027
101.43100565908895 -205.2067377938583 0.1529296077397706
101.42921966883246 -205.15319962166816 0.1536824068445226
101.46403656855469 -205.03690849504014 0.15983208718153796
101.49672407773838 -204.80940494943144 0.1685197883990106
100.63136483919034 -208.07585548476078 0.0681486813354627
100.8372993708471 -207.24770321097344 0.07986750808728837
101.39866624027077 -205.16942245672533 0.14996245028580002
101.41524372973544 -205.11440343172742 0.15282543590268372
101.38032073832187 -204.9459038107603 0.1521933191038063
101.28433317660038 -204.9785349140572 0.14066243259788824
101.31133452174203 -204.86318681942439 0.14609392424872947
101.3212008570459 -204.8103801718862 0.14838016302992663
100.97193305527136 -205.72164256450193 0.09631147400702911
100.99883801995284 -205.65366203805866 0.09990596141348262
101.03634882781286 -205.4932359089949 0.10545247476400377
101.08037360579895 -205.45806176253927 0.11061583271388409
101.12425713055434 -205.39116245665545 0.11619711097664465
101.20690552044566 -204.96951712432255 0.13208076673755875
100.9127637914725 -205.76798278170452 0.08951053941285203
100.87397118038098 -205.6318965511193 0.08672316203589536
100.94034109831362 -205.47541728740225 0.09527916710761242
100.8524934681041 -205.58551520197383 0.08484718473418196
100.86043116912998 -205.45422541815253 0.08688972265384409
100.80803425472867 -205.43983570809445 0.08140718039390238
100.5375821576559 -203.20114857261433 0.11082858837597609
100.49186394656283 -203.1816118418752 0.10623004353470844
100.58447093889791 -202.77507511792035 0.1396054263745169
100.42455355625717 -203.1140455028722 0.10140945161498394
100.39896662759324 -203.0256904693795 0.10285214210954585
100.4375173589407 -202.9040809580544 0.11419665290972258
100.50384392060224 -202.82732224476177 0.12667712571669487
100.39283504644372 -202.99428319062633 0.10378973979474815
100.41293109078384 -202.9184859576374 0.11037295033943328
96.59977993468374 -214.2095528361306 0.08525470745818486
96.43762561588377 -214.2773965052207 0.08230027431349352
96.48159116262147 -214.11822560216152 0.0781164869222648
96.6798114933345 -213.524131828594 0.06315230017400075
96.3818543514363 -214.15314601998168 0.07602807681579349
96.56782135420399 -213.59964918084003 0.062053113096904644
96.14082050387488 -214.61169660171905 0.08525741869490067
96.18463040477782 -214.56159450919418 0.08459220707425608
96.27705228186231 -214.29704821294854 0.07783465221423203
96.32023048565344 -214.214389086432 0.0763700253047489
96.00514151471404 -214.8371704451094 0.08918146513203462
96.05227496997016 -214.73352440105418 0.08700939630361415
96.09901448935301 -214.6198179573073 0.08409311880518788
96.2454356055747 -214.07187953951802 0.06880563526434191
95.8693020867522 -214.96111192146915 0.08991303526129057
95.93781614842071 -214.8953264233968 0.08941241017534207
95.58813496992167 -215.74404459644575 0.11028607820983982
95.80737256567689 -214.94690555052622 0.08753468144331855
95.29258865209174 -216.41140006340663 0.12683484550181268
95.46466631750873 -215.86063598819584 0.11130044361778979
95.5578198019442 -215.58094814652947 0.10375762603708494
95.75787767117356 -214.78500744713767 0.08016631230007187
95.71942157347974 -214.7098201525073 0.07657273589059954
95.1674431667946 -216.68580382031737 0.13356927440578192
95.23812677237586 -216.47221110881674 0.12743766691612357
95.39361616157179 -215.87708334018143 0.10993753552588936
100.42353206579558 -195.45003167597116 0.0870321971015785
100.39130766114252 -195.418931857319 0.0876711755532169
94.7208021910953 -217.44769124355273 0.15008367248458043
94.79979079834601 -217.23820455309917 0.1446124263190851
94.99581846806959 -216.48205060820337 0.12188263542313249
95.00355316530235 -216.4196092438247 0.1200258152963869
94.58008629624346 -217.73526395271415 0.15718629452404964
94.65348266592693 -217.57579220396678 0.1533564384237518
94.00368013695365 -217.976834490287 0.1539695608214523
94.09566858911118 -217.75327950848262 0.14808027285640113
93.95315496949618 -217.9597718583881 0.15264556170873522
93.76332385103011 -218.10796551833536 0.15417554520816956
93.83300861972792 -218.02939699416254 0.15288727162623572
98.95208408070721 -193.92548013347198 0.11841895487776222
98.81587615651456 -193.5337881128321 0.13190109453127907
98.83544744886882 -193.30040371519118 0.14274080544289836
98.5076929444563 -194.1809583436885 0.09446192912174245
98.69730809657416 -193.45360675430757 0.13205305283988578
98.57965107358243 -193.3673605925166 0.13247865987927676
98.40436789166324 -193.41435245840094 0.12530991094313715
98.61599296255191 -192.8448646535898 0.1565839499211249
98.35714973721487 -192.80118125864968 0.15099067165671853
97.85220774913343 -194.05114582666073 0.08113407973868625
97.70853044747996 -193.41521831126838 0.1049000385935821
97.52815850597555 -193.59128703862973 0.09177259148171502
97.32385214394586 -192.7811500651478 0.12128321892698413
97.40387691830773 -192.6365577021814 0.13004625189432628
97.44057366977964 -192.61933030769802 0.13191859469448208
95.78734616978777 -198.41576443584538 0.13328110629180456
95.83093186911019 -198.35900346091964 0.14053148758387823
95.86767973917065 -198.26280837041406 0.15214688934199727
97.30605291818851 -192.50174479393127 0.13304593191982583
95.72653880334579 -198.4249080435179 0.13114259235095727
97.27185843366713 -192.4735793440008 0.13324157351848132
95.63435250244677 -198.434098566041 0.12852100487324525
97.08909589384064 -192.56235013612311 0.12382487798780606
95.53719165796602 -198.36790109951843 0.13439962375384318
96.98482101557546 -192.5944426536187 0.11923952633600243
96.95122295170732 -192.49351513765728 0.12266122637494936
97.0365482126862 -192.08044617394995 0.14341361180509837
96.84576692790179 -192.32718417280725 0.12675076104534377
96.92527960347414 -192.03511221183217 0.14201356719390512
96.77298534996612 -192.22824039593735 0.128875109660734
96.8905494090438 -191.9004481745893 0.14688051422977821
96.73881117849601 -191.92425858753634 0.14119458375441885
96.81639402062731 -191.67131862432936 0.15468696118475322
96.701957814862 -191.72819955865347 0.14867679227811958
96.51384490686023 -191.9589626341265 0.13275304727477621
96.54985933109023 -191.83660111429904 0.13923933785517584
96.62543107784605 -191.76416182730281 0.1447480038201594
96.66331422773665 -191.57631275038585 0.15417123471051997
96.36491616546765 -192.00399787138727 0.12616934426654147
96.45229815146097 -191.71315165186218 0.14165668731407233
96.58361020899676 -191.36277964053212 0.16110734379919545
89.6887002519901 -218.41284094639747 0.13659129693239946
89.63155348636758 -218.39397108403725 0.1360544854295258
96.39456910327716 -191.7113631182777 0.1399504918118245
93.88854812542476 -201.02008250398524 0.0920054500254196
93.92084296857037 -200.96700688571846 0.09623622098623463
93.951528593815 -200.87251003350428 0.10609962569573372
96.11660561440414 -192.22582222453326 0.10870311100171481
96.17779662246905 -191.99879338095212 0.12059063732777209
96.24698889814246 -191.86591767037834 0.12858386017485124
96.31921374763485 -191.75742364897877 0.13559311286709685
96.27551914652274 -191.6109519166668 0.1406759046003887
93.78373748947398 -201.09109732202495 0.09149233585911076
93.83443511599475 -201.05427910262745 0.09199160506229465
93.89679248088225 -200.75922425647138 0.12499187836445513
95.92994909288294 -192.67592595067475 0.08306887649631922
96.1055281186559 -192.02640267360454 0.11712025765295075
89.3566902058245 -218.48839570984472 0.13992700686921655
93.70771433827407 -201.07671871051568 0.09930295458296068
95.88895861374574 -192.6028745319455 0.08498710951768151
95.9410896195157 -192.3406165245779 0.09815944997657633
95.96229641588693 -192.11883118168393 0.10858490662037656
96.0246740593244 -191.92471817969022 0.11907167593731638
89.28728101036202 -218.35668721637228 0.1366211242004286
93.61542615336559 -201.04690354851644 0.11028625151010152
95.76690959512479 -192.6289972618297 0.07999855200883066
95.79426345264406 -192.32779084020004 0.09410762083225821
89.20584565062653 -218.24932993489517 0.13412952784575116
95.66839417621009 -192.53186705821565 0.08116620864910395
89.11649618873719 -218.230598777197 0.1342490233650412
95.57331041865304 -192.4832753871466 0.08028913692060469
95.78519918460124 -191.77512549748258 0.11814164804236482
95.39419200400019 -192.35290457383744 0.08034291475883393
95.25321106555823 -191.5407712445417 0.11159469033749869
92.05676834301683 -203.46681778020408 0.06900851123236806
95.02711145591336 -191.85644043075857 0.09047398216373237
95.04029756708394 -191.69286638620437 0.09808524150997022
95.27190814523308 -190.69103000041915 0.14961758978642126
91.99746193697091 -203.44338157137258 0.0754725222718976
94.90997541915486 -191.85250503681928 0.08686102745237723
94.95987980495387 -191.674667517885 0.09630527249614385
95.03204502457866 -191.38101354445425 0.11157854993626637
94.89636361835817 -191.52476401081816 0.1008908142840238
106.82796994103654 -195.51006231145314 0.22495649114568705
106.8661096355972 -195.37453111372233 0.2323437471057186
106.63493403403744 -195.5937467228471 0.216843218820286
106.713336005581 -195.40549305122698 0.2276526953104353
106.3591638422175 -195.55950935387327 0.21285079684851282
106.36582260563141 -195.42318080703555 0.21957629796107025
106.41220318034229 -195.38839294241188 0.22228533749081392
106.43308315395252 -195.2145780050647 0.23108025347786187
106.46251299442129 -194.9153115770195 0.24622321290143012
106.3183236575703 -195.249066928698 0.22708045016868894
106.36276742766415 -195.15972930739895 0.2322719654502734
106.38030447137554 -195.0624225223329 0.23737283580558288
106.42810547338667 -194.85962093216727 0.24816119617481924
106.16188155916234 -195.474949235857 0.21289074204090552
106.31872573572711 -194.8075256227013 0.24837071333469873
104.78748664611514 -200.58164793341464 0.22041921164554434
104.84002903551749 -200.50818137257608 0.22792848045159442
106.25884841947956 -194.713262699926 0.25166172996935876
106.25167597819701 -194.63328917756664 0.2553838899668025
106.3107691284587 -194.47150095458278 0.26439755592297576
106.29480983665266 -194.39630281733844 0.2676434670438902
104.53226254159763 -201.0689030197508 0.17566364863170736
104.60887785608836 -200.93692436141572 0.18809864586700153
104.66965372259077 -200.77737311940513 0.20162205803613487
104.67345286224132 -200.68595487748982 0.20772559467471663
106.21023522137682 -194.6121579359059 0.25547029573259505
106.26590255335145 -194.33107639647142 0.2701355277681058
106.23487217254026 -194.27315175508033 0.2722754425365227
104.52329128003738 -200.85560407825054 0.18898960438440682
106.21999937740208 -194.19775408594964 0.27559337855241195
104.43099092839496 -200.77699977351025 0.18938263039118297
104.4188507856019 -200.72162801026508 0.19237301294663567
104.57325041499308 -200.14371077423345 0.23841384891496198
103.58954935082768 -202.7676497401599 0.26391353988682453
104.16550467663338 -200.43522802563467 0.19822391867732747
104.20280925166084 -200.38028308824147 0.2037936603963807
104.34046076223458 -199.9527048744615 0.2393193094327538
104.36698298028257 -199.85157236658432 0.24711780978752929
104.38537514549974 -199.78385781656908 0.2524262337246642
104.18852342307554 -200.22598666316054 0.21331186429239202
104.13305000836598 -200.0834592625064 0.22000483468240672
104.24443626530076 -200.0156650733738 0.23026210179705497
103.90809991035533 -200.583527053959 0.17528494417760487
103.98848497731213 -200.53204848746833 0.18275191876902475
104.01840391253238 -200.15417725471363 0.20948892374178396
104.16216584480192 -199.7346344845782 0.24395957195067997
104.14613564064808 -199.66564906504328 0.2475795782443091
103.34235626143587 -202.41823379783935 0.2637658564434544
103.91274089463253 -200.2207688988879 0.19961088257387605
104.06519909457256 -199.60619003524792 0.24715509370790845
103.87715606999794 -200.06262082181377 0.2082722029760824
103.13042680088928 -202.4948056479593 0.24052415812365502
103.2069259763354 -202.28826792075373 0.260166960070525
103.20574782744869 -202.1954553741383 0.2660287821413405
102.99984505242006 -202.52144963983548 0.22746754057430163
103.15424952851703 -202.1775328420798 0.2627387422352955
103.74514008466764 -199.65452325716905 0.227557278818177
102.34916361818684 -204.85728832141302 0.265990571213123
102.92500458242355 -202.70895793305453 0.20951084519105934
102.93438462360339 -202.6001431419849 0.21693327193407808
102.95114044728614 -202.55590107713547 0.22111028313396952
103.09379057903465 -202.0694486571533 0.2645185261676338
103.66453222944104 -199.51350325913205 0.232555805133151
102.02811582419363 -205.55442296847858 0.21373221023661837
102.32105717862011 -204.73556966602646 0.26617696050097406
101.8780355392509 -205.81912934404554 0.19316362809537513
101.90379690004477 -205.7488155380069 0.19693973214582405
101.95505349712512 -205.65708715741948 0.2039469808441352
101.99845508862116 -205.59782410278518 0.2097027590450362
102.09770270637202 -204.94767785558076 0.23440464800580907
102.11203929955923 -204.91992911029212 0.23676936381472724
102.11335529347606 -204.81183421392163 0.2397715176398867
102.90218853039399 -201.7708487080232 0.268011034382736
103.54024804541002 -199.45359436711053 0.23004778714944119
101.81665442096389 -205.75835737903364 0.18723832368163074
101.87668148434003 -205.69774195341645 0.19467363996692766
102.83148096102063 -201.66097103151733 0.2694906905827834
101.76182563410194 -205.70198890879874 0.18197354027475443
101.91562555284102 -205.03465956173295 0.2113489980042158
101.94756593066887 -204.8215384760205 0.220260621418221
101.95052192056082 -204.78083828182895 0.22167780181282393
101.9917664806191 -204.5980522632515 0.23162950099336221
101.99824521080892 -204.57922891562228 0.23295450207195134
102.7374393556752 -201.61081335517375 0.26491956242463577
103.2744305041657 -199.496387638368 0.21364155661336648
101.72256589425065 -205.44853115545197 0.18140780235685916
101.82873379519812 -204.97474900941592 0.20277115963002734
101.85905359230358 -204.88196635549045 0.20848471713169692
101.90026612606775 -204.62621129692525 0.22010036132751976
102.00786323797468 -204.2461777701621 0.2448805671740898
102.02108295332489 -204.15963200555882 0.2495298727648283
102.07447495066039 -203.974352232142 0.26294493799061236
103.21722641119553 -199.38065965206732 0.21832514627354682
101.88500861726321 -204.29880692112894 0.22849606500181818
101.92490298384523 -204.1730179125863 0.23757614973363483
101.95404907362769 -204.11685340000588 0.24310343040723292
101.92255483070522 -204.00984372460962 0.24334872810463581
101.96375706083069 -203.96804397945058 0.249908476066525
103.1198544129914 -199.3445190195362 0.2157751425917881
101.6427924744023 -204.82153041639825 0.18503544819119244
101.77458150956065 -204.2844058522842 0.21588043999717443
101.8791039650333 -204.01512440736352 0.2379345397488395
103.05337195620471 -199.30779984927267 0.21482235258503246
103.03212739378974 -199.2352831413286 0.21856932398489948
103.03886893547006 -199.11236767943092 0.22712562837802175
103.07593220221821 -199.0326124189967 0.23433843323860526
101.52950505152589 -204.80346697502162 0.17243124724111214
103.01229155454818 -199.17273495955078 0.2217181291255983
100.51857680969795 -207.4191584408382 0.26519558304081325
100.59467886264162 -206.97559688495753 0.25925223052934865
100.74325631136139 -205.83823107876682 0.2518984114920483
101.26527520510776 -203.71922994649825 0.17585916188998274
100.27129634025077 -207.27418360158012 0.23212969093460623
100.31894672096438 -207.0813258059242 0.2306388880520438
100.37258598694584 -206.8918015983384 0.23046151625633537
100.42550926811263 -206.8204894129881 0.23446267009797672
100.71320840594493 -205.6300590302048 0.2452207750972477
100.71182607442469 -205.5662046301714 0.24435133134477816
100.1062844766564 -207.49065802951705 0.22257158758293183
100.23174195616203 -207.25481344016546 0.22705881559453978
100.38719066305934 -206.72284878193284 0.226921028326873
100.5830536959417 -205.69417762151804 0.22848147483368642
100.61891529227927 -205.6892359374075 0.23320182722877758
100.67772398589932 -205.57350890152728 0.239745164023774
