ply
format ascii 1.0
element vertex 833
property float x
property float y
property float z
end_header
47.71206536882654 -164.98809720782066 -4.060575870646506
47.73014093261473 -164.92489263618072 -4.068643020546508
47.64396777870313 -165.0094263566913 -4.0727009097736975
47.495515110550905 -165.01580227531582 -4.066049981993434
46.80692669229528 -165.91488846221498 -4.069703394871906
46.55845947126913 -165.9659480523086 -4.02339533677846
46.3774179536768 -166.13203283990853 -4.088176092579499
45.380939265626424 -164.48725074451278 -4.062918934960457
50.91585080863046 -159.80276607725116 -3.8288506029575577
50.8434156817498 -159.87729404317952 -3.8265485913526707
50.77400179355702 -159.75680233592644 -3.827388185869131
50.744028913932674 -159.88449566654495 -3.8253011751281916
50.7379096699661 -159.83083613328736 -3.8362674044967813
50.71302541970944 -159.73357050244275 -3.8417636184935064
50.67718917754592 -159.61495058478377 -3.8522035181840772
50.66236518890956 -159.53845564908977 -3.8466412908542376
50.662590181202845 -159.42231282850074 -3.8356510824843952
50.8078534946221 -161.39217678804923 -3.8569385674410195
50.62392239270228 -160.0224876867019 -3.850277776640278
50.626820713884136 -159.92938815151496 -3.845725077073249
50.60564875193259 -159.82764079083466 -3.8479218481855204
50.602541544110764 -159.77300064910932 -3.8530263254422152
50.62256938174565 -159.6507842374282 -3.855045192680462
50.608282024245824 -159.57151491235234 -3.845967987795359
50.785580960151385 -162.01136023065735 -3.846720853750407
50.73582829916151 -161.43938660099025 -3.8645699696875844
50.72169990267782 -161.35536783282916 -3.867604608278697
50.60343606360143 -160.520978246315 -3.9125468429199763
50.58709086188493 -160.04353819776813 -3.8521556541445907
50.56829000922163 -159.9179970547983 -3.8480928771759846
50.55677030967098 -159.79412014077678 -3.8568246531519295
50.52615032360045 -159.6841537917708 -3.8324875390933797
50.96220372865878 -163.9640274658635 -3.883596783870077
50.714381522164224 -161.95549564332055 -3.853751623878153
50.687952036280926 -161.52182264491873 -3.8796295083555754
50.65489695518942 -161.4750187076717 -3.8543007105626383
50.557011629080066 -160.93556547166395 -3.912596691514553
50.551101367174326 -160.8731890783774 -3.9141665971492623
50.57697351412192 -160.76542078229073 -3.914292289524824
50.541922919283174 -160.5442008833855 -3.9133880207257414
50.93279429894491 -164.00274570866506 -3.880099971723377
50.912661718993206 -163.95268183297006 -3.894999062003397
50.87886816081573 -163.87914397042167 -3.867965094995096
50.57166034845661 -161.63584694859543 -3.914790169614697
50.574152839926846 -161.5955931641039 -3.9135643204109423
50.54952218211382 -161.4565646043022 -3.869355771020765
50.524392869462034 -161.36583922653247 -3.899994501485736
50.51497766989198 -161.26514906025477 -3.907439813923959
50.51875396647943 -161.18873996273567 -3.915694531650289
50.45189894083383 -161.05520238760874 -3.9006255347781615
50.46873294246967 -160.94878090084845 -3.9044436501864674
50.505991348936924 -160.8259499020934 -3.9079537091814878
50.43472086237751 -160.43026033679342 -3.924158042768069
50.39220875749917 -160.22252946690796 -3.920594028485468
50.37332273008442 -160.18766346485592 -3.9115757204509825
50.26131144299324 -159.74044460031473 -3.8683840734628774
50.273556565259454 -159.70022826844885 -3.857184774006992
50.30545192612684 -159.60479736787556 -3.842935466896578
50.83123642086484 -164.45023551756427 -3.892577252365827
50.85997892033224 -164.3201351507345 -3.871540001509832
50.80333782362602 -164.17625194603076 -3.8892613912417096
50.815763965844226 -163.9080366865239 -3.89931113538369
50.75920162224439 -163.8789532089387 -3.907466559748043
50.5092464053294 -161.6544938599704 -3.9376066210067213
50.45406506396944 -161.46350379812768 -3.868846808807743
50.452836038817445 -161.40634826067796 -3.8924419526836562
50.42623269160581 -161.28042919270595 -3.900320743903763
50.40920811691146 -161.21029087867936 -3.903520104866918
50.35819359051176 -160.84682632879412 -3.9103495391665004
50.381452254010256 -160.72055197142242 -3.9145692455325087
50.195015951272026 -159.8824716419585 -3.9162977248233934
50.236399101251195 -159.77947695987413 -3.8971189065853635
50.77425243735552 -164.43032515080498 -3.901242899891589
50.7708823616445 -164.3404871695222 -3.902760775085241
50.77942724034059 -164.30554791749282 -3.8835108982571307
50.72465298008304 -164.1985887529142 -3.915504937110743
50.646144333217265 -163.92822951840088 -3.9515197329857012
50.66945063059902 -163.8640806351494 -3.9211880241166064
50.629936095723636 -163.7052824685071 -3.909531969515498
50.32500113288579 -161.27496368563123 -3.920232010088875
50.31078507943721 -161.2111578814224 -3.915250826297739
50.341656941602075 -161.0908952411906 -3.8824984370488007
50.26522731817807 -160.9488799265751 -3.9081578477496013
50.288042247847876 -160.91216912733998 -3.914701133091681
50.66357979378717 -164.38078390955698 -3.934227111152674
50.627243306894826 -164.17866057209744 -3.95807517612903
50.59134493354342 -164.0571008882892 -3.9511173033864035
50.59498059284792 -163.99454303428465 -3.939278342126866
50.60289842299072 -163.86886575062096 -3.9339992447844283
50.57940354470625 -163.82383721460508 -3.921025615802863
50.57858420460509 -163.66395551652047 -3.9180593811765276
50.54638225855642 -163.5864090604323 -3.879113764013774
50.535721744974104 -163.52800405026628 -3.8697203330899064
50.341143891575605 -161.78243952540151 -3.9374716385371755
50.21210173083433 -161.41610086289023 -3.931100124240507
50.24539451992494 -161.29093677985188 -3.9252734185237266
50.227173794894874 -161.21859820868949 -3.914850368404954
50.56849836662833 -164.379156432753 -3.9601410753357884
50.57135995036232 -164.32691451821643 -3.9609675454036286
50.530081128647545 -164.1829409495781 -3.96689593337672
50.53636654397642 -164.0725541837318 -3.9537441151561987
50.51929168372483 -163.9937221469776 -3.949039402814044
50.49501326823658 -163.90782681262093 -3.9418294968597847
50.51799472943268 -163.8341553108569 -3.9357087455253805
50.486946223481745 -163.60822525437584 -3.872483993534501
50.438220300138326 -163.4833291847612 -3.8667990951934668
50.39771986625692 -163.40715090394454 -3.8754031195069207
50.37508861235098 -163.29870412101448 -3.8745129440533885
50.38967147341713 -163.20192374125565 -3.890668562278683
50.259078261330274 -162.41327355895731 -3.9255861623513173
50.10146779634019 -161.34622025346843 -3.9072619118494893
50.091636263357636 -161.2225158868758 -3.920188477439412
50.145873140408085 -161.10011809046043 -3.916552781758658
50.390530041297644 -163.89032598772636 -3.96232495989788
50.35706214954926 -163.84568485854706 -3.960759225099929
50.28209231122382 -163.48267003897425 -3.9299586363639563
50.31545465460314 -163.38011900597556 -3.897302133222096
50.338386323228214 -163.32623276703828 -3.891329464247927
50.279741196342975 -163.23669330976034 -3.901133863868681
50.1668272690837 -162.49167656788018 -3.8880399283330838
50.1839910109546 -162.462029049282 -3.9044283183928656
50.030871568486134 -161.39551848912984 -3.896223151675877
50.04528399132883 -161.32540559278988 -3.911619157940929
50.05857774458856 -161.22740741184785 -3.933046016946774
50.36839962192608 -164.30116300662303 -3.96902492534287
50.31742656431034 -164.18815381873017 -3.9612853737608518
50.32394050604453 -164.16577391059948 -3.9627518784809155
50.32939970565888 -163.89747920942003 -3.9635507037261624
50.301255791565595 -163.82218490341222 -3.959003132727754
50.241927651640566 -163.49460716245514 -3.9414131841301274
50.22738184904584 -163.43976071561414 -3.931362093941701
50.22033524513238 -163.2368054932546 -3.8808155504942885
50.12315483897744 -162.5608437427074 -3.9230303821996553
50.17827778648173 -163.50098364528273 -3.9454267698875696
50.13082042076264 -163.45226912845192 -3.95689557229522
50.11002285916093 -163.35382885295022 -3.9583692538215542
50.075877350320475 -163.25129613060716 -3.9175037080889052
50.03005852544662 -162.94956006114705 -3.9487029323909604
50.03030116990186 -163.2299422092561 -3.9110126639650074
49.92948861217741 -162.9415365658506 -3.9523033390369617
46.8073443095608 -165.81632781125074 -3.922705773391375
45.13525662822708 -164.61551375038573 -3.8932076109404377
45.070496037279334 -164.6416651599611 -3.8996578194887506
51.93945033464989 -164.2637915921771 -3.8043993247858583
51.90994361844872 -164.22555604465555 -3.777484795779018
51.841466969523196 -164.23586524973666 -3.7798500417150502
51.76988106912827 -164.2490116432827 -3.77579182879167
51.65442027008641 -164.1955179462986 -3.78648641277946
51.426361687550866 -162.86041154651744 -3.7567701081385056
50.97940566332103 -159.6631996383807 -3.810130067483424
51.94253439250726 -166.9027427076419 -3.7999735979315687
51.34222089612869 -162.98578345315477 -3.7888720581306936
51.339316756144534 -162.9048580252391 -3.7993837314483674
50.89951148264657 -159.7901149625959 -3.8171487126558694
50.918149885337776 -159.68062911758807 -3.808594738307661
51.292959202040514 -162.95457309871833 -3.7831272520348342
51.26983854513097 -162.91613268902276 -3.791039488479262
50.810886161267554 -159.8778876416485 -3.81549164382846
50.815811694653796 -159.8134934452787 -3.8101393113667545
51.159032637512205 -162.9953532223879 -3.828291218462138
50.95913751887429 -161.47480134838915 -3.7619396219138355
50.97701433749151 -161.44467187620327 -3.7881234410306135
51.205893095420485 -164.1014468039055 -3.782591799341991
51.058595804463636 -163.0869967537796 -3.793079226046006
51.097915709563054 -163.01667490003388 -3.8221552455884584
50.83912792774007 -161.53987168696756 -3.798903151409739
51.11919138972695 -164.09701643136262 -3.782966638741688
51.11367496448408 -164.04348929845597 -3.8070692189136763
51.085444134427945 -163.9198552508644 -3.849470290322797
51.024761247548746 -163.0891564842066 -3.794280643653357
50.814158782221874 -162.0270008155638 -3.8334090300287427
50.75734333250285 -161.60417934737845 -3.791446353417369
50.75747823602915 -161.58091837534056 -3.801711386652757
51.009581140390154 -164.08881993641816 -3.8435712023013737
50.9974174184663 -164.02942395596557 -3.8384297988220304
50.95849381390193 -163.9192154744166 -3.853250474925579
50.96773387850749 -163.85952649371717 -3.8448399160897155
50.76411133375626 -162.00914920033492 -3.842756557994855
50.76319622332922 -161.98613049571938 -3.8429285949263425
50.934830502380215 -164.11189751779435 -3.8318013622620333
50.942500898650806 -164.04065656427647 -3.8442031443553573
50.92509069938107 -163.93290039470156 -3.8584239173618133
50.88718970299389 -163.843680874531 -3.8383445949776234
50.84470192885015 -163.75916949077455 -3.798306736427845
50.822866391846944 -163.66931551371385 -3.778287927970189
50.294865739167804 -159.5726582475133 -3.7715086688350206
50.27345112629287 -159.50063967598766 -3.7339342911029747
50.240592229163646 -159.30094642901338 -3.7314813302070426
50.27866285597326 -159.21504496608694 -3.7775757380372443
50.84824117510055 -164.3159276793068 -3.863393200024757
50.81808064506346 -164.25840596332844 -3.8580930554240074
50.82362380463951 -164.14047983329397 -3.85237433025326
50.79984822039724 -163.7223117990149 -3.807148643787264
50.77414450099694 -163.6488190183659 -3.7881630906421697
50.72424515891571 -163.5849720173751 -3.804067312556285
50.779688544466886 -164.26370223734128 -3.861536562936105
50.75831242546404 -164.20141065772003 -3.8591517104804076
50.65042639878249 -163.5633627090847 -3.8192432720146297
50.60008813651744 -163.10265624121092 -3.8171858502499507
50.567789897078185 -163.5612854567267 -3.852336691924272
50.488790436804344 -163.50842094677836 -3.8453702617421914
50.472568490083006 -163.58124017637888 -3.858719618835281
50.44979981977639 -163.48880190908258 -3.8424356781219466
50.41591666125991 -163.40178210223007 -3.854327542328358
50.401901001919946 -163.3072581668246 -3.8596369568490623
50.055831456538456 -163.24681326978802 -3.830598239197265
50.013417690487714 -163.22967075921048 -3.80172070619457
46.9190007653439 -165.8264209662601 -3.877934191736642
45.12838141122696 -164.63478815664396 -3.8584642797313906
51.94462528962487 -162.69759990010442 -3.6735341252274085
52.43625437282439 -167.05809792163947 -3.719231051362772
52.01781528800637 -164.24027642106515 -3.737813780708313
51.84595499227343 -162.72725031672704 -3.711803773239343
52.386140400931254 -166.9911654553507 -3.715962891363504
51.94309761087791 -164.20401512617354 -3.7509480139110636
51.726103639120616 -162.76440129059253 -3.7393795344577763
51.86581861101685 -164.19376322889204 -3.7599725097905625
51.834589298046836 -164.14486371831717 -3.7589794696563708
52.12335291446523 -166.89286331421695 -3.7706694253950395
52.068975232379735 -166.75774458367945 -3.732582311381318
52.057223017427894 -166.72931528334345 -3.7310078847476955
51.815471766750484 -164.51802435137583 -3.6779764264285877
52.02657979808368 -166.88310717538673 -3.7690442363309593
52.03463322241536 -166.83301234627865 -3.7661073438649857
51.993074709214895 -166.68520007405505 -3.7376647103409284
51.96432223358788 -166.64982025970474 -3.7401486946274494
51.68793166524368 -164.46042764678984 -3.677627375348579
51.61575477847228 -164.33130709835996 -3.697382241041016
51.640606265648515 -164.26702318431867 -3.7524851094895215
51.98530717748204 -166.98739753968144 -3.7906025785792075
51.95483711489549 -166.90541490572835 -3.7849442888817375
51.92120962469355 -166.85567223331148 -3.7964579389084143
51.57158209634651 -164.40423997205255 -3.673985441154786
51.58987516912531 -164.33093912998413 -3.691520098228705
51.529719055628874 -164.27245653388948 -3.7067005014334917
51.16786199583849 -161.70095566724487 -3.7138600921158704
51.12380137323763 -161.54174561308878 -3.7404569275154476
51.872168066552355 -166.9037654062006 -3.768637084850126
51.82070117256128 -166.87069493812163 -3.7623153646656524
51.46467922486614 -164.25704651603482 -3.7033000081033434
51.061521823237804 -161.71810012536642 -3.702070867793242
51.110001430195936 -161.5449168178485 -3.73897482017723
51.01241234108428 -161.47645072928555 -3.7337126612098896
51.06539752266182 -161.41612353110435 -3.734733255775604
51.74539722266227 -166.85992752587134 -3.749677533209155
51.347622185212515 -164.21590059101993 -3.697146980680861
50.99575180400209 -161.7250145089462 -3.7118729712923937
50.982791565161136 -161.6178872234076 -3.724085336724744
50.99260677191309 -161.52854204546443 -3.7265375371435288
51.217915978594476 -164.18258367530797 -3.726640726483158
51.19720593484706 -164.11500569682576 -3.7471406197359127
51.12969262254133 -164.16822171202412 -3.7478341452170523
51.13262666561702 -164.12908247131472 -3.737081183517203
50.448998803633664 -159.55247892342948 -3.71059695705792
50.487328902467084 -159.45324372452066 -3.699752536605376
51.02673965283648 -164.1206458450289 -3.7541922399697127
50.411503444301026 -159.62508375349705 -3.7162094290410805
50.362206486798286 -159.58091324588386 -3.6536847391008336
50.828744399799554 -163.70609479220087 -3.7416470614215536
50.272663811699864 -159.66377373617047 -3.6696589489902465
50.28979586041677 -159.59322180634794 -3.679696586045377
50.24208403973018 -159.4968432078947 -3.708038985225168
50.79263381417734 -163.68770843115107 -3.755557387916572
50.18635747966547 -159.80041022110595 -3.6388397010672353
50.16065625091514 -159.82289275691647 -3.6341620332241833
50.0481527182363 -163.26492235872715 -3.735855945366696
50.002909510882475 -163.2368916246556 -3.709647461816229
49.00485459256335 -164.0276930709751 -3.689868144315709
46.9732279210795 -165.77041788302898 -3.753307218368707
46.979051255960094 -165.66727958762823 -3.6898730736747023
46.96188774588758 -165.7902502281086 -3.7368461961788144
46.92071988016388 -165.72315913008873 -3.730439964160559
52.8090863697503 -162.4562860023604 -3.619394458032452
52.61755979391705 -162.49861125677378 -3.6381098796361653
52.48056981871935 -162.54167168373667 -3.6488384511643392
52.77758098369961 -167.19935243885095 -3.6943061078522934
52.598719028900554 -167.00805649725328 -3.6865653380467087
52.61655713023926 -166.91625289873153 -3.6835922847059765
52.577168770790706 -166.81858900421602 -3.6800118577250642
52.570642927896316 -166.83609788931477 -3.6805565203773654
52.48878705255469 -166.7493139021419 -3.677039721198974
52.35407868520159 -166.70599155935534 -3.6746126216975177
52.32396812657226 -166.7401721464188 -3.6755516030719098
52.24572085805748 -166.64614735457076 -3.6718160606253196
52.311975861513496 -166.5119952343588 -3.6677591473518194
52.02649163397091 -164.7484383384443 -3.654830165584613
52.00213759986473 -164.72161492103407 -3.6536497001174766
52.17162815622011 -166.55392241002426 -3.6818452947392792
51.91513573400518 -164.7005387968977 -3.6373684927445367
51.89292713789353 -164.62920980663347 -3.6507592113203793
51.855846313751634 -164.47315363957495 -3.6405058785791655
52.07169031349318 -166.29668537482846 -3.658767781802634
51.857664929558645 -164.69669945472612 -3.6139163795440696
51.82141363755685 -164.61101033773997 -3.6391816670520094
51.78343281108323 -164.52161155635685 -3.6121480188942026
51.79238158888721 -164.44893215849342 -3.6396314792834423
51.74098523733209 -164.65441649233838 -3.5784720213013017
51.72274698459852 -164.49145735885514 -3.592620095947528
51.68242448709636 -164.42298048621555 -3.63995496356131
51.679401722666896 -164.36666117903954 -3.6591996415754626
51.58918266018612 -164.40410084450346 -3.6648302288827215
51.56704815951191 -164.35744858791722 -3.668420934301813
51.51644067866891 -164.29807558578779 -3.6604039453245325
50.162727591439506 -159.69578058970944 -3.5629537030170675
50.131335893349494 -159.88117582943917 -3.5985094410771663
50.14401380059275 -159.80214445780476 -3.5817147721575386
50.14431046351092 -159.7320632817228 -3.544310077714198
50.046833208061386 -163.26383383728788 -3.562164208988886
49.98892764973384 -163.24733538324392 -3.602959276600917
49.949029520723315 -163.05939866876633 -3.6017656215728064
49.006035927475565 -164.08363395117487 -3.6346022625230683
46.979922851324794 -165.68120925798425 -3.6659991411715045
46.950767189555286 -165.71567254887577 -3.624027080868009
52.853042988366546 -165.61023973410204 -3.494991545752277
52.7899394459735 -165.58789581944757 -3.4885532406500306
52.72025232163567 -165.55173865178367 -3.5033491456132286
52.65304831498448 -165.79268736950323 -3.5072795046228378
52.661815233935016 -165.75327898768413 -3.5066669829693238
52.5913761964088 -165.31618214071347 -3.4885469628870034
52.544901257281296 -165.84022907902684 -3.535631117343651
52.583137031711985 -165.71278256370428 -3.5072301477814545
52.51124380019231 -165.63500827319248 -3.5072344253897443
52.54415566003664 -165.30089608971684 -3.502604246202264
52.47937971430928 -165.24480418006178 -3.5159801745207515
52.4953510363848 -165.82601411736732 -3.5400889843124412
52.441956083538216 -165.75604065279364 -3.5479805849543884
52.469772132329396 -165.5239288941343 -3.506408021454177
52.37586927161996 -165.24397576614166 -3.545084318195355
52.36005243187888 -165.18387968521128 -3.5099209972258305
52.37775530237736 -165.80656123195672 -3.5485636505673863
52.37633539088427 -165.75209146960373 -3.5429800242304013
52.36274808609984 -165.6564142196138 -3.5261624846416795
52.349017696385985 -165.52359967538337 -3.5080464231334885
52.34198272903192 -165.4722926971048 -3.5074997786500273
52.31658725324931 -165.2172683624683 -3.554872011244031
52.292100936979494 -165.16529886968212 -3.533264971276112
52.22458862193757 -165.08983027398347 -3.4921473604890627
52.248796041993856 -165.45101940546576 -3.508501009421398
52.200177334157615 -165.4103011021446 -3.508652537991084
52.214438889814524 -165.1351998802962 -3.553660132098496
52.17277073223072 -165.07584530058745 -3.516876293121739
52.12657918278889 -165.4932827223567 -3.5222206609118993
52.10196148975694 -165.0461483256227 -3.5288300055734
52.05654655048104 -164.9887145794471 -3.4995442327865494
52.05860746589859 -165.4333941595385 -3.5221376566457216
52.01389409958791 -165.0512011644294 -3.5634726975831303
51.996397519439334 -164.95755641935853 -3.505756745766333
51.967865458884056 -164.89622833680727 -3.505396751622985
51.92790436200246 -164.84032765624818 -3.494267121903122
51.84269176765118 -164.78211130479198 -3.484277233899171
51.797541378465205 -164.71678794908016 -3.5104900275729802
51.7705668972352 -164.66569702609084 -3.5115075195774117
51.78398977766586 -164.52896639370837 -3.5086422861418347
51.75945254935187 -164.719815212503 -3.485271869197747
51.72220622672834 -164.6299811450546 -3.5120823289570513
51.7035622708516 -164.52214649446373 -3.500810655242832
51.67777335032125 -164.46927012019245 -3.496258038132488
51.60661645835745 -164.5415259252849 -3.5058505492335654
50.15805037766333 -159.67845597478683 -3.465286895821278
50.16774197805439 -159.63330473747462 -3.436500888493286
50.13945677978084 -159.70471848100553 -3.4776847277167433
50.051807193522876 -163.26219864885368 -3.558362999625019
49.979474736972904 -163.2445294830734 -3.5027249388902604
49.93422087358848 -163.0738250170611 -3.4773592981347585
46.96486862331877 -165.71529406487502 -3.560764994612278
46.94255719438113 -165.78943103976334 -3.513133911223017
46.95224175099489 -165.7388643191998 -3.5562094467743828
52.97563295687108 -165.6518270186186 -3.4261657935603473
52.85232923288862 -165.58697442858266 -3.4421389433916136
52.79528445173996 -165.5426402087704 -3.445012440428155
52.70842932893639 -165.48864887102368 -3.405338960972027
52.64310332719287 -165.45579200002356 -3.4211931845173194
52.44611648986119 -165.33301795716667 -3.40140485357472
52.22446421993243 -165.19926255183003 -3.385966425237264
52.10500374010637 -165.13992994719865 -3.414373257354605
52.06436242607781 -165.11113242748385 -3.4046519885159627
51.99359618911461 -165.06755568771783 -3.402054736448036
51.93906991797524 -165.00254466423672 -3.4037562108513137
51.904286280168 -164.9546814103185 -3.4421735082341876
51.90124622816023 -164.97720428029538 -3.4321195876720663
51.88045042760751 -164.9480527281532 -3.4335694076545162
51.81515717641393 -164.80101260734693 -3.4720271597824177
51.782998075446436 -164.7242234989718 -3.4192884554056677
51.77339009398653 -164.54247505236603 -3.399256986034911
51.74233544519619 -164.47285417877958 -3.4202179913998965
51.715876043497474 -164.72436174232035 -3.4371257338692724
51.69281416452515 -164.63823571981217 -3.443069467410053
51.71223267833075 -164.53903598557085 -3.396402257697457
51.70074362211653 -164.47050972602622 -3.430183127817296
51.62221035200544 -164.63045954939142 -3.414198431181651
51.59478757374223 -164.5651277175905 -3.399294749023081
51.53500241355363 -164.55207950008185 -3.381957336421375
50.22649569149551 -159.7605358427671 -3.3496637330243275
50.207013976310876 -159.7324886225417 -3.3478069706040103
50.1354771936792 -159.78186198322356 -3.353327424094829
50.137744911183354 -159.70858387777437 -3.39929757543325
49.901677530412066 -158.84641931958942 -3.321853215175058
49.97543301855011 -163.25586850168247 -3.4224314145785506
49.939406139156056 -163.24805812018414 -3.363104194868934
49.903757668375725 -163.09648311934995 -3.3629745423840793
46.9471439913391 -165.86955828858336 -3.407468361590649
46.9419784241896 -165.82637054599545 -3.442584439730614
53.731085155820566 -166.25555399351748 -3.3031459400387253
53.55894629515146 -166.1787472780824 -3.3121826185553127
53.48016735867506 -166.08469524705467 -3.3150663250361934
53.46678928913578 -166.08599121741275 -3.365615002960084
53.37466551866665 -166.01676662269543 -3.36882354380317
53.324472907692424 -166.07996593259784 -3.2926122535090903
53.3364000678677 -166.00710016587715 -3.354379755576406
53.175367816276854 -165.89300912163296 -3.3298468192975665
52.70780362002834 -165.58415454515728 -3.35223977411097
52.61917924675701 -165.53166990325707 -3.3433404973169187
52.44744687844803 -165.52413803124773 -3.316831753720188
52.452954071675535 -165.33235558588464 -3.3755698738065005
52.00325245861042 -165.24230667210702 -3.3558748248911385
51.96990146041016 -165.15268162667252 -3.3671598801253073
51.916437827573354 -165.1199279507697 -3.354440511762749
51.59412809923394 -164.5358423987933 -3.365223720235791
49.86552180763794 -158.96828813160903 -3.274608696628783
49.81583450904137 -159.1193389233071 -3.2878713525881524
49.839826371247945 -159.02957840016936 -3.2578032281481155
49.52089809694493 -158.5677307020446 -3.2114685319642104
49.52935452743799 -158.53189623513813 -3.24105924989898
49.950783413175216 -163.2539349334531 -3.331716984437113
49.93648913260236 -163.2544149020978 -3.3555278013650987
49.90637665103083 -163.09592256591705 -3.3548680363627104
46.93316822682718 -165.88663135065678 -3.33935172701141
46.928619715166164 -165.8569082229142 -3.3572871584208426
53.82118499904238 -166.4227697319386 -3.229955585532926
53.66372437473571 -166.3102448597083 -3.2397114718652533
53.51458285202973 -166.2038745772861 -3.2489561907346065
53.12822910375426 -165.95632241871022 -3.2734994863426
52.05143180159163 -164.7171704009175 -3.175157665624433
49.85419087154408 -158.97677074887073 -3.1678114096995094
49.838896379859506 -159.02797498127651 -3.1733093143417035
49.88612911451204 -160.10912414573556 -3.125700301995817
46.9202887592093 -165.89976256395337 -3.2697912845749864
52.430657557233275 -164.87191654232006 -3.128759167289192
52.2981320416689 -164.81547803234562 -3.156696972323501
52.2192843129326 -164.78224122717126 -3.148685846516595
52.10875566978719 -164.64687468706816 -3.143105888210232
52.06608028335541 -164.62669646944914 -3.1103779594434218
52.01754553956928 -164.68152016166977 -3.1464266063058264
52.017804577374086 -164.62091487298687 -3.1403475782444326
51.91237163017759 -164.60412475728958 -3.1199436730515293
49.85539819823151 -158.94603760635576 -3.0811311974252944
49.91020284995286 -159.9780900611188 -3.0300314989658585
49.89173436399682 -160.0761155204122 -3.099506088907015
45.22356005547479 -164.5698961207925 -3.0863879570051926
52.377902233645706 -164.78046268568434 -3.012593301579106
49.919870032271824 -159.92693707392576 -2.993912567427116
49.92949514780356 -159.87550311933808 -2.957161657737794
45.22184942789305 -164.62061494934645 -3.0544348674880633
45.20297357860784 -164.54928310330217 -3.0321651909773917
45.13923705855592 -164.63154252226096 -3.0627595466671043
45.136920800585706 -164.56632403180993 -2.989828443562016
45.02674847383272 -164.66498816386948 -3.0709994202229565
45.066339067561564 -164.6081003063246 -3.0115910783424207
44.94624656167262 -164.71160922646806 -2.9946981330178284
52.47175561638304 -164.46833653103877 -2.948199142578523
52.051018054487265 -164.72200897898958 -2.972592273847348
49.84568401238043 -158.87776322038016 -2.829095324122756
45.194404378746384 -164.52770216813627 -2.9315929868374244
45.127836767759185 -164.546904516085 -2.9302584479910534
44.86372838080983 -164.70692177222708 -2.916835965130283
44.79272428330696 -164.75147832982782 -2.9229764373629146
49.84364895753562 -158.86410201656483 -2.798385565279668
49.819204599982484 -158.95802133216134 -2.7874492436374014
45.21421036811088 -164.48610498957095 -2.795135564453373
45.15202299930268 -164.51569440282725 -2.8307362644878102
45.16032074765648 -164.49380465342517 -2.8250621344024616
45.02204935960242 -164.68460673112526 -2.811969986966565
44.98564782354222 -164.60691365413123 -2.8713910783483687
44.89951102411357 -164.68259787135804 -2.83975509471818
44.85187978737296 -164.71047685697073 -2.8173198504239596
44.76614934897631 -164.73683440610998 -2.833931466639025
49.88812639286907 -158.8233146317274 -2.648159317013976
45.249766661318596 -164.50384715909453 -2.7377185076115067
45.215099155996334 -164.48773154456467 -2.7531624260256655
45.166021011144196 -164.52298199639256 -2.690219355670693
45.146937199314976 -164.50256481269741 -2.701663212471402
44.91918591063564 -164.72826587424703 -2.728257769336018
49.885398780092096 -158.8109825288171 -2.567007020238913
49.89608870509143 -158.77324664619317 -2.572211792340803
45.132289067901674 -160.36504530978854 -2.578497619845692
45.13968186092175 -164.5286742709716 -2.6620711938190285
45.01378303620328 -160.35094389495717 -2.405760716691136
44.97706322856585 -160.39805303222047 -2.371287088589203
45.028583380353865 -160.31002928700636 -2.2857952395807892
52.57322271582363 -173.77721702630168 -3.8436887930644774
52.51538697958282 -173.77762420738827 -3.842917538401008
52.46289169701209 -172.60799311129784 -3.7990060233819527
52.330258694571576 -172.6411078696971 -3.7983753556901187
52.25308220139366 -172.52415977362003 -3.7930099426180526
51.82190383009514 -173.6089304118088 -3.8272277650598974
51.87213207864435 -173.50814065392964 -3.8241715374178753
51.431573471015376 -173.70423660522016 -3.8255819160941353
51.48763059825184 -172.8217370997796 -3.793586131678284
51.43221318603483 -172.81004125457792 -3.792416551118669
52.51437784482399 -168.37001669911038 -3.8539867122505806
52.55816993990884 -168.2184408054854 -3.8457982930085994
52.555663857217255 -168.18060482962363 -3.843328344208026
52.48974297422427 -168.15964968869244 -3.839578749259386
52.47132667412771 -168.0010045893273 -3.828691229928089
52.5047578150004 -167.9311943881358 -3.825505406705358
52.569339337544655 -167.51409769068675 -3.8018002634894983
52.649574957051115 -167.34088147656203 -3.7943002402355104
51.23307322117284 -172.6979359969577 -3.7856138395224574
52.28977056888233 -168.33223375238657 -3.8436144073544933
52.35614369547116 -168.24907821856678 -3.8405669808774707
52.30905418144987 -168.21607437239916 -3.8367153945202
52.35858023380958 -168.06363395838588 -3.828627708613412
52.47804514944962 -167.7273702819144 -3.811568186661799
52.48421271205874 -167.58605267342185 -3.802974887973923
52.508030992498256 -167.5271873195474 -3.8001739443951035
52.596969129981446 -167.3241704152833 -3.79118960464796
51.07179275511699 -172.73190502861576 -3.784759783999335
52.26085739036811 -168.18120629933392 -3.832792879757764
52.381836229886375 -167.40651750615905 -3.787798742442648
52.123864588566896 -168.11660547083437 -3.8237962298946355
52.13585100825746 -168.03217848679128 -3.81865475270111
52.28085830503103 -167.4392703938762 -3.7859465673191584
52.34469784590199 -167.39083700218814 -3.7853351693469333
51.911891251004604 -168.48828731073442 -3.841279553819623
52.03319329069643 -168.19119402110894 -3.8255873980661406
52.057127908491424 -168.1083267194978 -3.820929908967791
52.10215241193535 -168.01623203667037 -3.8164782250791855
52.13864279490884 -167.80512260541278 -3.804055479960163
52.230792603499026 -167.47538394795077 -3.7863096050434724
51.880421012956 -168.47387225908625 -3.839336377235953
51.986616353707184 -168.08155485079917 -3.816743994923665
52.0092151878117 -168.01031429547118 -3.8128761415085215
51.88915963036095 -168.06689666860595 -3.8124899996128687
52.42785993809412 -165.1313962457846 -3.7922472420198865
52.52595998021377 -164.97616551205397 -3.7906673946614706
51.686973432563505 -168.05402387280407 -3.80501044952771
51.6734174672501 -167.89899085480081 -3.794198764994192
51.665886644847795 -167.8403197651328 -3.790065480280158
52.122325844074446 -165.95380716275272 -3.8278535687443536
52.395773449524825 -165.2099636882234 -3.7947661119353087
51.59612066410708 -167.82565482023918 -3.7868090220695647
52.007901932583806 -166.07708646087033 -3.829674001669738
52.091108287977264 -165.77362831482975 -3.8115335525024037
49.86144150076182 -174.22977198882944 -3.8252622463028
51.83598426777484 -166.4511486759765 -3.8497128368948874
51.934492766641114 -166.08427695873877 -3.8251888693628726
51.97415814776811 -166.03865471839163 -3.824179892788352
51.99063669619083 -165.92772455115087 -3.816395256984543
52.00995463155029 -165.81379154237774 -3.8087410174356684
51.996614311400904 -165.75045425366503 -3.802843614101197
52.063931057377474 -165.46497648999923 -3.7863892404077637
51.66936013258021 -166.58926461198277 -3.85145828975174
51.69273046121365 -166.48084122672722 -3.8432159576528164
51.72242461447683 -166.40000165205015 -3.8379879127713536
51.80086585007814 -166.32316940352814 -3.83635163152023
51.76654729697013 -166.2208048202918 -3.825346988316898
51.79573321693165 -166.11841783957954 -3.81855985926555
51.869334478469 -166.04357776171176 -3.8173132982661264
51.88320420581618 -165.8903508716198 -3.8058035005661672
51.973840548538966 -165.61424902809335 -3.79073677076085
52.162744584646425 -164.589742879037 -3.853713483033742
52.192837906919515 -164.49874882371907 -3.851321473494595
51.6670681602919 -166.45167730735085 -3.839076682431952
51.65638364423641 -166.37775029458268 -3.831876953837749
51.76272469527147 -165.9375716603222 -3.8012818265315396
51.82126804214856 -165.797605100067 -3.793956133625107
52.074730962086996 -164.73183535328354 -3.853348320003336
52.10933605817087 -164.58875492113037 -3.8473644237342377
52.076711868015806 -164.49632050713979 -3.837266554179796
52.10806080222017 -164.3913125003617 -3.8343480223752557
52.1441552733648 -164.31429626258748 -3.834145829644287
52.31612445886376 -163.52910135467914 -3.8210333987191443
51.45632049560067 -166.72017288645043 -3.8507779157169826
51.439590679507745 -166.6510117172372 -3.843422192317563
51.46392674417131 -166.54774399729385 -3.835357660366842
51.58549285912646 -166.31839084711123 -3.822152923145935
51.60840113020582 -166.28462700325736 -3.820668568206352
51.69064231726308 -165.91454343073252 -3.7944215004861426
52.05466820128653 -164.3585912529326 -3.8259552310899543
52.074164854002426 -164.32771880910778 -3.826459396780967
52.08174743162193 -164.2153855712565 -3.820921035218541
52.22058370201719 -163.57921372440455 -3.8106135421480323
52.26147405999785 -163.48659830954685 -3.8130004693752433
52.27529252076756 -163.47023204120188 -3.8143179403346754
51.52964324711471 -166.17899218719404 -3.8063785647192523
51.74267436890394 -165.1371537843037 -3.8491225317192823
51.83192145912409 -164.66472930235238 -3.8203394044204706
51.88557716326465 -164.5557674933789 -3.8187277274009186
51.917647852138955 -164.37288586840043 -3.810395883226589
51.97220036231212 -164.27502330431815 -3.8110259337323034
51.98245342389556 -164.19363944463075 -3.8075968538828473
52.07824618089712 -163.65897405271667 -3.7954094864606907
52.08622998799694 -163.61741880896454 -3.7950213177392467
51.5424608783882 -165.40371794751948 -3.853546269952296
51.592287980204084 -165.27267874693408 -3.8458102711606035
51.619709319564436 -165.22067342023414 -3.8437544251330684
51.67168103623288 -165.1394664155208 -3.841754011487746
51.68127098591072 -164.92606831161928 -3.8240385234034395
51.69299447774026 -164.816247091904 -3.816204917672898
51.752962830965004 -164.69797014025403 -3.8137134964478987
51.73940326330296 -164.5831816503993 -3.803620201696644
51.78503635496688 -164.54769160862472 -3.8063897266312283
51.83860480738038 -164.2182763493822 -3.791486623864393
51.91409044329501 -164.1334484919952 -3.795956603556202
51.87623371013251 -164.06109664731758 -3.787542094654281
51.916450674912184 -163.96122014047413 -3.787546316571298
51.95857532530838 -163.84923020067268 -3.787743351014194
52.00736566738924 -163.7705553623661 -3.7906230593647505
52.027305992045974 -163.68695053743804 -3.790000401968218
52.272200999569776 -162.51675121230272 -3.8077706126872024
51.18069106622405 -166.75696119254786 -3.839024349899633
51.473593241468805 -165.4607884704736 -3.8524456393014277
51.49637316530723 -165.3882880037774 -3.847385709972622
51.58705413559253 -165.11695482703672 -3.83067690353566
51.592099083089494 -165.01659341155002 -3.8221188689543353
51.64934517119114 -164.78687828252922 -3.8089555029134488
51.66745212746487 -164.72517169885174 -3.806086155042921
51.68824638720512 -164.61747358833415 -3.8001910783238086
51.86999237827566 -164.0429620885087 -3.785804137380157
52.154741943598104 -162.52384314997943 -3.7936850875675274
52.20705158084417 -162.4474624656542 -3.800905045920122
52.222138929608874 -162.43008403760223 -3.8029857946558985
52.3201770834104 -162.12530508205242 -3.8203623093241887
52.30858575625365 -161.94141607879664 -3.823962218666227
51.05962883073576 -166.66633750676397 -3.82397164161665
51.32613088740193 -165.54527748254978 -3.846992604696509
51.31176045129101 -165.475706543484 -3.838247044241774
51.384348478123655 -165.36669795339137 -3.8340332539973403
51.473594020773355 -165.13331770285888 -3.8202110133499687
51.55180345093253 -164.77220659252117 -3.7968088694323714
51.60108334027036 -164.60888442373113 -3.7895390312659187
52.12549892089836 -162.46717508538757 -3.790997374761914
52.11872412533692 -162.38224026848886 -3.791561304812105
52.200516698784796 -162.18917266989754 -3.805114425479188
52.21162735902069 -162.04405678635612 -3.810110320928451
52.248370592329785 -161.94340768124562 -3.817166941444434
51.17987307505538 -165.69885797459204 -3.850386358568644
51.231207307983034 -165.59312238961382 -3.8433324679395238
51.21961534382534 -165.53905218628333 -3.8363715400676113
51.350425281649606 -165.20521137841413 -3.814491528346238
51.34544607478813 -165.1323390013398 -3.806864265390486
51.40172055106064 -164.9916171233045 -3.7994654489130095
51.64925231938617 -164.05336814064253 -3.85331141318742
51.622349341305245 -163.99679661891494 -3.8456881204773623
51.66597688857342 -163.9102038083495 -3.8478223160389167
51.7030515204166 -163.79231373075268 -3.8479109501729427
51.71034334506975 -163.6693236641926 -3.843966730021432
51.73615562261229 -163.4913280086754 -3.8422804057086166
52.046897146223856 -162.2261772634555 -3.7865833622900475
52.10899043720934 -162.1697433862096 -3.7950902760618077
52.11288521941476 -161.97165011635366 -3.8011373330775204
52.14120672770394 -161.86260758829866 -3.807859511332391
51.097135831306645 -165.73444263479178 -3.847158380826378
51.13471423028653 -165.60292445762715 -3.8356577043714437
51.17652297174808 -165.54715083354662 -3.833254733377491
51.25423712525731 -165.14522947060894 -3.7987885810618516
51.32621679009542 -164.58017362271525 -3.8452904690337206
51.37189425894333 -164.49617636631595 -3.8441713608001087
51.410483510070584 -164.45625418125715 -3.846400937106554
51.51968899362313 -163.99915319419026 -3.829607633016524
51.536802835086505 -163.81762534056358 -3.8225763480944495
51.57535087447362 -163.7434235904655 -3.825321754393198
51.61725681336578 -163.66736281102914 -3.829017888521417
51.6662804886952 -163.42911597217153 -3.829392283157981
52.02893598038804 -162.13329126450057 -3.786941786311285
52.05971714597488 -161.99853572584192 -3.7943924633689727
52.031042739626436 -161.92850008361796 -3.7935069488606117
52.058789348656276 -161.82692604779677 -3.8001566971713627
52.05832277722418 -161.74407710406643 -3.803198186566488
50.96737666745643 -165.74369327713163 -3.8371989383621163
51.03043154254193 -165.60792729986386 -3.826943037222884
51.25129333498083 -164.7270913142287 -3.8491957914043406
51.31581157580129 -164.61432239557587 -3.8470605601861076
51.307231928587534 -164.5053064705128 -3.835471536774202
51.743565735769025 -162.65791920760492 -3.8426175521990817
51.77201439595967 -162.58137713798374 -3.848871533175569
51.96983296690166 -161.88319575892422 -3.78841704335966
51.92406562591049 -161.83721741464953 -3.785185318018601
51.975432979268945 -161.71765877574765 -3.7954363941629747
52.02223916565312 -161.6249083954604 -3.80424124958019
52.06926143327009 -161.31433696429067 -3.8234613117316565
52.062194213670246 -161.21565448456857 -3.8277802972421946
50.900898665004945 -165.57482625707146 -3.8119298124760572
51.179878128813904 -164.5556075611391 -3.821699333894057
51.25405653549436 -164.4359714448593 -3.821397610338291
51.61561853614478 -162.73226022525486 -3.821344299891709
51.66947869422116 -162.64692485054178 -3.8315246065443427
51.706806627836784 -162.46422403303504 -3.8425519124075755
51.749569951342416 -162.40592121085132 -3.8509485232753047
51.71855654060354 -162.2639400086828 -3.852043812766649
51.90794135682914 -161.6843194272707 -3.7897385980717093
51.93818414899876 -161.6160572324438 -3.7958598206532472
51.99227777817599 -161.34732376750716 -3.814093150332051
52.01398361395231 -161.29177675340077 -3.8190813637718537
50.51762853007755 -166.88966789633238 -3.8206589864345317
51.08451865630963 -164.5339472766943 -3.8059062250350975
51.117052360326035 -164.4280947475909 -3.8004951044852744
51.10918219137124 -164.40746174269927 -3.7974443627375907
51.20148561007447 -163.8785252394158 -3.850460830639456
51.55972967950638 -162.7210515512467 -3.813002964369516
51.53372916611683 -162.6118310398347 -3.81191291541771
51.591204337427286 -162.44394246944015 -3.826100970098185
51.62488220652246 -162.29208348868139 -3.8371777588118343
51.6879679319969 -162.2727461183687 -3.8471986303254764
51.66219109563548 -162.15931948817092 -3.848788328774028
51.84783759956757 -161.62771616547988 -3.785970444507574
51.82793256024139 -161.57105968821577 -3.786602197916448
51.89190527867242 -161.38419870667624 -3.8022486810423684
51.89027446713179 -161.28008722847267 -3.8075284225227386
51.94557184242118 -161.20890320452128 -3.816734907814144
51.93140937364504 -161.096543989204 -3.8215836907843395
51.935129955180294 -160.99901365900507 -3.8275364728467314
50.72118422136952 -165.49297710594624 -3.7873149198241807
51.00390498323799 -164.53229309242772 -3.7942453144377395
51.00510829325396 -164.44254766481106 -3.7855434839991906
50.98711603088455 -164.32305372175605 -3.8471555925134835
51.01765945737655 -164.28146886564608 -3.848450203340008
51.16933981523406 -163.9483413138817 -3.8488309412604282
51.143165927349166 -163.77220527694192 -3.83290344022797
51.192672746376935 -163.66736641684852 -3.8375182217497796
51.50099642018128 -162.59421507673767 -3.807499275577155
51.518029442863636 -162.56382856388353 -3.8110011149969645
51.556707264266834 -162.19605831638518 -3.831922281333801
51.583325617901586 -162.09725364286504 -3.840824377333027
51.598895782710855 -161.98939218649258 -3.8490060194088844
51.58329414511356 -161.91532294761882 -3.851332133029127
51.73246585661436 -161.41038494858034 -3.785195771867657
51.77271557602216 -161.32115620740493 -3.793924559639492
51.81805574004005 -161.2165433709646 -3.804058073255857
51.878936344796564 -161.11621926472105 -3.8154872754636706
51.84580129058532 -161.06003447000478 -3.815667178918765
51.86422280799144 -160.90326582150828 -3.8267892343984724
51.905258160376476 -160.78071103406958 -3.83809784393579
50.80062100470958 -165.02092120755148 -3.8239721332825867
50.857121396318426 -164.4741670974023 -3.841097144465345
50.91571605507152 -164.43349901935073 -3.846567076678059
50.94412254572809 -164.33616247606682 -3.8408346472000154
50.97414983248319 -164.27040978555928 -3.839408500014221
50.996201444635155 -163.83509864738753 -3.8079395790669626
51.074747432615325 -163.75469941797374 -3.8186551898849044
51.07786194017386 -163.5061705206547 -3.8090640556215467
51.28242258932204 -162.8358776870205 -3.850880515232169
51.44627592776268 -162.249797566014 -3.8135962588363093
51.407395369012995 -162.22346726514814 -3.809462976358558
51.49167157458464 -162.1034432963095 -3.8277244251503424
51.50412080966424 -162.02391346040974 -3.833998710102941
51.4918713371257 -161.88428144541336 -3.841044460109943
51.52503373631001 -161.80644705140168 -3.8505669871368475
51.6965153625112 -161.2486918813741 -3.790719873755773
51.705548061490035 -161.11825764783796 -3.7992442234181603
51.80741402535428 -160.991042021162 -3.8162629186340804
51.807582016317845 -160.97373695087404 -3.8173114783530604
51.78503237928754 -160.82057175835664 -3.824935728438738
50.70631849353622 -164.95784773478192 -3.8042947096603386
50.975268469103455 -163.69807916216902 -3.7963253230591585
50.993905571136715 -163.61915807832816 -3.7965168831535245
51.007722954770486 -163.54149500656413 -3.7963676439722973
51.01867880266431 -163.45590668594684 -3.796059074979593
51.3494457515886 -162.2908514849672 -3.7977989571388306
51.41280490464496 -162.15665665163164 -3.8138321533124246
51.41983391211002 -162.06434790362908 -3.8201140964236617
51.385614265075326 -161.99587673635844 -3.8196943964444063
51.4451804186738 -161.87430762289867 -3.835505673868469
51.45297185142521 -161.7672248933378 -3.8438892868122956
51.47530509250841 -161.70254769750224 -3.851368353776263
51.64231178029761 -161.20831378052736 -3.788046745317423
51.68265091474899 -161.0037965605282 -3.804224056638347
51.69120015518243 -160.9255420263818 -3.809947990309458
51.70028725994653 -160.81882992234958 -3.8177139742917303
51.69912411654495 -160.73062514770027 -3.823537902784596
50.53540444146621 -165.11007722841782 -3.8051982577488155
50.859745790211036 -163.77027950698775 -3.8437066321792357
50.89741711006218 -163.7002859068911 -3.8440982672684267
50.89624884987353 -163.59875865565652 -3.839406603406011
50.92341677753334 -163.49828984418247 -3.8322431879326344
50.927416864029595 -163.4406426260353 -3.8454871723961492
51.19564009734653 -162.4587169243626 -3.8526952178235345
51.26823734101322 -162.0302677114949 -3.801827470344416
51.29828383667173 -161.8840212392581 -3.8156672063163897
51.31977770386679 -161.78418105842366 -3.8256226323202416
51.3840716071334 -161.6636270303609 -3.84273605278827
51.364173479868185 -161.55353183391986 -3.8488688690392614
51.56519962557413 -160.94537944904985 -3.7977392378092336
51.632685921864685 -160.8392735101323 -3.81058726509679
51.63485888322181 -160.71366904949429 -3.8193482890000947
51.62654220849071 -160.57245544431643 -3.8285961410862592
51.650619045670304 -160.48225605774874 -3.8370000023146984
50.8383478546606 -163.5378296175741 -3.8273648445056874
51.13436970429092 -162.40834915046125 -3.8452762788570873
51.163209155701516 -161.9943197963052 -3.7904849142262624
51.179472505833346 -161.95961288132662 -3.795029740683568
51.23571783651283 -161.7392822058937 -3.8185237207891536
51.29874314884257 -161.5210059781499 -3.8436771124579208
51.47119234905475 -160.8284835154882 -3.7978966832493875
51.55958879437589 -160.69961164044028 -3.814163916358398
51.579460105995615 -160.4671331285073 -3.8325281841204193
51.54978402428855 -160.40901249211728 -3.834551444827059
51.95541578235429 -158.91175015711949 -3.7906876122031212
50.39715150806248 -164.91976291948603 -3.8337168708776153
50.649555073521825 -163.7379914845558 -3.8524119744780174
51.017760368069915 -162.1477659971887 -3.846123073661612
51.03047131336849 -162.0777850155648 -3.854440507820274
51.099236489438034 -161.9649650648581 -3.784360962481066
51.15920298147303 -161.8616212422064 -3.799619770974566
51.15081727143187 -161.7609425701236 -3.8063568880302445
51.127587433896046 -161.70684547398747 -3.807912839172095
51.195913846714134 -161.5932429690317 -3.8254586675173377
51.26351804116028 -161.4049140098755 -3.849485078238083
51.50477638836166 -160.3998522466732 -3.831837943130233
51.52591097562843 -160.372738597655 -3.835484090973122
51.524446672268844 -160.2599717120969 -3.8439717577775294
51.86799083204971 -158.94849222205718 -3.784757568066437
51.89235020123911 -158.90850901081154 -3.7880017330553093
50.97360668586836 -162.05049570650573 -3.8481297305374214
51.06046761685883 -161.82575817859674 -3.7902034988857083
51.05178112968959 -161.68654400703562 -3.800630039502698
51.08626042572808 -161.60259814973747 -3.8118560305524856
51.16115386863834 -161.4898409989513 -3.8302867905036164
51.4160297770759 -160.2060120502566 -3.8403887425549095
51.78916767827251 -158.74799183899145 -3.7922389354477755
51.7985316094942 -158.65409549839563 -3.7978290990254475
51.788848200525365 -158.5940225384075 -3.800769549981459
50.78679631860053 -162.5925868152574 -3.8432786904512244
50.88856319312624 -162.03756016526464 -3.836308926075279
50.90646299676962 -161.95416202065644 -3.8474674084777893
50.887728802293935 -161.89279681077142 -3.851124395703234
51.10946092421558 -161.27109216874993 -3.844769335318791
51.07399639841676 -161.19114427576721 -3.8488369439797077
51.19269877652699 -160.59762881007833 -3.793719667015953
51.26122171212919 -160.53551865827868 -3.803490861014085
51.34116091883561 -160.2761866990099 -3.829576553597765
51.35769900564147 -160.19103284184422 -3.837526416862094
51.35836627221611 -160.10996932021894 -3.8441121202103923
