ply
format ascii 1.0
element vertex 810
property float x
property float y
property float z
end_header
-21.744055445675937 -15.743274566186557 -1.680178565700534
-21.636248989240087 -15.696566436934578 -1.6916285924744607
-21.57765351140673 -15.683472857757348 -1.6902686638287168
-21.48752720076234 -15.619027229797608 -1.6754676400203892
-21.272696209655113 -15.467819940735719 -1.6488674007623505
-21.128993349799423 -15.383420875531977 -1.6549287594620607
-23.95978430619113 -17.091346529659894 -1.755307247160017
-23.84799068616062 -17.058977568897195 -1.7492631267065242
-23.799420539065554 -17.016701936316053 -1.748407757899772
-23.696058828353728 -16.91849756095667 -1.793994679992922
-23.61699555181083 -16.913819368179727 -1.7903375657133045
-23.450147728619267 -16.764229180828842 -1.7921883507905472
-23.35688749995079 -16.75980678161167 -1.773872351201216
-22.37609028819961 -16.073701316377605 -1.675013129464181
-22.216280334553915 -15.96633603574395 -1.6699996947560174
-22.021156370322863 -15.865317391481724 -1.6722110541453907
-21.86464896594673 -15.748174365480983 -1.67247545500138
-21.794944061080304 -15.721381310666557 -1.6898250348096076
-21.321026469633473 -15.315706478028071 -1.6627989195181372
-24.063232125199264 -17.101071277937265 -1.7610890732809605
-24.024162179980717 -17.07533585890724 -1.7456781099022138
-23.9000901226295 -16.95952191429048 -1.7900927078441455
-23.844114708042106 -16.93788704597098 -1.7885840045876247
-23.6859382457966 -16.865642607038794 -1.8019864449379084
-23.655949719839512 -16.80858383025032 -1.8054328826703516
-23.57124602259462 -16.75069538845918 -1.7857065108508712
-23.504000163700088 -16.750045830703183 -1.770437285014519
-24.310212652411746 -17.119327369979334 -1.7730169854495546
-23.969467219002585 -16.927879138530624 -1.80250202707661
-23.65797809062426 -16.73710663113169 -1.781242007752695
-15.055022586090391 -18.08790436819254 -1.4224907779558489
-15.267630298886552 -17.978287431813715 -1.4111839533380142
-15.236023337659683 -17.972826711966643 -1.4176983518545034
-15.311047270908286 -17.904841981607568 -1.4358537915833347
-15.226069449228717 -17.925930410731734 -1.437755820164985
-15.638724835494303 -17.999748910278086 -1.4291000536135388
-15.574616699713212 -17.946860850733604 -1.429252194706607
-15.478163123154957 -17.878808423142722 -1.4576656514403403
-15.389624549856773 -17.889709434516146 -1.4717646477133701
-15.92547013330784 -18.055315845387337 -1.4646841151392167
-15.866580921946637 -18.087499496923883 -1.4983700056394753
-15.717507526091989 -17.953933943082625 -1.423914453582056
-15.613384973825818 -17.937666962795248 -1.433605208656786
-15.483332704391717 -17.817176860668454 -1.4704905590741502
-15.46535249630059 -17.746897956846823 -1.5047309946975176
-17.187873472311157 -18.783052621816797 -1.5404221644960412
-17.067228457726404 -18.72078080812133 -1.491618244428691
-16.990541541098644 -18.661783837774745 -1.4961078229717457
-16.89519839163755 -18.621963213936162 -1.4811586222589623
-15.983302085763077 -18.006449331737773 -1.4601786349620955
-15.90840719081826 -17.98914445022499 -1.4811369446950235
-15.536971832261376 -17.75614626346261 -1.485981158794469
-15.468022024663693 -17.674270215164224 -1.475098181874377
-17.277289583646418 -18.765710173989916 -1.5129323955769167
-17.2022095330856 -18.71733939559116 -1.5136627533072005
-17.10971510435147 -18.67598488180782 -1.4920558993590893
-17.0192624381664 -18.619245764760542 -1.4923263653114327
-16.95567006402588 -18.579242926336082 -1.4934507458125714
-16.639171045717188 -18.299014762268428 -1.5386200002801065
-16.542341038486143 -18.229649575886413 -1.4783814098148311
-16.469640538415884 -18.196247400543008 -1.483284724500747
-16.104186715189815 -17.97211660042448 -1.5189544730229374
-16.040889909043244 -17.94289563771321 -1.504027045525568
-15.800737857817149 -17.80776511900459 -1.4403913493243468
-15.641758554821436 -17.712440669823497 -1.5074380050824048
-15.208099259618916 -17.338169615090955 -1.418517291594166
-15.117968092677593 -17.32198089436147 -1.4302782377817786
-15.05937288272452 -17.283282793008226 -1.4326588935576168
-17.425659996540833 -18.76851674359263 -1.5002823473781708
-17.340318527604026 -18.730831080396595 -1.5129372542111663
-17.249810737119123 -18.650941780867996 -1.5150411306573908
-17.08171851793753 -18.54100634022781 -1.531013616966315
-16.7533236014836 -18.269767280150777 -1.5294286481146913
-16.64675201976367 -18.27328711303278 -1.5029770704390792
-16.5961409830607 -18.205338334811632 -1.4932696734341508
-16.50647875365761 -18.186457197973226 -1.4806855776323973
-16.156325743114486 -17.94840938386979 -1.5204525626660628
-16.11318983240353 -17.881340556602744 -1.478715372594466
-15.236931039785208 -17.33115277550733 -1.4007111525924623
-15.160164693856842 -17.23068899665151 -1.4388603260618757
-15.109326716157057 -17.222442444816455 -1.4660454536807603
-15.031650238698955 -17.120636399894494 -1.438184764266916
-18.30472283600857 -19.188780892646772 -1.5946991280511982
-18.211473024104166 -19.142074612990683 -1.5274407732154411
-17.950790313447197 -18.979017808997863 -1.511125326425205
-17.905641635783926 -18.912220864122197 -1.5115179185443544
-16.791131931945316 -18.209814207562967 -1.5438064452258
-16.728099656805476 -18.1985108840828 -1.552131436071566
-16.65628121830494 -18.159654142104625 -1.5464476699600351
-16.2706852956503 -17.85494676509931 -1.5229515555155866
-15.505202237340225 -17.303449118658428 -1.4325181034787762
-15.336044968076502 -17.17365784125164 -1.4846549804628746
-15.265966787452141 -17.174268980112792 -1.4785114463546736
-15.15031064523434 -17.094769005788493 -1.451959711451725
-18.437016305008473 -19.151136307612397 -1.5510427951149337
-18.368121301752247 -19.147094049351637 -1.5703604449700637
-18.270101888563598 -19.071843797170125 -1.530834377188126
-18.158120918729026 -19.055060832629263 -1.51124790987806
-18.133014168770952 -18.966551481965393 -1.5745174256638734
-18.046267149530774 -18.94161925753914 -1.5286583123151627
-17.95538897248053 -18.869084476679326 -1.5271711363441058
-17.863901493024677 -18.796908816792964 -1.5368393709454256
-17.807086507920946 -18.732540065050973 -1.534151488639131
-17.74535978956127 -18.705793726473704 -1.5607209114059903
-15.36039948815274 -17.073222518473273 -1.4573017365858567
-15.253541805316551 -17.10159009217961 -1.4409554217415377
-14.967341615902953 -16.90605459421965 -1.4750884781583395
-18.626712131734646 -19.21718737554601 -1.6221819893283609
-18.560763895597464 -19.171064261380927 -1.6099738378620754
-18.499573559854383 -19.10874796455132 -1.5945569621326154
-18.442946054625907 -19.09049577046895 -1.580655583338833
-18.293090556002337 -19.02530193097123 -1.5267883923741388
-18.161100360854043 -18.85332244240448 -1.5583391159108706
-18.118818275890437 -18.859531157266385 -1.549011724596034
-17.964779198437267 -18.804943282969575 -1.5255998733508718
-17.92401332041907 -18.72981158616804 -1.573216926667416
-17.846389766193944 -18.682950907199473 -1.517850245911707
-17.001897451980295 -18.145503649842247 -1.5323662838900622
-15.338811976614803 -16.95502235236082 -1.4858575810357182
-15.242222974267925 -16.93783978919554 -1.4701666734508994
-15.17546076152163 -16.8606650926888 -1.4529739002741981
-18.620421298556824 -19.121561378044234 -1.623124640812847
-18.50366985426356 -19.041026717743215 -1.5917437597366413
-18.485756631988057 -19.04466627165278 -1.6125952695801105
-18.193333328787197 -18.793630365131033 -1.5513248877764942
-18.161862136148912 -18.792599669237198 -1.5384667832985557
-17.989135301487433 -18.675007040306983 -1.5731814702894753
-17.905504645064063 -18.619299211257726 -1.5023211371958722
-15.903748976529181 -17.228426663329795 -1.5104822290657074
-15.670348639898622 -17.054839683915315 -1.4640722326542994
-15.579445373386289 -16.995066685778635 -1.4682846746676217
-15.504777161230571 -16.992563854162725 -1.4640820420894762
-15.331490294845587 -16.918540600200927 -1.4639200190991306
-15.234107100773485 -16.81939780714467 -1.4444770685493924
-18.248984374598813 -18.70087241206937 -1.5530043757036334
-18.221861265398573 -18.72303584843791 -1.5290975601719246
-18.02578783912626 -18.553899389873667 -1.563691392403899
-17.12052760327277 -17.91658478803613 -1.5529194234663333
-16.797647824311955 -17.73559626971244 -1.533222795293835
-16.1136407257391 -17.211654448144703 -1.4882459735543423
-16.093590263872862 -17.225144686948997 -1.4889727155193762
-15.793292313460729 -17.08745302979798 -1.4666632949776044
-15.681800732412151 -17.004470401243026 -1.4689524442480508
-15.435895279939537 -16.818261161717164 -1.4363889176263496
-15.389565283497296 -16.780161797783748 -1.4158770525985596
-18.053900129344793 -18.498201584303125 -1.5535210053205302
-17.161255387399297 -17.899561382621755 -1.5548268197801642
-16.26255207927032 -17.224788658474242 -1.4806009158071567
-16.15262692932689 -17.233525705858437 -1.4881307384094216
-15.924875705134417 -17.039286544473466 -1.4320076152075303
-18.65752499421733 -18.755006570785252 -1.6033439410399541
-18.160118078554135 -18.42071964267985 -1.5299209221403725
-17.514117463719337 -18.00128570828126 -1.5483020656633193
-17.49039649429571 -18.001571087112705 -1.5673106013526337
-16.872583992517797 -17.554163920635887 -1.5084334267537587
-18.124223473439077 -18.206806716558642 -1.5641678447504068
-18.07959919271034 -18.181658449244104 -1.5597162668964561
-17.449306657084197 -17.758887777832214 -1.5620589763751571
-17.418628044485907 -17.74705800405816 -1.5618328045829077
-17.20222974380055 -17.59544480009869 -1.5554411770659051
-18.788421992835186 -18.608549131557215 -1.5382904305927438
-18.790734698042236 -18.599373216929592 -1.5347161503328548
-18.286033314639543 -18.204161149535867 -1.5386754369069335
-18.142757141247316 -18.193389097968783 -1.5772385713172925
-18.087542251669564 -18.086511540475993 -1.5422625748095113
-17.741157347015857 -17.893905247865224 -1.571306614455493
-17.59188810664705 -17.73157228073834 -1.5642780413488766
-17.499637369765512 -17.72444761198076 -1.56239994459555
-17.442717536727518 -17.72408032030159 -1.5628558331616893
-17.228334538788758 -17.565170338686844 -1.5514275707846596
-16.120517524875154 -16.744623426900574 -1.4935628567422392
-16.017313950545123 -16.712019725881472 -1.486756844490213
-15.94569288212791 -16.68497973320164 -1.460290411338598
-18.81658781053156 -18.430282851824057 -1.5665023387983443
-18.47777900166017 -18.222211034249135 -1.538327042071209
-18.323517945974697 -18.146674209185758 -1.5556350406883774
-18.276645897107013 -18.080524289732097 -1.5602515271612503
-18.122114271816407 -18.048180858177137 -1.5155123436805542
-18.101380072229205 -17.994852190996763 -1.504522729923031
-17.806671313432027 -17.759736697813743 -1.5582793235244816
-17.765875055468015 -17.765075748093906 -1.5683584500157213
-17.623875260163945 -17.67017222866091 -1.5593523154501314
-17.57541274330889 -17.66785892833973 -1.5574462407892808
-17.529382364154028 -17.59122710672909 -1.5622794450240909
-17.328099646127992 -17.490317603618347 -1.5435417345592857
-16.28872408654509 -16.775504533306997 -1.4900309022646296
-16.267157709647115 -16.768613669700198 -1.496890999036904
-16.121972372394975 -16.72728178944934 -1.4971714958501197
-18.835424091201 -18.42263443590011 -1.5592366728868272
-18.818481195332552 -18.309051437590657 -1.5455013616251887
-18.501433320135487 -18.176152718313865 -1.5222194471766484
-18.468960187074483 -18.09833080430055 -1.5887983896021165
-18.367845365201887 -18.103736771401103 -1.5660572015449423
-18.278526217012924 -18.003072436123592 -1.5494384987205498
-18.217306147382477 -17.943844203339335 -1.5534906507485833
-18.121864254111145 -17.897133964578757 -1.5422621608649538
-18.033500975797647 -17.80426795386311 -1.5063704168666376
-17.955728702261645 -17.75871079805092 -1.5565644998948835
-17.865357608052857 -17.751236623177178 -1.5413407615633163
-17.670239573037247 -17.6486976300804 -1.5605294783498684
-17.561727004135907 -17.561287019946878 -1.5613106870234357
-17.561961760548353 -17.554661435087308 -1.5617765136096755
-17.440372488716886 -17.43286788826665 -1.5049868522184848
-17.384869979976965 -17.458573204463413 -1.5199390141550133
-19.07167814031156 -18.3695484118507 -1.6081093760314582
-19.034132866377373 -18.38051918605649 -1.546053415226903
-18.847395399270354 -18.248023355425865 -1.5848123006121715
-18.802711004157313 -18.19435030862576 -1.6060988011630508
-18.48464805398669 -18.070695735527018 -1.5923088361639477
-18.33597744838376 -17.889276344944445 -1.5888600729943565
-18.25509997203557 -17.878349125983128 -1.579232315736992
-18.176950414442956 -17.80322722176968 -1.5143464078165272
-18.106706425998503 -17.77193305398304 -1.5260864369952585
-19.205699671578984 -18.37396116394329 -1.6057129972955155
-19.132628169944567 -18.333273420788494 -1.5587975170031538
-19.063227880500154 -18.3089898386162 -1.5675683398573743
-18.98686132951027 -18.242808003015583 -1.5912256924172972
-18.880266952838447 -18.21499173336189 -1.601152985116685
-18.259644097409073 -17.788264115544457 -1.582993683776354
-19.035649606656182 -18.139807129371007 -1.6039638746706617
-18.73250946074541 -17.96660074864582 -1.5985412410261328
-18.73187659970121 -17.959208063609726 -1.5958518679104055
-16.56722282877212 -15.490360404019194 -1.4618145094173882
-16.520707094882194 -15.444221420358236 -1.4703990459050593
-16.86408854072412 -15.591605321995852 -1.4904517209410377
-16.810430111809037 -15.554941089557738 -1.487745619714939
-16.734069290021985 -15.520989757435434 -1.482997588286096
-16.60456565334966 -15.471666290987608 -1.4788973796698004
-16.516198437067835 -15.429034458126738 -1.4709070512050995
-16.453576335717784 -15.382268121937825 -1.4720285829582593
-17.66287412229995 -16.001700110119767 -1.5173568434435372
-17.6060884403885 -15.980444878469564 -1.5260440688562293
-17.371078205810573 -15.811999375495672 -1.4821648571492605
-17.29244860066161 -15.772975826810981 -1.4731962817250712
-17.161339521698636 -15.704955325936712 -1.50153614234755
-17.096399679943634 -15.637644790695031 -1.5120856318261873
-16.827965737640334 -15.518952053384508 -1.4945249139228916
-17.965673128735475 -16.144434035845784 -1.5428633749056024
-17.926878696200784 -16.074659335055735 -1.5468881065968756
-17.682255638906202 -15.91410945996389 -1.5148884969890415
-17.634943790714406 -15.830641765287634 -1.5310088748146806
-17.472987668184306 -15.801121414593116 -1.4875238907826556
-17.402589029374536 -15.765148632083841 -1.4903379308046234
-18.439755206685923 -16.323154742711974 -1.5660304226129078
-18.093704319867154 -16.09629753860903 -1.5517904777547902
-18.075820609019527 -16.06073058382507 -1.5504861007625865
-17.757807470511594 -15.873008237762056 -1.5099430039299755
-17.709284648340773 -15.823635991389205 -1.5174940040905678
-17.652832445010148 -15.786860387080743 -1.523847985063097
-18.34947477923496 -16.124700247095973 -1.5604148867397893
-17.75317626773638 -15.779397444292092 -1.5178143208152053
-19.60643571160394 -15.468107783867186 -1.5010955169378644
-19.613837271966737 -15.419428662859783 -1.5103477437257733
-19.621219848999726 -15.368968850231731 -1.5447446509658846
-19.667069640282683 -15.336486028272285 -1.509349554571515
-19.64680858472306 -15.295539872343774 -1.5273756856218972
-19.692483128724263 -15.160812883837652 -1.5207244681469514
-19.641013798587608 -15.167670113766583 -1.5547234553776228
-21.839362313891392 -16.48888501820688 -1.6191098267668784
-19.6533656983173 -15.032564859853984 -1.5634929971590164
-21.925943830948114 -16.46292443760339 -1.6270034450372943
-21.873727952291 -16.478434528255818 -1.6212691532138797
-19.683311580356477 -14.943066267628298 -1.569629701257912
-19.665587433514492 -14.948648737264886 -1.5693167792087623
-21.990274238488894 -16.42229177211237 -1.6516117172328633
-21.148224798206236 -15.790005419804231 -1.5913249093166402
-22.114846122764174 -16.332720203962435 -1.6683261619563798
-21.192877331060156 -15.759072775452932 -1.588928333235075
-19.780881860235546 -14.757604927783968 -1.5733326605810998
-22.1983954525851 -16.263784212555663 -1.6573284844013596
-21.281621274278955 -15.661787128665638 -1.602550765170828
-19.821215703747338 -14.644299318083593 -1.4794462713559793
-19.70241831197818 -14.60855471529967 -1.5423540575683439
-19.085484849414694 -14.218287026756395 -1.5285973485369122
-19.062584411700673 -14.178554691266328 -1.528453938765261
-18.964660009628886 -14.112998119894613 -1.5332532193860744
-22.35038370496525 -16.23661882396603 -1.6278978235417108
-22.274507036408536 -16.223054215821012 -1.6602300038755686
-22.167664528265792 -16.107747515732488 -1.6415955841320065
-22.13739631145736 -16.08741259104839 -1.6406460660816027
-21.908032041360613 -15.964378997819358 -1.5798434631245435
-21.853311567531282 -15.915485878794126 -1.6153803365966408
-21.791680135587033 -15.891574834593914 -1.6011751273675614
-21.414798765977586 -15.660922014719114 -1.5484845294561886
-21.35050333540176 -15.582669744517606 -1.595341818358611
-21.312105619212787 -15.54140638043244 -1.5642815266608705
-21.19473159066077 -15.48162591471701 -1.6208610072628833
-21.107623353287302 -15.469904114699254 -1.6150787815401078
-20.0765875749288 -14.699921648650449 -1.4904090737516404
-19.82378920548086 -14.588680426735776 -1.4810100871498084
-19.77020078828976 -14.521812587008547 -1.5176093022665695
-19.73615943562639 -14.471211360126823 -1.479729446330329
-19.43902957617958 -14.294283729189896 -1.4675311311843942
-19.372926206520027 -14.276328869673996 -1.4741424343997154
-19.052220216115053 -14.113428182369326 -1.5166809707447402
-19.017250901379455 -14.035655622528132 -1.4980446329911163
-18.95943782192219 -13.98410855701489 -1.508566692494082
-22.45659891936629 -16.211559425862507 -1.6062821929858768
-22.40409526205566 -16.206950748264433 -1.6354296053631385
-22.321016735999905 -16.121334294722867 -1.6620135580143112
-22.203480203664498 -16.077929751825323 -1.651038824244508
-22.144934585393543 -16.020073631415368 -1.6520625050355282
-22.097569892516574 -15.950122768366525 -1.6532461042346962
-21.946274839185826 -15.917771205693231 -1.6098315878929448
-21.880390104038653 -15.890070270256247 -1.6222647618720607
-21.82685480098869 -15.84022245770545 -1.64108259060191
-21.461315657620766 -15.584368351673234 -1.5458034946696306
-21.38715025376898 -15.507065216659957 -1.6012197331534472
-21.334558605359934 -15.485271747503498 -1.5595605932430114
-20.081796550228514 -14.633378919187107 -1.495903497304044
-19.811004451233913 -14.465015350445475 -1.5015183522590894
-19.771260117571362 -14.401702843776537 -1.495413753763588
-19.410684467372494 -14.226531959109252 -1.4851210277264881
-19.03926067950257 -13.9724965421027 -1.486390408197015
-19.00397386186185 -13.95117859802697 -1.484980586132086
-22.598920970431276 -16.168763206319852 -1.5981564533451342
-22.50608157050932 -16.16692021376718 -1.6130943944169553
-22.372076171782094 -16.09705626890749 -1.6708644632240324
-22.186413398965524 -15.936381020715753 -1.6606478538337326
-22.123656443491186 -15.898021749905343 -1.6483881578927533
-22.028047923509614 -15.880015256460007 -1.6192796327592056
-21.464134655906086 -15.452916407219305 -1.621495858943527
-21.391645914136095 -15.393490768017978 -1.565237054829482
-20.11332162144163 -14.536843504884072 -1.5023764414231073
-20.08983471552088 -14.509356989806165 -1.5161122557134206
-19.86390870902067 -14.395608286526612 -1.4870462996149032
-19.740337891288448 -14.344275468745632 -1.4709811792281675
-19.734006567374237 -14.314877996560275 -1.4737739047350173
-19.45601318176151 -14.105792507054197 -1.4805419623726381
-22.67153272894562 -16.129751624049874 -1.598166829985849
-22.607368378445997 -16.142849129622164 -1.5892481198683475
-22.777067978670686 -16.109062280781604 -1.5990089119072979
-23.006972841608704 -15.994676969505802 -1.5941085084537685
-14.5472083199439 -18.29126646629016 -1.330411363756788
-14.735350297924436 -18.2925893649209 -1.3404262260710653
-14.935600243355474 -18.196501778759274 -1.3668186118501169
-14.699308328806527 -18.000008002388114 -1.3557514692742934
-15.166463666082592 -18.15303898664045 -1.3249467313179608
-15.101715056499174 -18.172506338750576 -1.3466090171597407
-15.28372565616165 -18.106778979514665 -1.3643034781262688
-15.1785047398872 -18.136905154880004 -1.3587026675008027
-14.589044507181834 -17.67150910826557 -1.2946892799152527
-15.334826649770942 -18.084873116068433 -1.3686375082498603
-15.263844018021452 -18.02342504523223 -1.4017911842815398
-15.470637264601725 -18.01710522647604 -1.3982244686520104
-15.404869824470438 -18.01895447065828 -1.3993497586046746
-15.299261317059168 -17.98345864190429 -1.404729754927485
-14.606887385568585 -17.495718483890535 -1.3400773050878108
-15.614263111113683 -18.01087612480735 -1.399099765174097
-15.397475058238767 -17.911613880958924 -1.404218081844817
-14.857737689576183 -17.472997057189954 -1.295324089841499
-14.7492562427738 -17.48414380611915 -1.3553233708410777
-15.856092726036977 -18.056047516449603 -1.4001749704921487
-15.77433589360329 -17.992413857191597 -1.3950729746539878
-14.950282354683623 -17.437252013161363 -1.3280796142824745
-17.256769448256286 -18.839912599489274 -1.4065707526474673
-17.16323100610175 -18.764289909442954 -1.379762586320646
-17.105230811113888 -18.7310196535697 -1.4731970122679645
-16.634182569292776 -18.43068853117248 -1.3822139820556982
-16.492282928235042 -18.361603877265132 -1.4195719570295908
-16.377609415640997 -18.243912642544544 -1.3640691510540777
-15.955778880978954 -18.03351649304148 -1.3929063630614589
-15.823634427819545 -17.94304167006741 -1.4055154170242188
-15.147345868253229 -17.405342305991322 -1.3473653457309251
-15.065215411176846 -17.43269928195172 -1.3258668088133645
-17.73560209830399 -19.023149944027928 -1.4148279850445884
-17.530169539928607 -18.92024531064319 -1.401781741146992
-17.36465570496404 -18.807374734380772 -1.4526357897386943
-17.297416076417043 -18.777617580003124 -1.4267140753455165
-17.207324122684096 -18.726500308975766 -1.4041115965443243
-17.016017420199447 -18.587931568606106 -1.4542585718541479
-16.945349971699805 -18.606654755953365 -1.4634527831260735
-16.68855480632725 -18.403350239697268 -1.3908663432657402
-16.609778089184452 -18.272341309571097 -1.444848231548663
-16.446180918478444 -18.188782266490566 -1.3856134325867746
-16.417571647372352 -18.1851312131037 -1.410658316978192
-16.061690863092377 -17.99332742590366 -1.4216701010858686
-15.194508304335178 -17.379454748148472 -1.347921276429706
-15.133480405876115 -17.340781171998035 -1.3693386202787672
-15.010095612862237 -17.310600397269 -1.382671232827514
-17.943063256363033 -19.068831178837318 -1.4489880263646224
-17.859872775659742 -19.0186191887503 -1.4155534047712857
-17.760276432517347 -18.952944061667505 -1.4299510599750125
-17.412586127454592 -18.7572616882655 -1.463754200063085
-17.35660448679188 -18.748899461247127 -1.4660485384583637
-16.82949896470771 -18.354063801616437 -1.4300613813968848
-16.775110500347864 -18.374420003674892 -1.4180339410026033
-16.516364031792335 -18.169025969629363 -1.408352008022097
-15.317414981093767 -17.34044743366283 -1.3431923515209614
-15.195376438751213 -17.22409301153333 -1.3788512900915868
-15.126932999574347 -17.2220519390658 -1.3893492449180802
-18.81618614603034 -19.561583467527623 -1.4577172882112333
-18.210074080392765 -19.126605924857053 -1.4684350736573215
-18.15469354081791 -19.076750313732564 -1.4880736483870944
-18.05579257546184 -19.03419890297036 -1.473366765390133
-17.976809321574446 -19.014753917686367 -1.4729664035638992
-17.888443401907963 -18.953853913422904 -1.4580580727559296
-17.81375146261256 -18.891145048440123 -1.4602327713601895
-15.322514857944611 -17.177483497351904 -1.3527276616770885
-15.25879204265879 -17.20887223159147 -1.3625809627385732
-15.158542527990218 -17.135061550927112 -1.3729810759058902
-18.76413884594709 -19.440186385030557 -1.4647491632918583
-18.718226520210774 -19.34651531634566 -1.4757922107330905
-18.63388655941899 -19.28391433901385 -1.4435448586256283
-18.5496147505442 -19.242333226457863 -1.4627587157917852
-18.35331309299136 -19.12423983466837 -1.4488527417539991
-18.294815496195618 -19.107009413381842 -1.4659864936699185
-18.178190457747938 -19.053993053238948 -1.4905941525961723
-18.122830594332335 -19.02701254989936 -1.4811078170112213
-18.03723184515948 -18.953724416046434 -1.501951112565431
-15.339253611351594 -17.144765298445517 -1.3681518507383423
-15.266364802275678 -17.118596706876602 -1.3813665605178076
-14.551188226550714 -16.526261866279448 -1.287903778472708
-18.846955998539865 -19.303131864242907 -1.5029268746094033
-18.74463298061058 -19.290498528345836 -1.4820961005145572
-18.64894059869983 -19.261358498566032 -1.4419999779418442
-18.54894593682888 -19.183773121276914 -1.4385098336486202
-18.520288286391793 -19.174640260355844 -1.4476722447529742
-18.422091875048284 -19.099134370404713 -1.511590812866042
-14.675464139200152 -16.53568715705768 -1.3081641001272242
-18.859080356135696 -19.239117400572265 -1.491957492678151
-14.95555298686773 -16.562166640359237 -1.3163826089141764
-14.828519086677717 -16.562186456543827 -1.3051661497867173
-15.180061544120228 -16.58942383874697 -1.3159365891400994
-15.033493822145713 -16.554516528096418 -1.3144931685908945
-15.412453469329725 -16.64883790159034 -1.3207845714661477
-15.370169766900146 -16.616028030343138 -1.3338235662660245
-15.318473569151028 -16.592222928601092 -1.323384292523046
-15.215446821882836 -16.577907387158998 -1.3166325983239722
-20.35919197689036 -19.89250264237636 -1.5075637082303646
-20.324155258055043 -19.857944599585654 -1.508953860433464
-20.265715462600607 -19.795959577668476 -1.5032202233344263
-18.182943089297492 -18.270748781220686 -1.4344863781357302
-18.142410209991176 -18.239169874111983 -1.4233203585040495
-18.106255976368004 -18.189467546894402 -1.4170379334860996
-18.002882814853116 -18.12946313695063 -1.3944845601068308
-18.81432705008927 -18.634293020958072 -1.468483440430759
-18.200989418779066 -18.239876203965586 -1.4255031944142444
-18.160256419405975 -18.18920415787359 -1.4283349788618627
-18.11254519352853 -18.161734733614654 -1.3997621201097832
-18.120542985309754 -18.03749227776478 -1.415950633975616
-18.055205097903084 -17.961477603523882 -1.405446578386825
-18.042129637412106 -17.920667817297613 -1.4160249576289043
-18.105134093205713 -17.84126313199483 -1.474513994787832
-18.101343760469728 -17.82695105645337 -1.457176984510744
-17.943440873566583 -17.732952256295178 -1.4752591861690778
-18.121300382902174 -17.824178178907992 -1.462523972752453
-18.111568972170204 -17.817029693655467 -1.4525267317246695
-19.01410290880841 -18.275525476893606 -1.5141801579081748
-21.368232113666025 -15.699737994305186 -1.525873147788786
-19.959515385124313 -14.8112099891453 -1.4398245392335285
-19.819308525329397 -14.703844258950085 -1.4599273579936667
-21.907061863738047 -15.956165949364575 -1.5565750289335614
-21.861680907231502 -15.917171421125412 -1.5290086590345175
-21.41208062690727 -15.619841445245871 -1.5294279261547923
-21.361547501456762 -15.589118067255283 -1.527382930900715
-21.30774431775676 -15.540293590731753 -1.497107278503817
-20.014106168027645 -14.6981150889685 -1.4672992061450925
-19.83957672337791 -14.649292956220357 -1.4574577230169579
-19.3726714435129 -14.31408562868663 -1.445455185225571
-21.884338757769235 -15.837566663638354 -1.5153951969308663
-21.853967541293024 -15.838928404957498 -1.4915152201417459
-21.447145631715625 -15.572047675342722 -1.498529279083647
-21.413420870906204 -15.524594619342386 -1.4908291632161257
-20.07938270870399 -14.65200190577475 -1.4597624631353048
-20.01215129000503 -14.54865374055333 -1.4393788571953663
-19.87419912377097 -14.493906004592178 -1.4618107342353448
-19.872469385412053 -14.45426232438296 -1.4600670298552645
-19.766547876085177 -14.402255542180093 -1.4212035108319299
-19.677526614172827 -14.356780658037419 -1.4269119500682175
-19.468955177746615 -14.205750775443967 -1.438454258197309
-19.46576469853415 -14.189686146707707 -1.4337917624450838
-22.026843458553348 -15.774229587846927 -1.464791888866319
-21.965733082325826 -15.771275360575649 -1.4678551600599956
-21.510186901041077 -15.51437119013333 -1.4950363804613422
-21.43155220978152 -15.44736613525325 -1.5025147684245992
-20.9707769973161 -15.087276768752329 -1.416864243809534
-20.500476921492847 -14.771314630807758 -1.4021103997882973
-20.433431474576707 -14.719034692282055 -1.4198106067611849
-20.198511223690623 -14.595179826263806 -1.4346703134689909
-20.129850439447267 -14.566436626853246 -1.4544141887626758
-20.036275644377284 -14.491244980009274 -1.4438580491338495
-19.93454519269024 -14.417097643977648 -1.3820661531841787
-19.916475355629935 -14.386007399656263 -1.4241219143758257
-19.779681809257166 -14.336783727588498 -1.4095221534354736
-19.694395987620272 -14.277728778496439 -1.400967753749728
-19.627318934446635 -14.184627665936594 -1.4001063852117492
-19.53205339744684 -14.131467544619007 -1.4179361049180168
-19.48537416576009 -14.11364922389223 -1.4316077136413172
-22.39999246534862 -15.926388629368516 -1.5253128338834983
-22.371037293148703 -15.939963279245562 -1.5341761737233348
-20.48924158758769 -14.687309066688739 -1.4103090250559527
-20.429530416079345 -14.635228714580176 -1.4285600431440875
-20.359252714878334 -14.582566592755942 -1.4040449497000336
-20.30144568879684 -14.552477661673962 -1.3903478011214547
-20.200694514288134 -14.46515606032318 -1.4266479163747081
-20.108938493002416 -14.404994575448669 -1.418346748025058
-20.028291512355356 -14.366325004722853 -1.403819764729596
-19.937825186695736 -14.287826796911723 -1.3762501575921258
-19.66243572277137 -14.148274886890304 -1.4122900513345105
-19.597064669612127 -14.094466202248526 -1.3857034097599046
-19.546684305024705 -14.044079265526909 -1.413374846766778
-22.8677348506611 -16.0970100875877 -1.5687174724659876
-22.495745877295775 -15.88677235867075 -1.5117644685491969
-20.438857809330106 -14.571517644911923 -1.4408277562639538
-20.21904104210031 -14.3887518666442 -1.3968119799451675
-20.181958803033357 -14.36832247846118 -1.3998733862294428
-20.056819394643746 -14.257399771289775 -1.3936936250997867
-20.002857939224874 -14.203392034955787 -1.3833011022580053
-19.734000596283707 -14.05625594061555 -1.3822399377729249
-22.956364322049016 -16.055934748859137 -1.5680373912158383
-22.88921631447294 -16.015305658401473 -1.5797094155710403
-22.78613324636321 -16.006538985135645 -1.555974864718714
-22.586416057689203 -15.850998699994944 -1.509850707615091
-22.523838100469813 -15.829280466950122 -1.4782974880963566
-23.002890948153624 -16.03331970919156 -1.5606383680623925
-22.92987829335103 -15.914722943687938 -1.5615233058060989
-22.871446474485747 -15.885208120792814 -1.5332524105062921
-23.058264844931383 -15.875969158479695 -1.5416032992887927
-22.984748178913044 -15.879027368169979 -1.5667133950647438
-23.1957304890783 -15.915184808191357 -1.499818300167043
-23.120499540240456 -15.889718608190277 -1.4955350091049153
-14.577167185294662 -17.776186434058026 -1.264099267411214
-14.518330008952232 -17.739413132501483 -1.2314439312594672
-16.28352819563798 -18.77268165882479 -1.3054773732424532
-15.318137942333756 -18.134734530851883 -1.2759107884982286
-14.565502186233012 -17.73066878566998 -1.2295329223009204
-14.542552218391549 -17.685254747046393 -1.253415486129661
-16.439605074049503 -18.7750188512794 -1.2867563132445512
-16.370805690765025 -18.763358891882085 -1.29115392258244
-15.342804153086345 -18.11235160393774 -1.3001136454121092
-14.690941500807362 -17.60806628755751 -1.1932399036352188
-16.47164975514447 -18.76028789723153 -1.2743985188198617
-16.409813850484333 -18.680218010916935 -1.2679856326723902
-15.568564140049357 -18.05185020786359 -1.231133325916819
-15.472760289536126 -18.08583682197439 -1.2795985353521158
-14.831510713439203 -17.57830660175163 -1.2239395495792538
-16.69747660017518 -18.725734631715365 -1.3115413885450105
-16.635796033960965 -18.724265199413285 -1.2776570722277898
-15.576377646045307 -18.033398306044393 -1.2527944403701992
-14.877434283700394 -17.567448493820617 -1.2395389936817298
-17.068895629649383 -18.820076080118486 -1.3536656272166983
-16.92435493090956 -18.737163954878227 -1.3351510293206819
-16.85224639426245 -18.71781549832816 -1.3468226195840083
-16.75053447828606 -18.70728537414664 -1.3390684341239945
-15.029269288979714 -17.50020113140611 -1.225684986571002
-17.85806922623834 -19.2757171721381 -1.315403754683626
-17.37873704698349 -18.94698182048399 -1.2949542698253373
-17.340465711752316 -18.926796855244287 -1.30597478354203
-17.2254642561879 -18.80926977362155 -1.3063201980760448
-17.123471658907224 -18.78784384976543 -1.3356062059592888
-17.080025529585768 -18.770315074095944 -1.3290071917843487
-16.999837088338115 -18.71741921357364 -1.321475377980261
-15.201131092802864 -17.46570996891636 -1.2547003781268036
-15.073678021344781 -17.467019121293973 -1.2453490455344383
-18.02190861476036 -19.261954561862577 -1.348268120158583
-17.96496933004377 -19.223723428847293 -1.362455719584929
-17.890402121174873 -19.1547426472402 -1.3388765942546506
-17.804041892122342 -19.107782635429547 -1.3477142193872942
-17.743606213348794 -19.05622570464539 -1.3460528751078402
-17.629851803100927 -19.00339467361213 -1.367882345912764
-17.545007225606366 -18.93304925502274 -1.340982131520175
-17.489320897548293 -18.88952624056177 -1.2931779272504418
-17.39471922625549 -18.86536985068341 -1.3492053957034156
-17.26622413643416 -18.79539804451136 -1.344715259455617
-17.182146514191903 -18.743713922975832 -1.347508594142501
-17.128471190739518 -18.67441159452531 -1.2911974997479254
-16.489825726533205 -18.19851464694135 -1.3452004040438315
-15.369882728064386 -17.45438226736513 -1.224268688301255
-15.30667698384181 -17.452340791676153 -1.241817692089925
-18.183739019699033 -19.204356156683936 -1.3200942178643902
-17.98455470699895 -19.15809251011323 -1.3628657441437615
-17.90736294031134 -19.07847218793362 -1.3710985052194569
-17.84594991960922 -19.016157872530925 -1.3580117710638309
-17.77666200447565 -18.974171731550864 -1.3578360087616972
-17.645071168605806 -18.93874184757393 -1.3678821075692273
-17.59916565870861 -18.908324816756974 -1.383196646729196
-15.439912870186387 -17.437849221826593 -1.2509171603187088
-18.795930993012462 -19.522102215723276 -1.4293311969913804
-18.766279001470068 -19.50505569109659 -1.4148266146313189
-18.234048423724126 -19.154374300258215 -1.3473799401028346
-17.934247875629964 -19.026984644392797 -1.3905771363538277
-17.85686305582141 -18.96604573439333 -1.3930577367281654
-17.790629381966447 -18.92498101301935 -1.3254482536136563
-20.34407859433637 -20.425153518821695 -1.3987562401505063
-20.28886416560446 -20.393554428336127 -1.4024435918705331
-18.748222741899973 -19.43086023786716 -1.393751177913149
-18.718626753089914 -19.35445493453966 -1.3569613820282833
-18.649401989201582 -19.302823659119106 -1.3419773449307648
-18.46402502521653 -19.19271909253546 -1.339791291230588
-18.372542597856537 -19.138592040730302 -1.3671042149039963
-18.28045125562471 -19.10267815116865 -1.3763922481976194
-14.508197237723898 -16.516032767783244 -1.1653137787230992
-18.743926960349036 -19.321277773679597 -1.3539024669457598
-18.671394949334683 -19.268795057741055 -1.3462322976818413
-18.574287990170806 -19.163122116623427 -1.3548345131229858
-18.512899219023662 -19.138603970232886 -1.3681660626870518
-18.368539989225408 -19.081280871470128 -1.399767628223909
-18.35196294331095 -19.066908507885632 -1.3899662661281091
-18.049499251529966 -18.160668434506213 -1.3866990701686985
-18.854069831836153 -18.630229292552304 -1.3998444725102128
-18.153566670534893 -18.128129236503906 -1.376810777089975
-18.105520950053425 -18.125466448247774 -1.381160089257003
-18.02524174561447 -18.128257160929866 -1.3816685713025842
-18.05382163836896 -17.932077428569563 -1.3859062246644
-20.254954849551016 -19.344992731223904 -1.3924007312773967
-20.237846841247972 -19.292020149160166 -1.3771174743157415
-21.867497332127773 -15.937666279728235 -1.4349252454271502
-21.71076147440112 -15.798163998918557 -1.3975165242711065
-21.628265892386324 -15.755806296639133 -1.3915097466972728
-21.517369398482057 -15.670113454033482 -1.3972164593541834
-21.452085515396607 -15.64509841446803 -1.3810073226039163
-21.3651666360431 -15.602883915601874 -1.4032558125791572
-21.999923914284583 -15.88535161521522 -1.452068547014607
-21.907443201820506 -15.879572525561352 -1.443986566464467
-21.827347429345295 -15.786941716604334 -1.3962954698341297
-21.723333400882197 -15.714065300401414 -1.381043329576576
-21.642563310971937 -15.695771393962286 -1.406060275006811
-21.584313467876843 -15.649309310157737 -1.403552874753796
-21.482899177842686 -15.572862477501168 -1.3974064217827067
-21.389794418688403 -15.527555192306618 -1.4194347972281547
-21.35772688834748 -15.486277684857265 -1.4167526633635856
-19.689567339685954 -14.34672357889394 -1.2810620111319364
-19.16099428121325 -13.967419798500405 -1.2538329119474796
-22.200058996306236 -15.89706644836307 -1.4060070700851968
-21.996686492666665 -15.845138990714249 -1.455464031978962
-21.933693914379305 -15.780357147038329 -1.4513451864713562
-21.871391935109504 -15.722701701797739 -1.3900625113412788
-21.75207083952813 -15.663097816758897 -1.3933901032226363
-21.724624959485254 -15.671112019766484 -1.4336955573541315
-20.987283644620703 -15.119749786177424 -1.373530076439877
-20.454998514423195 -14.736740637519775 -1.3883283951144727
-20.255224202275304 -14.585174409310408 -1.3707789971735311
-19.777014633528548 -14.320590249066928 -1.3637430260854446
-19.699156356510006 -14.294652573155194 -1.3219453462593636
-19.43879877872901 -14.082332002623671 -1.2790879969416415
-19.44039083739597 -14.034994702699247 -1.2947226029743897
-22.338357332083554 -15.897249602933691 -1.4693542218657427
-22.241791790465182 -15.873397121178215 -1.4175376955850392
-21.921230341090475 -15.661660431821428 -1.3976042402155806
-21.05715018909922 -15.04371134126427 -1.36343079093139
-20.49710820521861 -14.661184545178886 -1.3800918257742647
-20.46502667949851 -14.659335693745176 -1.351733426525913
-20.28363836770024 -14.533112938529221 -1.3681349759966794
-20.230780359022408 -14.467508505985428 -1.3617656045131545
-19.930502046989478 -14.271273768017428 -1.3682983725507247
-19.714720280282513 -14.182053605078949 -1.3570418710721084
-19.537784419371086 -14.006571739962148 -1.2764063955944827
-19.457061013299292 -13.988527833565369 -1.286194695375109
-22.477465749677197 -15.834548668203267 -1.4601003770834955
-22.41541214140617 -15.824356992121938 -1.418996203846083
-22.339321812428224 -15.746277360654299 -1.374158941699592
-21.13153863299298 -14.934850952264462 -1.336269460965463
-20.531868908379238 -14.604368134660094 -1.322082220927478
-20.5180060458077 -14.569130682029087 -1.3195659679349567
-20.30241122508818 -14.447470121620837 -1.337037536333666
-20.230749323683263 -14.339690256633832 -1.3387986215965422
-20.208922599133633 -14.304045811766889 -1.3453004463463052
-19.95506220861792 -14.150756430316996 -1.3664994121313105
-19.86618270640863 -14.10674892051601 -1.2686433419111172
-19.558214670522474 -13.957871958176941 -1.2691373238028716
-19.49886802220992 -13.90200769775606 -1.294565626335435
-22.506226380604822 -15.821389722717251 -1.4567317176130499
-21.141173582092737 -14.880423010335697 -1.3428060414895038
-20.530942569218702 -14.463137611144372 -1.3008043034733219
-20.37648988253042 -14.340687528026375 -1.2901374550639753
-20.317068655762586 -14.350566568029459 -1.3400367299566005
-20.2245299634713 -14.2600063542693 -1.3271463428526973
-20.143866825374317 -14.169720830402184 -1.2835794304078945
-19.944988075643987 -14.071777465626964 -1.3372762285776632
-19.910665559751443 -14.040874998434933 -1.2830464632999348
-19.116380754492873 -13.506870862121197 -1.2363242510270227
-22.837637197512514 -15.834867212874276 -1.447285087825946
-22.816654409506576 -15.835516986885967 -1.4384370942481879
-22.567064157723713 -15.743081700904778 -1.4325346523591
-22.53454569096845 -15.723228323022227 -1.40324119781718
-20.37787483584637 -14.254330058064005 -1.308581759292371
-20.19368043154663 -14.141595022553478 -1.3022486608948551
-19.99323139980429 -14.029343303163632 -1.364852759698855
-19.97257281728633 -13.962632934362912 -1.330092350782056
-19.44995037068977 -13.632967421916618 -1.251360075420314
-23.053631322751663 -15.908216593903497 -1.4590217718554066
-22.987789032090614 -15.859247297187014 -1.4424055107851947
-22.903800261799486 -15.789007888125582 -1.4259853255152874
-20.03220552431097 -13.878328003129603 -1.3642362246605602
-23.436650939364227 -16.05244513899575 -1.4712764755853898
-23.383197769339603 -15.988792709665573 -1.457728150385639
-23.298985699953562 -15.956936578349367 -1.4595852658203927
-23.160163708301404 -15.873927871845456 -1.484839573465153
-23.132944911231732 -15.812640897262222 -1.421722552323693
-23.061707989542235 -15.790823514340278 -1.4173151125973602
-23.524251535307055 -15.997161580349546 -1.4557774432580295
-23.446144828980124 -15.911961948072989 -1.4578623924115712
-23.338958229897656 -15.895408012832615 -1.4357401103597698
-23.1631209531757 -15.767437870063889 -1.3999911510085439
-23.64362347348972 -15.939824253981108 -1.4279701946899317
-23.567604965248865 -15.861643968509084 -1.4537517520992067
-23.499269795867836 -15.824303536707827 -1.4110549087603739
-23.185951469280084 -15.664257069780895 -1.422501951227817
-23.703872285507522 -15.921493648609147 -1.4274941411510527
-23.554401871230155 -15.82107480210707 -1.422805125013808
-16.04060083216319 -18.90837144834004 -1.1535627417197776
-16.14279111836151 -18.831105436469404 -1.1618349060284725
-15.065767274235608 -18.184880251690355 -1.1391087924168115
-14.500551657368131 -17.727322891976975 -1.1805089303554335
-14.548942057785188 -17.703439673743553 -1.128482460486148
-16.424260448939684 -18.75922515319903 -1.2516140604393384
-15.418603709937209 -18.093305598110373 -1.1257913821246635
-14.52862703632761 -17.536890679157384 -1.1202490220049028
-16.541858809133966 -18.757310265207167 -1.21417416629529
-15.455753026360334 -18.06734202483918 -1.1491729144503675
-14.797205833150974 -17.572569370024983 -1.1261922261137287
-14.742173309043608 -17.588142345236186 -1.1512267919473347
-14.656322572492824 -17.52090877880735 -1.0921174734672547
-20.806075426387498 -21.455275764534846 -1.3929044347916262
-16.597394290254208 -18.737293340314864 -1.2573188872675598
-14.933927985869627 -17.548683594418083 -1.1732913248787498
-14.81101712566126 -17.51159318523549 -1.1636161996454073
-14.65869175244442 -17.349851438279096 -1.0936390015542927
-14.56432965552539 -17.33689442665041 -1.0813920533731702
-20.812626887794465 -21.42321212037012 -1.3764741197301484
-20.73267373610449 -21.317506555794253 -1.4061649906141183
-20.70735808057641 -21.26953773553583 -1.4091788763822506
-17.91579297029883 -19.438800272019705 -1.219020928815471
-17.24083400132328 -18.953109511103705 -1.2416511440279527
-17.145534866222864 -18.898525233594118 -1.1964183599449432
-15.12436320669264 -17.50823489624368 -1.1855372422238328
-14.993931391544388 -17.50794370231836 -1.1782278010167757
-14.617324314283582 -17.172442321508704 -1.0973285173513245
-14.537291631294778 -17.192744910625475 -1.0886238668724237
-17.933157157045688 -19.377480735588588 -1.2146205512784354
-17.905316335903006 -19.305175355926977 -1.2402356926802107
-17.831426245428542 -19.249239800309393 -1.2808246341956433
-17.30515381430249 -18.900175561649533 -1.230620484227474
-17.224131608892545 -18.843393125238784 -1.227116891993028
-17.16604908369081 -18.805855853931142 -1.2234508813068532
-17.01284804608004 -18.664791819394058 -1.235383088944848
-16.901789836033892 -18.700291390433406 -1.1942126678858238
-15.891147932722303 -17.93901254431823 -1.1763936183513586
-15.161564906418956 -17.472586082115225 -1.190663353495387
-14.785436801102962 -17.15994433547167 -1.080134433444525
-14.663224393520792 -17.153001992674263 -1.100527564234109
-18.04514690776645 -19.282262728688252 -1.2902145245789318
-17.9588655629732 -19.233597092063903 -1.251148800732704
-17.842359553804272 -19.18012773105618 -1.2737579338323535
-17.843963301561804 -19.112979940568803 -1.263918128499218
-17.724744050616597 -19.054170162804784 -1.2286080331191582
-17.471558581597343 -18.8866707423067 -1.2693010488855534
-17.359117489009712 -18.828208621363288 -1.2070568883177484
-17.301642726406747 -18.81046114633784 -1.2111600664655773
-17.188817748329253 -18.74997411469196 -1.2118851938413753
-17.11245516171792 -18.649840397867717 -1.258643633686344
-17.025074143957838 -18.627217966213436 -1.2168516535364609
-15.941596704904526 -17.932345100157203 -1.1355752363654241
-15.144995846415437 -17.31721339977359 -1.140307751019066
-15.04188228905447 -17.313074163872496 -1.1502188554135342
-14.790695146757724 -17.13470913320836 -1.0963328476917862
-18.138019708144682 -19.25258493385979 -1.2933999056746608
-18.07560932685444 -19.240939519617275 -1.2739738392772861
-18.001595537858602 -19.184655184719173 -1.2290339857571333
-17.831334321025594 -19.035697912733543 -1.2392398860132068
-17.780147915329618 -18.975767908194726 -1.2398727793409106
-17.491024489644733 -18.853234102764326 -1.228076995801681
-17.16371041451422 -18.618467159243036 -1.2658561821564385
-15.205596021169391 -17.305461381947975 -1.1176436793242057
-18.287572736333555 -19.202169475507592 -1.286523008294759
-18.254147076533616 -19.205511026084203 -1.290178282161118
-17.863585049079187 -18.965968530854447 -1.2949112237690796
-17.80126553758527 -18.888767926920163 -1.2754883200623497
-20.40983724259391 -20.57322517582515 -1.3911414786217822
-18.689612731420727 -19.32979736099685 -1.3237180263360644
-18.65145255938524 -19.29880540104922 -1.3024719776813005
-18.568917443471083 -19.24170075595774 -1.2765822289250406
-18.481402830942894 -19.205431917691953 -1.308556274941555
-18.368029721765538 -19.143404434324022 -1.2489571351333886
-18.292933076887522 -19.112511531180374 -1.3048393138028844
-18.715614094134143 -19.31620906396164 -1.3293732138107033
-18.662420241767485 -19.236364520718755 -1.276107144409477
-18.595363796079486 -19.18729200685103 -1.270744023086185
-18.525171171680412 -19.142507130326106 -1.2783486507874804
-18.388087575033385 -19.07645991140342 -1.270370598618405
-20.32743579065837 -19.416224931344708 -1.337596423237866
-20.24453131475353 -19.302658511034327 -1.370620517351702
-20.34091198533276 -19.239298201315492 -1.3071111138167344
-20.279600116810805 -19.193718440080826 -1.3365798727713
-20.31472249551739 -19.179094506848543 -1.2795309039599647
-19.578737465196458 -17.454979936719827 -1.2526209729320386
-19.572219507720526 -17.448665120036782 -1.2502840813515361
-21.824571327936525 -15.797014151421582 -1.3399127914035736
-21.731074840165064 -15.7138987567553 -1.2934422045837821
-19.701278709580546 -14.333391487752566 -1.2544962467616887
-19.16548253477439 -13.995331161054741 -1.2285624079470336
-21.934817002780637 -15.75125894568894 -1.3328779239852477
-21.884153539539557 -15.729127659722515 -1.3036659346401076
-21.796335926118807 -15.683664517493138 -1.300976798142358
-19.722044453960667 -14.29239648422666 -1.2417160796001523
-19.69858324497608 -14.219295215130979 -1.2520453539572431
-19.156964398880405 -13.95311189409697 -1.2180547993559006
-19.155409373025034 -13.88351828232711 -1.2242422991711925
-22.19248188665243 -15.778691266605895 -1.3136962706257946
-21.990822086844542 -15.68453955655822 -1.3053897882340562
-21.941160373960965 -15.658427229068625 -1.318284694807263
-21.867191058065828 -15.63542033340214 -1.3347909016069677
-19.740715441665635 -14.169448271955911 -1.181354506931787
-19.72436561530751 -14.139405167184446 -1.19727919659153
-19.597773595337088 -14.038548400296477 -1.2417119341468708
-19.56227729472029 -14.009715760341058 -1.2472550098561745
-19.49608127920232 -13.956140063808295 -1.2391788755429858
-19.172477088506717 -13.782764766707887 -1.2057312697892644
-19.132220556713445 -13.725775324165241 -1.227107049348147
