ply
format ascii 1.0
element vertex 831
property float x
property float y
property float z
end_header
36.615941222497604 -163.93559287702828 -3.3610539857812607
34.87048546032073 -170.81225261834695 -3.434060159826228
36.58021200874805 -163.95607974106636 -3.3581395945131645
36.540629539942074 -163.86560510573432 -3.375702535166754
36.149011210566655 -164.9812154674732 -3.4093142219183363
36.207090521424426 -164.9315020264604 -3.4159882045198
36.3910644650165 -164.02746704286093 -3.34909033187318
36.43693514120629 -163.91994381035897 -3.367937452618343
36.49289594677591 -163.87273284357963 -3.375416360290354
36.116294031440674 -164.96015930117608 -3.4128183752914776
36.27645872436376 -164.05020987574466 -3.346776873758145
36.314977654945466 -164.0461593794503 -3.346897070354464
36.257347039991465 -164.03802791708924 -3.3491420631689146
38.712005066516134 -142.89770739848746 -3.411710894475824
38.620715014033166 -142.95112093784266 -3.41714216012039
38.53967174468601 -142.93378552795934 -3.418312719370404
38.48705303012853 -142.91055352669161 -3.418700072528944
38.45036205060978 -142.76280966559503 -3.411199353274658
32.229784871503846 -166.90812264008542 -3.363063769816767
33.0971136572306 -163.1971909671485 -3.345826689184216
33.08316407764929 -163.06571954326532 -3.3635599597766075
33.06018582627311 -163.01444680940068 -3.368655249217781
36.54823550801108 -148.42512528676747 -3.420762571176269
36.58406211148627 -148.35601300441652 -3.4135221430272544
36.47763950582338 -148.44628750287768 -3.424178975202631
36.47751864947243 -148.43642735137516 -3.423127940951537
31.95757106813817 -166.14911442154755 -3.4237337073227074
32.50568379900701 -164.0585073622899 -3.403627797030039
32.526262847712836 -164.02932289476 -3.4086344373692867
33.05988361835083 -161.70584484417364 -3.3759738736042437
33.073803098380644 -161.63840465212894 -3.387982530909321
33.07222295041997 -161.57528092453884 -3.396823451306193
36.38810395734598 -148.4281608172298 -3.4242464668004913
36.33391048237728 -148.39052146324858 -3.421926064504448
31.903753375056947 -166.09077399763848 -3.426436937560557
32.446166875391214 -164.00017529408834 -3.4058222459979057
32.40030766073991 -163.90500947544484 -3.4130845857678613
33.022435269400326 -161.76307059212323 -3.36197700981442
33.037824458105625 -161.52214154270794 -3.398922666666948
32.9989714821689 -161.4837454372955 -3.398158844099237
31.818940891141224 -166.02376373317145 -3.428384351307734
32.28771942349739 -163.95782248844918 -3.397739083367144
32.939408455231266 -161.47917720202415 -3.389104785118916
32.96192444966329 -161.47357417987774 -3.3936035017649964
27.782173110585656 -181.96434152161837 -3.4403914399516373
31.717071638808513 -166.04112315075767 -3.42162724794495
32.26831514138303 -163.90558535995814 -3.4020474562019256
32.24940551729985 -163.87218874762507 -3.404324493058846
32.83290571160524 -161.5207466253983 -3.366117790825183
32.12990883957679 -163.86857111353692 -3.3944628033164586
32.06836973877002 -163.79392883272544 -3.3974450135292726
31.907866831759215 -163.80043562389346 -3.3825083321535345
31.975029560770146 -163.77696267570028 -3.391104921721902
31.82694256475187 -163.7459994665234 -3.381090888177676
32.29660783259865 -161.9716926710581 -3.4117313943957512
32.27217465545216 -161.90741747901723 -3.415559094766347
32.29744194012912 -161.80521437111716 -3.4303047844475185
31.77946024702273 -163.76225841262277 -3.3752199671714553
31.757251260566605 -163.73183575172908 -3.376329360091824
31.787757283728943 -163.62601432021702 -3.3903147807518383
32.26732538619613 -161.85272113554424 -3.4208398480663624
31.691969836298558 -163.65920898753532 -3.3779281594863786
31.656244073982883 -163.26753370367894 -3.414398990733086
31.97606161703225 -162.1878584438283 -3.3440202574425792
31.55008021607503 -163.2755202308265 -3.403101270870047
33.565905535232005 -152.64384647919013 -3.340483280280047
33.483721571947235 -152.68540989201142 -3.342203130327791
31.36955776701656 -159.63431950071526 -3.437880285632221
31.335032968626905 -159.45777452490375 -3.4368345863401357
35.67495600350798 -141.5185431822797 -3.403057980793679
35.58938026981555 -141.58543770335078 -3.408190178482796
40.3956728801489 -117.35199058531414 -3.3827382782461584
40.25618860640828 -117.29055965696611 -3.383895710296124
39.64188260842443 -117.71119662097857 -3.406302182494131
39.50074393943193 -117.67616824404482 -3.4091771186415696
39.35825387366326 -117.6616592120255 -3.411350043104669
39.31182413386301 -116.2833147606828 -3.383434579074186
32.21440261918889 -141.3444529679792 -3.4332921033978345
38.51279216778629 -114.28214176335169 -3.3574273044056175
38.34496403612492 -114.57872661587743 -3.3666797549388363
37.83066402918564 -116.05546279109241 -3.4096223918082513
38.1947564887425 -114.48026775903477 -3.3683094437030103
37.520823501014924 -116.5242623047935 -3.4260345478278014
23.333909017218446 -164.33183948378786 -3.3535611198780684
23.31135412072822 -164.01643726871842 -3.3596857919938836
23.582827726124513 -163.10455223741187 -3.3974338280032788
23.176905649632488 -164.23632882856822 -3.34592184557701
23.338251909731518 -163.76274529640665 -3.3674076334582264
22.942678385628845 -163.8393350377076 -3.339224117349386
23.00250365897074 -163.65668186480931 -3.3474210852008963
23.055609724698694 -163.58270100034827 -3.3522196311841768
23.052616387255743 -163.52932684953535 -3.353427040428577
23.725546995800705 -160.7489601446627 -3.4376895465735275
23.72579292787575 -160.70334844087117 -3.4382261864733414
22.973319363030974 -163.50468298019004 -3.348298582979557
23.501641402719116 -161.11708920439537 -3.4193893661298294
23.62535703381834 -160.85856577430218 -3.429860176960534
23.706599689716505 -160.66090108050224 -3.436877362774146
23.486018758875183 -161.02641543165188 -3.419002849735391
23.460972251317564 -160.93609634475436 -3.4179043843016474
23.663364711485343 -160.27932191532682 -3.435678148306521
23.68852823915659 -160.16427828263093 -3.437949035853794
23.527050561602877 -160.41386725698163 -3.425316617150009
23.554344900873666 -160.13566116507567 -3.4281966583243957
23.626110973925563 -160.08149891370056 -3.4336909341546447
23.23045816866026 -161.12325284717028 -3.399925157797103
23.316699987035943 -161.01122561901732 -3.4068862326076257
23.25200401260733 -160.8788020023829 -3.403489399084547
23.75976318728787 -158.04355304463638 -3.4354062710200113
23.98049889587903 -156.80117499703323 -3.437068218491188
23.998605317791473 -156.7594208981529 -3.437684707123954
22.518294270336312 -160.70966296179353 -3.3523117906175464
31.459122646058724 -109.03947216231472 -3.379969520513024
12.40527741472782 -150.9218739167734 -3.3727205304395076
12.428397831035607 -150.83668236904236 -3.3718745424264167
12.345239209072606 -150.71715552595754 -3.3667853084592885
12.295442276409162 -150.2313851578075 -3.355591929394996
11.979977141882955 -151.0635153156062 -3.3603957608131303
12.020297584473642 -150.89330678645408 -3.358692691719625
12.190811272596836 -150.5724906706319 -3.3586085456035226
12.247736898721236 -150.01656405475796 -3.3496656409464327
11.879606974819648 -150.94135268174682 -3.3547196313859704
12.250766278987275 -149.4436518594583 -3.337933384358652
12.231509422844589 -149.2473551601576 -3.333092294067023
11.89031278474707 -150.3738544070997 -3.344432508303748
11.609581907413478 -151.04469220091607 -3.3471291373415784
11.11640528946388 -152.13870356830944 -3.3479751641898465
11.135068354503932 -152.04944139828635 -3.34729880939165
11.202456980184692 -151.87851849313 -3.3469627625918226
11.064478291348902 -152.22194077498105 -3.3474778776091583
11.125173053762769 -151.95245761611332 -3.345338993903104
11.141101351701387 -151.767570058312 -3.3429111081192238
11.118648360157998 -151.6667956542124 -3.3405180173690017
11.112226462367108 -151.56955218755422 -3.3386125218986864
11.096946471362283 -151.46776576015856 -3.3364253546780276
49.76956886083512 -168.88770874319408 -3.250863775269782
49.76310184305646 -168.8108458941994 -3.2527026935505927
49.69659957104204 -168.61468428845225 -3.2610571841856837
49.73257910333131 -168.56692117256398 -3.2596975394235006
50.01720520633833 -153.66771598463143 -3.273100583085699
49.95691257680899 -153.63598105233925 -3.2770395010650244
49.90965701673491 -153.59976992986387 -3.279443762105549
49.85480730852849 -153.53807877230253 -3.2822243263139566
49.82650781737137 -153.44075665162788 -3.2822050123894164
49.861241574487735 -153.34779203593695 -3.277870114026702
48.35537217307504 -150.68790254844507 -3.3112561321385163
44.19154953363384 -167.07491988107196 -3.2462069120313184
44.05790381542743 -167.2863156988307 -3.246431926385186
44.118416913313865 -167.08245839283643 -3.252095606545357
43.974888188096514 -167.283667196284 -3.253586246951572
44.0427754097672 -167.14707371597552 -3.2551339542071798
43.88779728186056 -167.39950655224382 -3.254684222290903
43.86528980547719 -167.2811382100665 -3.262867754675961
44.655565005916785 -164.14772383063362 -3.336185890472956
43.78643900268889 -167.34181819949862 -3.2660856331070116
43.717392790218355 -167.32193362354158 -3.2729752579058333
44.4867680590479 -164.41378276135302 -3.3422773182053933
44.58175914399341 -164.13950563583347 -3.3436410718954956
43.68541307121702 -167.34600919670987 -3.2741882348721907
43.28644652583419 -161.69792316395112 -3.284098299068397
43.19008945047278 -161.8564323596673 -3.2905943110361147
43.18187253909853 -161.69312839051892 -3.2985648518625004
42.43090886141588 -164.27635529134432 -3.2448455690966567
43.107706615203746 -161.75959242675123 -3.3059146016732033
43.09720015845725 -161.69675773298934 -3.3099447953097005
42.35920443644385 -164.3486922893855 -3.247861724481302
42.948072769007645 -161.76549137712493 -3.3273435144849657
42.808153188031966 -161.89348618629492 -3.340468802779057
42.86762172535438 -161.75399024793137 -3.3386853436399173
43.24040323142991 -159.77100747541587 -3.342641192347449
45.39653726381132 -144.82819362916734 -3.248233751724971
45.280671951088365 -144.84926383040954 -3.254912825567231
45.174547696242556 -144.80366626422722 -3.2580087848128185
45.119363142976994 -144.73090550472924 -3.2571268312713597
45.154436530034815 -144.56678321204507 -3.2477387391266586
40.315791411804014 -159.8815761587988 -3.3086084655173056
40.42478112684737 -159.58578917081664 -3.2983580150642
40.273983761932726 -159.82156951808776 -3.3226349015171133
40.26634075260103 -159.72884877121817 -3.3300511356593323
40.30244536156699 -159.63521646859368 -3.3262715538051637
40.35091490199769 -159.5886896026077 -3.3166052426050188
36.18868777954772 -172.00217530890515 -3.3292681639099757
36.04459187015046 -172.06122946878796 -3.3272342918288498
35.99738388482818 -172.0260832716604 -3.330344523522679
36.3531031670663 -164.07663686996932 -3.340809950861555
36.126851211108885 -164.35269601030618 -3.2929822746112425
36.07371176258278 -164.22714352364045 -3.316351931513055
35.97577203808459 -164.20882081702825 -3.3200944840412623
35.87947109116615 -164.27648140776336 -3.3078900120758057
35.913330771642144 -164.23490469585053 -3.3155242403169245
32.98550503039215 -167.7750058365492 -3.30179283436744
32.95751358591151 -167.70306238726076 -3.3082997997929575
32.929390821420085 -167.6329414345138 -3.3145897965147384
32.89048597116669 -167.59244181010166 -3.3177125567994006
32.86424089532699 -167.52034744539537 -3.324429881993842
32.750203510480226 -167.57770505253856 -3.314877460582216
32.82994904037432 -167.51535861122875 -3.323635718202163
33.10843092812653 -163.3943693229246 -3.3179166456215112
33.116039377281524 -163.2921856932549 -3.333836219518469
32.96253278219932 -163.4589389134965 -3.2942921628269968
33.229889561290705 -162.33639125991184 -3.302206482108561
33.24860043502563 -162.23570545316954 -3.321230797129279
31.872900117016542 -167.62361971100088 -3.2781650752295017
32.879189474366136 -163.4676221470355 -3.2849672930189433
33.11681863146463 -162.34951098041412 -3.2848311261408933
32.7538120516642 -163.60549785004017 -3.2522495802630615
32.95237044029795 -162.2422293117403 -3.2788601790293113
33.14387686579167 -161.54833207035074 -3.2486347031834084
33.13261598098925 -161.4655858078935 -3.2603950142005074
33.11226720394134 -161.4023021464928 -3.266974453929512
32.90393110855489 -162.0172976381378 -3.306304523493046
33.06060515559469 -161.37671381877337 -3.261395450742432
32.98453046059296 -161.37160012082305 -3.247764936190676
32.691338333481994 -162.166635113777 -3.2519476468469124
31.319877504753396 -167.3105888803089 -3.2836027746364955
35.44641799199408 -149.9001394996609 -3.2652482294138925
35.34225186108452 -150.03525141330894 -3.282784862212705
35.396632386935714 -149.99369552237738 -3.277305835380602
31.05397599537817 -167.00106484722275 -3.299308018902852
35.253127263415465 -150.04835272888516 -3.2847240390751997
35.144122706301765 -150.03516620302275 -3.2832537590268185
35.05829638469416 -149.97590650778525 -3.275888846458211
34.99717542257736 -149.8891262050063 -3.265051864685124
31.79245542241239 -162.25874593590967 -3.3112659370712927
31.83081144800982 -162.12325505116945 -3.331305254577675
30.672554765487728 -166.60543287694426 -3.3136890151436873
31.76195247529634 -162.17736642590154 -3.3157600320830225
31.801147748462366 -162.09465499164736 -3.3302425087828578
33.669631347972086 -152.5380227082916 -3.3301355022138317
33.70855957012388 -152.45779476044905 -3.3201413725389033
33.71452055583569 -152.32617301288215 -3.3008508125893696
33.62069005502563 -152.59823287709676 -3.3366096223842683
33.43096146605134 -152.68230792100198 -3.338938073113585
33.51641009650351 -152.6464925963934 -3.338332257210874
33.3678309276117 -152.65907596920798 -3.3320556425192804
33.283449225881114 -152.62493455696102 -3.322397691300445
31.414210308038363 -159.55134524069365 -3.2633192033410454
31.42921705357 -159.52124162926137 -3.267599270608664
33.21232183373669 -152.56859548038267 -3.3102728127084404
31.366713889576282 -159.58800119383955 -3.252039225144366
31.40349624203648 -159.47155660847196 -3.2638383085267764
31.371982087552656 -159.4316086188502 -3.2585041586679186
31.33432445437593 -159.41998284464577 -3.250778452898459
30.08480990093594 -163.35294809921848 -3.240728548075723
30.085969045120805 -163.2842375454434 -3.246467773963328
30.045698449900105 -163.24457998978366 -3.245348543269941
30.025410558463758 -163.19001939018932 -3.2473922014922896
29.9593537896503 -163.16967968484843 -3.241636760488836
26.63798229984479 -161.93888042690614 -3.262364648813646
26.678498064914052 -161.82973071972873 -3.2697430907203517
26.684012775605257 -161.71329530888562 -3.2735743280571024
26.68143545832053 -161.620497205986 -3.275912749491243
26.56540566156277 -162.02062968272108 -3.2524430200424597
26.643262894671814 -161.52040103044027 -3.2746580604983637
26.584774796820533 -161.40858056231488 -3.271520694467574
26.453048173097336 -161.35179422771787 -3.2593048624649072
23.377267629653545 -166.34368516438303 -3.297307919449052
23.428865026530307 -166.00554450869112 -3.3113445504848644
23.33384269874643 -166.27444049282636 -3.2968304516303286
23.430621459454752 -165.9444155960691 -3.3137761378153234
23.073278145076152 -166.84895882454265 -3.261177572714839
23.143561760148806 -166.64356694395187 -3.2727355008416392
22.89239702479537 -167.02644673630306 -3.244470657509752
23.001210100800648 -166.82746651289364 -3.2579723328674217
22.70632754868532 -165.073652755017 -3.2935730145772064
22.794897460709635 -164.51380674387704 -3.314106370826187
22.756002448240878 -163.53223290911302 -3.333411734253428
22.767201295989235 -163.47516381197852 -3.3349884688846485
21.797016759471564 -164.8906807025199 -3.239135023452884
22.407259840024295 -162.26141490624525 -3.330471548877674
22.126222655111622 -156.43944913817688 -3.2990449223054084
22.188693306398722 -156.3469944488766 -3.3020190157288347
21.745726661291478 -157.50123063699345 -3.2849558118501156
21.989776757674754 -156.36779282143337 -3.2881294927988702
21.887461988559718 -156.19645268400572 -3.2780561158210837
20.95896462815815 -159.53081648969365 -3.2421739884853125
21.822380234234892 -156.10735816984158 -3.2718735569993767
12.154233415643656 -149.12029830948194 -3.3277952806603115
12.089518316592862 -149.28825104196284 -3.3292128588180834
11.905623240538453 -149.41332518255243 -3.3256095931395118
11.028215327755888 -151.35087983841615 -3.331948976382204
10.939401492049988 -149.3544621928157 -3.2913377544788953
10.961724118758227 -149.16529023147672 -3.2881915612767987
10.376810906268961 -149.4632384348758 -3.2742830184286156
10.632246889759596 -148.42511963970077 -3.2612356594200227
10.198050660828464 -149.6072759174194 -3.2709709554366704
9.260754800339932 -152.1718443949908 -3.2820588586517325
9.276300008083581 -151.9778098409173 -3.279711026221618
9.219538218437453 -151.86512667305726 -3.2758909865303383
9.516108781132726 -150.82344461864778 -3.2695623842755936
9.283818643518202 -150.65580186261192 -3.258397834648693
9.513303681114962 -149.4733431342396 -3.2446226096928728
8.497148075714957 -152.2004882030653 -3.2550060040472992
8.493958648060584 -151.88904847159992 -3.2502437513992497
8.302976292642807 -152.2620614682867 -3.2488201578417644
7.614837263429813 -153.2665649217327 -3.2372760828852734
50.7803368290624 -169.75331527074306 -3.165625304632126
51.12999196942453 -168.37951976057604 -3.1678854447428986
51.153602577055885 -168.3221343287052 -3.167128977277386
50.15569421893304 -171.70990120187724 -3.1634461043435786
49.89481095010017 -171.27993659437374 -3.1903002032881975
51.42323076514288 -164.482410411162 -3.198715683798179
51.46127260540392 -164.31274768077773 -3.1974449412499197
51.48850894782989 -164.26336129224788 -3.1957736401133805
51.51681268010435 -164.12463776908757 -3.1948287566582927
51.572144729749176 -164.05450049962553 -3.191247847064732
51.41502942851251 -164.42148069992214 -3.199920149335294
51.46311600866977 -164.19496725747615 -3.1982690074091504
51.40281984247568 -163.87648285867044 -3.2050960900594534
51.31545425811916 -163.90193849858866 -3.211440378829865
49.88909214153535 -168.83661023705375 -3.243851748794126
49.13514931671115 -171.38152612183848 -3.2359957661927274
49.015284577510066 -171.39491448621445 -3.2431185641054476
52.24180167166766 -158.25821838252938 -3.164421220258461
52.30174160560361 -158.17387907506748 -3.159326250462901
52.30850404683484 -158.0627424545547 -3.1580624874191887
48.95364701591379 -171.4219494289192 -3.2464641548004756
52.1914267472429 -158.34179958163634 -3.168776750240859
52.23443537362436 -158.1203747484574 -3.1641306165000267
52.23484224873911 -158.00988506564238 -3.1633249128146756
51.66395132366401 -157.7100043323076 -3.204111234336443
51.587185149957115 -157.66115858012438 -3.209316425769081
51.61073684383754 -157.44662578628578 -3.2061713069439595
51.660477187211555 -157.39061239298383 -3.2023227847708817
51.55430143969464 -157.5835375112076 -3.2114207786643245
51.57876518288275 -157.50219157685854 -3.2091853505146744
51.447817623998304 -154.64909296048236 -3.1866769506920516
51.66687421629922 -153.19316672788682 -3.1447551664980047
51.06566228343729 -154.42191763810087 -3.210976782809598
43.85347994697274 -182.71666077380507 -3.1492801654913736
51.205057192645285 -152.58662975630745 -3.1653972193387556
51.25071895440534 -152.32604179199296 -3.156311413666698
51.20436955392033 -152.2525626133683 -3.157766333070275
51.10115829344247 -152.14441619291497 -3.1626970652147035
51.16887659903285 -151.991640652007 -3.1543061906051997
50.60931012869635 -153.67969541472164 -3.2306646156565555
49.647120558105144 -150.51493559441153 -3.219702378107117
49.53712874191599 -150.4557609419785 -3.2253276455205677
49.51202707991205 -150.3775459199631 -3.2247885045944646
49.522866633235935 -150.30853027221085 -3.2217030947494214
44.33045648978726 -168.69131512398016 -3.147346341377456
44.28795655799354 -168.21198371393885 -3.177376017415593
48.994399942708476 -147.62580232964098 -3.1645041795697777
46.61565353188717 -156.88368324506266 -3.21110002007066
48.89832827243696 -147.63097224811554 -3.170903175187429
46.591946414637455 -156.83277335815546 -3.2128935830970606
46.55685600455304 -156.74612023950786 -3.2151938769778865
46.59527786850955 -156.66529573801947 -3.2094070514495594
48.805282353214096 -147.63391119033372 -3.1764765755597875
48.72674373176528 -147.59045179984605 -3.179818910034708
48.69112340503821 -147.50579052777292 -3.1789360902100237
48.71198858815094 -147.40691345539116 -3.173615843382504
48.72670052772547 -147.3163635389994 -3.1695316606267747
44.436283144018034 -158.9925654482305 -3.186402661700277
44.42382175915622 -158.96391121682743 -3.1883066691206334
44.39172111414945 -158.89263556563256 -3.192953047096277
44.43665763652706 -158.81034612949082 -3.186345643832171
42.62350964149619 -165.13386192751065 -3.1593723277388506
42.50752187883691 -164.92080216844775 -3.188435363887901
42.5068428029561 -164.8107672034751 -3.1968439173924645
42.51946814486978 -164.7144749615304 -3.2025960267373814
42.488124036985994 -164.72619699251496 -3.205332659576084
42.48561557437223 -164.5947363604596 -3.2153614775065242
42.472199113354854 -164.37695551501736 -3.2328622865005983
42.58787363235556 -164.2227806542295 -3.230457988631186
42.407786906627294 -164.43523410821646 -3.2359100265870167
42.43041968708641 -164.3775444755575 -3.237535592359861
42.478205378967914 -164.26067275573428 -3.2404740754902663
42.48656719227352 -164.2284584003518 -3.2418795744693236
40.30593006416001 -159.86675439680633 -3.156774153571836
40.37192578238427 -159.59796619320196 -3.156166513993595
40.405314941296346 -159.59184982257085 -3.147019165600043
40.273127461780795 -159.80999944680406 -3.170158825793396
40.26824825292999 -159.7182594497237 -3.1779766438958275
40.3050272156135 -159.63208597774212 -3.1731401078181642
36.99561973145974 -164.96122444377463 -3.16174070432443
36.90047736074037 -165.05070211275083 -3.148865674912522
36.84862393403925 -164.96299906473453 -3.1665688141480706
36.77120049976019 -164.73009541869652 -3.2114979037760887
36.752113480545496 -164.64925229420132 -3.2267660979689223
36.692620689601014 -164.7649263654514 -3.20746861168481
36.712942215772244 -164.73627620673085 -3.212019383706552
36.62007085935136 -163.95703038012596 -3.1597005941129352
36.543895546683125 -163.86422823605005 -3.182038474638645
36.16569008024608 -164.9487884701433 -3.183821775473802
36.188959372488576 -164.92194987293632 -3.1883488865288316
36.21435477134235 -164.82619840587282 -3.205684090638978
36.44032328612573 -163.9189666402358 -3.172387257430704
36.49385915408595 -163.73857683241386 -3.2107171385248563
36.49258186965154 -163.67512629366988 -3.2247613318887955
36.143665750022286 -164.94016279054694 -3.18549064296999
36.12219297448867 -164.91966559909454 -3.1895682130260203
36.35764801297567 -163.90691742580898 -3.176490007879473
35.8424438398358 -163.73320600455898 -3.216854826504794
35.871877363239555 -163.71257984094638 -3.2214954693372446
35.690376414583596 -164.05222662443123 -3.1459043506193467
35.6786264657239 -163.99558298615972 -3.157931023985892
35.81984313030194 -163.7721002921279 -3.2080882920578926
35.57645692723496 -163.9765547338174 -3.1604974485927233
35.63638439846745 -163.95691505852568 -3.165754930346785
29.089875028300778 -188.73528845939632 -3.1781404480440365
29.100923718142678 -188.23610485653472 -3.198563835330541
28.84727566863497 -188.37894250898512 -3.1934937410122135
28.747083913536677 -188.34519726669402 -3.1943048220491472
28.528193019992024 -188.7593161765514 -3.1791278768398565
28.412183868148166 -188.77024719658286 -3.1781507446387476
28.43293978030998 -188.2712111089051 -3.198427919140091
28.330959256087336 -188.23546692661156 -3.199242044759763
28.207693040819493 -188.27847697365561 -3.1984045840488777
32.832337178270315 -168.50846041706276 -3.2212939749401555
32.601499525048304 -168.92412955905533 -3.171861980103128
32.795538178747535 -168.50162618318066 -3.2212693507142443
32.27122425000287 -168.6110250206423 -3.1943544523468352
32.254335626529134 -168.55246176887408 -3.199482403111488
32.134087184763516 -168.59379613344845 -3.19142235697091
32.11411220394316 -168.49557254525305 -3.200527971399318
32.178217106805356 -168.1613484484317 -3.2364269036752296
32.030779413874804 -168.49731074095052 -3.1977096141966657
31.895964305992557 -168.5191131667099 -3.1906965431239662
31.910622900340595 -168.39474926835777 -3.2033788089107675
31.77575143526045 -168.50573103058196 -3.187287208147978
31.84550178964166 -168.44593108505018 -3.196136689208193
32.38751147634521 -166.08120305847066 -3.1469945941281856
31.711464343130277 -168.5526243304737 -3.1804736847978354
31.734615861046226 -168.36896628467665 -3.1994197134205278
32.35942194675454 -165.97509881411207 -3.158677103825579
32.351780981143705 -165.86589883010456 -3.1722489261159588
32.35915061168056 -165.85305351298516 -3.1741233782917826
33.11775119815938 -162.6853273571349 -3.229456942225184
31.682103050957352 -168.303074104628 -3.203874768730941
32.25426198154086 -165.8909489159901 -3.162795626293717
32.25384663722332 -165.80534787529197 -3.1733930346329116
32.999373315146826 -162.7433685947999 -3.204122032996432
33.045802188399655 -162.69609972134356 -3.21814426527214
31.57412458535887 -168.3943661014913 -3.1904453776179205
32.97607727158939 -162.74213090820905 -3.201407035864972
32.96754583474964 -162.4945440075256 -3.2407481915459764
32.047147094456825 -165.83847257411242 -3.1557024583357753
32.10756484900203 -165.5951397758058 -3.189724441408033
32.156931877156545 -165.56949124368825 -3.1964866820174445
33.09830517798457 -161.64473170590185 -3.224040454581873
33.125837822684325 -161.59738898578325 -3.236976028060027
32.489533808735935 -163.62985395345413 -3.2218197441295686
32.92669267606662 -161.39899410768305 -3.2322059556340283
31.88118557949639 -165.2624099209333 -3.2139560284395077
32.32001180934002 -163.49398841519482 -3.2224754441848384
32.52244774808723 -162.6454471119742 -3.154098193179491
32.62392453988349 -162.42830629616822 -3.202350110267253
32.624471659862245 -162.37406095113747 -3.2107908628958306
32.658461227699526 -162.26148387956627 -3.2327619878374816
31.741279445610804 -165.5214593174478 -3.1724178321912486
31.774682978982288 -165.3433796818545 -3.196206759218449
32.19152007593248 -163.47971151426745 -3.2101525392935235
32.547942267738385 -162.26614106740826 -3.2155533873499125
31.721583833782695 -165.2925723966961 -3.1982879693413446
32.1670155449818 -163.45615617869674 -3.2106677397799555
31.854550411441473 -163.160085724633 -3.212426064717572
31.898191841357225 -163.14778248953752 -3.2194773795598914
31.914077740808906 -163.00536345650693 -3.2393394614405997
31.78280488819575 -163.04320873884467 -3.2181265123309037
31.87753914826998 -162.9963944574409 -3.235831685880801
35.18020283158711 -145.70956553314525 -3.193873337671146
30.06544011210179 -163.56542032715632 -3.220335807049509
30.045391986526965 -163.49009392270858 -3.224509723979546
30.075255992749454 -163.4137873595248 -3.2344208641127197
29.899232132793784 -163.64093054385998 -3.19561509330444
29.923936982081365 -163.16090928453863 -3.2380930255340012
29.8719352538587 -163.12960997748127 -3.234729077194108
29.772383349977417 -163.1310401369808 -3.22297034469553
23.389789063138693 -188.59785666345002 -3.1714153642590497
23.267780865900765 -188.59056909708755 -3.1700056778040286
23.10485823231511 -188.67625453009808 -3.1665643722421892
22.16202845458909 -189.06290211156036 -3.145360826765229
31.39867987815503 -149.85830982082496 -3.1739906044839223
31.423483119073772 -149.7595787524025 -3.1642693913611164
31.475272967901113 -149.59767204399944 -3.1487064770875097
31.352954314973736 -149.7081964359807 -3.155576925942679
31.221694922946792 -149.6600586655044 -3.144354776308215
31.129953980062055 -145.82856047144324 -3.192091923958473
31.00381700836293 -145.78409861943874 -3.18624487143615
31.038848018930565 -145.73915836283 -3.1829324191621557
30.872487045078213 -145.60389427011233 -3.168738523128285
24.267687452503097 -170.77607556988494 -3.1566558366434117
24.178341326479824 -170.73776078872942 -3.154506872993897
29.632240210175524 -146.4066713446963 -3.207360829732334
29.53210311654061 -146.38053077463542 -3.2026765091690272
29.459641633861814 -146.40325259805329 -3.2025679112100125
23.575202904707645 -169.5943007978413 -3.1783307576294932
23.15666749453252 -169.8725715718296 -3.1441805267047673
23.175902427315748 -169.7750978269991 -3.149180839532627
23.188080773592638 -169.68760719731065 -3.154156520526465
23.20066299590208 -169.6001523618287 -3.1583006159405835
23.049589141029134 -169.64961323850042 -3.1484675454757327
22.75154086304317 -167.62646549929354 -3.214176751285623
22.775912402195292 -167.43308368258002 -3.2225793914288143
22.686571454066485 -167.5626398980718 -3.212933538080722
22.744962397808287 -167.38547868477323 -3.2228591366197867
22.78449750941513 -167.22544849515245 -3.2309673120792555
22.01819100255419 -168.29716661842775 -3.1463944417381997
22.060357859749463 -168.19551351816605 -3.152271734746014
21.47792387354781 -167.2668706727741 -3.15025723594203
21.642346979924955 -166.896219826456 -3.1724394480451394
21.47756434531837 -166.9208282621716 -3.1618500897420105
21.709386876786574 -166.02974235036402 -3.203253676200163
21.362989480578825 -166.91605119289693 -3.154505424448761
21.47009560590447 -166.78831793487552 -3.1655640811278083
21.404656894245253 -166.75609130984003 -3.162110594236681
21.465380092230383 -166.58766319405626 -3.1710906533082057
28.835822320511436 -136.72100416477957 -3.1935019918697805
28.89717964324162 -136.6512375059077 -3.1899837939039095
21.56877458376877 -165.936845830605 -3.1971623453669977
28.726756058675996 -136.77603507498225 -3.1965637527104898
21.198984042708176 -166.79987422777276 -3.1483115116147578
28.60381128535358 -136.79209071122526 -3.197519657920952
21.449077460243267 -165.4181297063184 -3.203149763670412
21.488712949399524 -165.3369587536487 -3.208179755189377
28.502606303929248 -136.75002490748534 -3.19504635492408
21.28019909527793 -165.85109703677708 -3.1808871279258915
21.430558277406107 -165.30027477729578 -3.204971569216686
28.292765192887774 -136.89320414408587 -3.202660578529059
20.924422670230484 -166.32550203006937 -3.1446908948528156
21.475328576670112 -164.2990651876641 -3.2313318279429315
15.992945688845065 -186.00535406823337 -3.163719466708044
15.847712676923962 -185.8017716302844 -3.167128280020793
20.47810808544448 -161.14209326567698 -3.204864480111911
20.248802085548196 -159.51911318369707 -3.1907745906790392
19.981885644599974 -158.96012744433787 -3.1695115549912236
7.369189352146222 -153.11183678800717 -3.2263336962821363
7.519735754863564 -152.19347040217042 -3.219663707823835
7.626325515132397 -151.89426137538192 -3.219141052186954
7.14945865346375 -152.75264342182845 -3.213833817006093
7.030902709505124 -152.6222445017335 -3.2077467768507333
7.092761881124574 -152.31418952167016 -3.20591334070693
6.781275989366804 -153.22601878160697 -3.2062994936564326
6.949883061964183 -152.3912569490365 -3.201720435649855
6.8364174965639215 -152.47552077106477 -3.198818655779652
6.556533471026988 -152.743550249367 -3.19209729738845
6.64016451252359 -152.1090458547352 -3.186642236223106
5.72530663120499 -153.14801940622607 -3.1668896010676413
6.605384106033345 -149.76128310951148 -3.1484919389299266
6.587300218348297 -149.63990528687998 -3.1456438852737074
5.375753356769337 -153.198196292567 -3.15463226214898
5.273983511937043 -152.60742222865184 -3.1437893992318764
51.389121860751445 -172.79084389777645 -3.058874624840765
52.42468751158943 -168.69303867026323 -3.0728107015845656
52.4761545792511 -167.7308492523313 -3.0843260853469747
52.183935215115994 -168.61827022450274 -3.0909000887083593
52.34215117603577 -168.17673432171748 -3.086874826580675
52.35183404942764 -168.03211876210696 -3.0884357467575168
52.39073311664063 -167.87122529477452 -3.0882007602995234
52.432777296740056 -167.78248471106176 -3.086508491785848
52.07482025082143 -168.62591865146194 -3.09821917422066
52.15942712929823 -168.44771698174787 -3.0954163237408587
51.09218300588492 -172.21743206383798 -3.0915461455796907
51.3453401103266 -171.06257892166494 -3.1007987655252776
51.37363462916476 -170.99742245129733 -3.100482651626977
52.14809862623942 -168.13527380901624 -3.1012259461748
51.25446403628233 -171.20618234970001 -3.1037455951894426
51.301567347417645 -171.1149418958729 -3.102704580244869
52.050662453516516 -167.92573294622122 -3.111333822265671
51.14681408831207 -171.24774797868398 -3.1098129196158304
51.87391856305463 -168.12079586344208 -3.1206075746170643
51.93006627157873 -168.07884251600555 -3.117244236825071
51.901376363619306 -167.6923329166602 -3.1253958070972887
50.78533158000687 -171.83766999597924 -3.1199445891979893
50.18052664118285 -173.39124351437465 -3.1200007459673165
52.69131283774234 -155.106552686992 -3.1020862011719803
53.09233729518029 -153.78349641165525 -3.0524524328238534
52.810346195853576 -153.67914213630857 -3.070930953303902
52.285164019871836 -154.78367429015907 -3.127194178488038
52.30545055327462 -154.6641198882069 -3.123933454036182
52.51220689739321 -153.70568913701842 -3.09340228956011
52.52726396846442 -153.57770875302606 -3.090022099884231
52.66660725884583 -153.03251038523462 -3.069743562555089
52.11140796899472 -153.94581520316737 -3.1267941996592175
52.41107642363028 -152.2942936729285 -3.0726847621179383
52.2514686695389 -152.29185526265056 -3.084323530368925
52.130771920907016 -152.27452487771234 -3.092254328302191
44.39423715719273 -182.9673067019059 -3.116410507816383
51.78697032987438 -153.0902205659643 -3.13432830998277
44.244138347467846 -182.78949177529503 -3.1297337867172548
44.13511877488389 -182.740726345338 -3.1359487751501027
44.03436514448138 -182.71638058805127 -3.1414918324487084
51.55086749735451 -152.26311971328911 -3.1332937865098742
43.94370630896082 -182.71565023489478 -3.145136865627016
43.6761625275234 -183.0546113581067 -3.1441320918036633
43.73891648756372 -182.93774835497075 -3.146079026191378
43.79268922165163 -182.812711608498 -3.1480696710546887
51.8801443295346 -149.70108036708038 -3.044517514210204
51.81803765464761 -149.6651183409281 -3.0480202770759375
51.817866548385865 -149.59329079808347 -3.045656103942732
51.81397009258147 -149.52338917740695 -3.04420117525419
46.1792602720499 -165.80430827178736 -3.124247961167619
46.1833995280915 -165.7279802616601 -3.126858481819871
44.519329686814466 -168.63737082357352 -3.1350711147796853
44.45894783992745 -168.6693997815042 -3.1382635266625227
44.372886644643565 -168.67057279450984 -3.145217474536725
41.83585690364495 -172.97057978302715 -3.04974567980949
41.671357530725444 -173.14244235116777 -3.0474595637137556
41.719756485573164 -173.04284531591966 -3.0514278807852477
41.784069459780994 -172.98585420880758 -3.0515313184455684
43.62999264630561 -164.86208453169644 -3.063466553179462
43.49085540654055 -164.9182669407721 -3.076007476347316
43.55008097354792 -164.88127735255586 -3.071600745217615
42.887791044924604 -165.4625191334001 -3.1048596575380634
42.999484289453434 -161.7154338165483 -3.059696930886427
42.98211980688693 -161.6786228036155 -3.064773789627544
42.80375041788515 -161.81475406926953 -3.086639223395245
42.877124569686195 -161.69734564287742 -3.0813295965817495
42.86311777386413 -161.59369524025985 -3.0896175002538513
42.74881279628302 -161.81404399528617 -3.0957833218577324
42.808784029915074 -161.71849815344189 -3.0915481720067044
43.1986850150931 -159.9156861609615 -3.097482191344543
43.207361538865754 -159.81890751027206 -3.097947943617309
43.2566655316006 -159.77923444616226 -3.0898243316958087
43.17133712086598 -159.86129202920367 -3.1035999828699383
42.46071168935849 -152.01694097328308 -3.1018383115536254
42.366102837342524 -152.00637043625755 -3.1108246699375934
40.37203439956529 -159.90508874098143 -3.1353304774112316
40.436762677951826 -159.5850185780186 -3.138412738487218
42.32457374590756 -151.9599819562462 -3.110687931254499
42.329147689805026 -151.8831657393832 -3.102975908016726
42.321669611127746 -151.81975914539973 -3.097763750317785
37.13025948420041 -170.04798722142826 -3.0537283579232506
37.0769129950265 -169.83635141709138 -3.07844845604293
37.02968903518869 -169.7177606527908 -3.0930529000480096
36.98701411156068 -169.66446348145664 -3.0998458037302297
36.906818854699345 -169.61220308411507 -3.1077292682392796
36.7922652545628 -169.59594034627327 -3.11208184561358
36.67802781047174 -169.62360674853818 -3.111386942266081
36.71675111387716 -169.60257824717047 -3.1131232160904196
36.54040408731314 -169.71998351441997 -3.103512386039686
36.617825644145036 -169.6499591392913 -3.109798461063225
36.44396280413188 -169.87012067132187 -3.0884460126154094
36.48223544034658 -169.76843263378987 -3.0993118796859145
36.963092628529395 -165.10846466974758 -3.1361816245035667
36.61105352063993 -164.4882473362814 -3.0435256614906763
36.12382899607709 -164.28455242710822 -3.0963603752151805
36.29299956141312 -163.59854205816544 -3.0581538316603867
36.067870895008184 -164.22073142836476 -3.1106834423392415
35.96896306300916 -164.21725807118196 -3.1116134712056533
35.88230883044716 -164.28657616809278 -3.096291514735272
35.90706117283428 -164.2357105244835 -3.1075911153777676
35.72359589273604 -164.1015400349369 -3.135583419099576
28.299501015532066 -191.0066828901214 -3.0903235311665287
37.39136458579414 -149.19145820161492 -3.136717082941069
37.302152760093264 -149.08285477638398 -3.1257785060108176
37.2652983017628 -149.12121571472653 -3.1319464506258132
36.37830981064769 -150.48763760549693 -3.040416407934483
26.159251105018605 -191.22778552403366 -3.083706916479554
32.30785720055844 -166.3246778335273 -3.1109780360591097
36.54558167455401 -148.41013728764284 -3.0610062330406764
36.45688093534603 -148.47383115001713 -3.070888254557648
36.34975263875138 -148.44792954118142 -3.0697440693533444
37.208302613164356 -144.9308433840039 -3.085412263870852
31.915911765214013 -166.20714906680539 -3.1013023126981807
36.29488122358477 -148.39576602683798 -3.0640901719535467
36.78894669060953 -145.35574104751987 -3.134443604677145
32.40369259244172 -162.72693145391895 -3.1243485285107178
36.7220112850765 -145.31707895463805 -3.132315983609721
36.67641697550354 -145.28812303444758 -3.1308596570321043
30.662138989650078 -168.52702853419152 -3.1378582913471202
36.25017936889137 -144.78419239350282 -3.09319168970263
36.19979721478298 -144.6114844470386 -3.0785221212010776
33.64253937498582 -152.62143040433006 -3.105611522272059
33.690375240947844 -152.55961968754693 -3.0975308857862407
33.720040261496756 -152.45928424674162 -3.08122075332593
33.711034801480565 -152.35178725368223 -3.061125881426955
33.54893897370838 -152.69036759213915 -3.1117110522137357
33.60358340712963 -152.64618090949602 -3.107494154012333
33.4528674570984 -152.70330337914862 -3.1073463792187974
33.355484467902585 -152.68863243161096 -3.097793729483504
33.25950282722161 -152.63390109905856 -3.081130510243221
31.43051550845346 -159.49241645933384 -3.0822110914732415
33.189356925832826 -152.58000492940397 -3.066437106151895
31.405723146310166 -159.41522857998254 -3.079030545139588
22.32175519384311 -189.56526751560293 -3.1277766617912173
31.398694774408206 -149.34637870628018 -3.117645335071168
31.299276136038625 -149.42835541982214 -3.122410656083691
31.03240560391189 -149.6636805514864 -3.1359080796215943
31.285011254655537 -145.01938228276578 -3.1255903628408817
24.593683219139134 -171.71956870501802 -3.1230260610086567
24.504467121552455 -171.9126816232662 -3.108300154999892
24.499575655322055 -171.73148873138666 -3.1177500909894187
30.930840209511047 -145.21659193451407 -3.1371205094199768
24.38347837510012 -171.67450296474428 -3.115525375692777
30.946667485134192 -144.85339477717122 -3.1067603574495157
30.869759801629627 -144.93368115118884 -3.1123821232819564
30.88436311633089 -144.8332740603208 -3.1039738602502487
23.90924296327139 -172.00258645684005 -3.0766930175388243
23.912604500111243 -171.35598498125913 -3.1106540525015065
23.853920148671794 -171.32643137911285 -3.1089328663285567
26.91845027641653 -152.7351723357629 -3.1133071936614534
26.83963155040832 -152.77660844239665 -3.1089815452604044
26.88143488496587 -152.75747929471595 -3.1114991866327877
28.89661705598087 -144.64377189092482 -3.0477586083471637
26.749985534072835 -152.79259994206586 -3.101964289202296
28.404556028850934 -144.67607788118227 -3.0373681943197735
24.793207121300917 -157.57285728449662 -3.0947516694551256
21.607702499261876 -170.07897406055415 -3.0513468765785587
24.759120327634903 -157.5289896909599 -3.090468899482255
24.792390736286208 -157.44947771013102 -3.092901725118373
24.491652615344265 -158.2995322655729 -3.070882495220995
24.479852928648747 -158.00700484233985 -3.066314281711489
24.545619266797207 -157.82288670074487 -3.071180301965752
24.623974726719688 -157.72430072389452 -3.078462340954353
24.298141360388616 -158.4860600966459 -3.0516027318539027
24.437497848711825 -157.9003133361387 -3.060527145713114
24.477306574989143 -157.6303592057731 -3.061655549318932
24.28520917402968 -158.0407950085154 -3.0460292664331696
24.214284057888193 -158.12323466520672 -3.039352631299863
24.307261373818015 -157.44710763026214 -3.0410044038957205
27.250808920049277 -145.17507726219284 -3.039471927945635
26.844330736056286 -145.48676182574977 -3.047764348447549
29.07551176659537 -134.4487714974836 -3.071746491791287
28.944132970644837 -134.61873174412986 -3.08121074914851
20.692918757362598 -166.9330148551636 -3.1125600628705294
20.69018136418706 -166.86393991149964 -3.114069581487378
20.58115137601218 -166.78061228082615 -3.1096881807393126
28.430082537067932 -134.75325856653922 -3.089223393155735
27.740355301877575 -135.16353982767058 -3.110825427153194
19.53780949915454 -166.87540777054926 -3.040677699446251
19.492696851579698 -166.82440356531959 -3.0396311528924596
21.288187716241065 -136.4754473793365 -3.1245981019760745
21.20348222620848 -136.51418043008658 -3.1250823340988743
52.0817246770846 -171.49394742569328 -3.0430029749610554
52.117608531621386 -171.43137117286352 -3.0421153016556364
55.04549488462607 -159.73274628831982 -2.960562619756839
55.00561939560165 -159.66508486219084 -2.963256390986011
54.747583379832356 -158.8811417888918 -2.98006564504435
48.62004897268454 -179.29774862420203 -3.0373301586840267
48.53320971256949 -179.31652153885798 -3.04162288393605
54.66247829735161 -154.35121462829588 -2.945808635141166
54.56009534305437 -153.90661708494497 -2.9470051271955735
54.30231457803863 -154.10723487807527 -2.9690335418887774
54.34718491135047 -153.69438699695195 -2.9592363985226204
54.31166781604071 -153.640208876582 -2.9606465238174007
54.36131893852959 -153.55801409250924 -2.955974506766382
54.06324117814598 -153.43635439287723 -2.97535323720795
53.40254838949993 -154.07563445553893 -3.034552713742924
53.4060024200417 -154.01116868767915 -3.0329654231365026
53.400538335662816 -153.3707722515053 -3.0224991672503396
51.97689330084787 -149.71765570375254 -3.0387047801964346
41.13021494601067 -188.57956895493314 -3.0083559333004595
41.00828782083874 -188.4874632195776 -3.0149097476598437
44.65117799227306 -164.1576343809532 -2.9821064315370833
44.54817775882121 -164.15052492397575 -2.9955601890868246
44.43566483700835 -164.3459890832215 -2.9982901516952563
44.43609136412237 -164.2609336827919 -3.00324979548929
44.46189874003386 -164.17628776672964 -3.0049851721775616
41.94019603841697 -173.01162141407718 -3.0407506729252045
35.908878478064416 -192.10088556414274 -2.9757518484766
35.79603752594868 -191.86130417211362 -2.988124960671029
42.35234935041319 -164.33533080420946 -2.952328829878769
42.38942081718469 -164.19012592795346 -2.961129677425845
35.43935058469202 -191.89521195225518 -2.9917353583556086
42.522399614592466 -160.8560154234627 -2.947741201209647
42.44747255266626 -160.7307208456085 -2.9704411995277997
42.3565835503755 -160.85330684827392 -2.98221879512069
42.39823219447284 -160.66653821540237 -2.984214839906749
37.342919187053475 -170.18349839925622 -3.032677504966837
37.199961294376344 -170.18659994216281 -3.0363643488992107
36.3217030996994 -170.97341146492784 -2.9676997873417843
36.40696575168991 -170.90786796913258 -2.9735616193368095
36.278976353373956 -170.89962308125845 -2.976388321169869
36.36601713077411 -170.64554081452476 -3.0032875748244776
36.777292421972135 -164.64846972041457 -3.003504252633433
36.68078969612792 -164.66297250679847 -3.003412273372221
36.722308222716975 -164.63265295736815 -3.0087123147746255
36.59379414369955 -164.56515060013308 -3.027239801742597
36.58897751554567 -163.7776040396105 -3.006187509351195
36.27882195475565 -164.58618651664577 -3.0287150260350497
36.443115803816255 -163.863100415086 -2.9879249589125276
36.524649070359295 -163.70726913955815 -3.0259867908904328
36.16763491845979 -164.7105421878352 -3.002845912787624
36.152258211494015 -164.56141283379546 -3.0355193721615232
36.34308059399346 -163.8548299583372 -2.991914988755113
36.3857482456817 -163.81349360508662 -3.0017412426331487
36.3974049117667 -163.76377299414403 -3.0142143149011353
36.23935598182753 -163.9007608016752 -2.9814398556337007
36.30105093580768 -163.78721636431607 -3.0097867957882385
35.794461222562916 -164.89874754144745 -2.9624053731220092
35.920359957174426 -164.01268698651882 -2.9535759932326933
35.918001183916424 -163.82769639663405 -3.00062166052136
35.81183690099561 -163.96365023026573 -2.965122118250677
35.8333245756955 -163.87941315727247 -2.986710040659826
35.890430683229525 -163.83205994502407 -2.9993523483677818
35.74036926343842 -163.87809228094292 -2.9858568698890737
35.39402394786084 -164.74256160953794 -2.9912805688786723
35.68250160815766 -163.9232459222178 -2.973337903171619
35.310314936150654 -164.90716013888473 -2.954005710974325
35.358064851718765 -164.75853605237958 -2.9869996587520786
32.75550934855919 -167.7731151066186 -2.9431180947715347
32.67518269484345 -167.604329453299 -2.9623023104558257
36.687249251869694 -150.5243562074037 -3.039488849405536
36.58355703722969 -150.05926483491893 -2.9664888310688022
36.349446046541246 -150.47192626216528 -3.0385325307006967
37.96781795011886 -143.60488150186652 -2.943711814467094
37.86928149694368 -143.53082336811093 -2.939848094822317
37.817521317358185 -143.51788526351535 -2.939934520845938
35.43585832625619 -149.96261631788076 -2.9651803265442593
35.459572301439536 -149.9024365567995 -2.955298514884521
35.32558462847052 -150.04137858676845 -2.977868907445288
35.395443594774946 -150.00403510662193 -2.9718590346881144
35.23698583034935 -150.05895489370457 -2.9806083545563036
35.14328767750777 -150.04564803123662 -2.9781294278160964
35.05355953569589 -149.9610033305074 -2.9641284238889583
34.98639327294724 -149.83864303931864 -2.944157983148801
31.14914236792974 -159.41282945580562 -3.0154076233219644
30.12298199880631 -163.3023821918119 -2.966946138007633
30.103302347539998 -163.2326947770987 -2.971378769599011
30.03930844954467 -163.19222829913522 -2.9665717163973095
31.035009547696532 -159.37407521632443 -2.9884278192080034
29.937252407445357 -163.16363465742464 -2.9548864153921333
29.89557227496958 -163.1252170868534 -2.9527426212195484
32.00595231361715 -150.52846900924587 -2.9487248102913735
32.038336734304146 -150.48725294451773 -2.944815313001688
25.304554260416502 -174.23972309307965 -3.0095458970076048
24.83690017990032 -174.08301680159755 -3.0014192402635986
32.14490097750186 -142.97638192352926 -2.9560002760909967
32.19267740801344 -142.9366531052293 -2.9525473283053554
24.356992507024252 -173.93007869762482 -2.99051858268153
31.958556440627106 -143.14447776643038 -2.9697559746441735
31.994973836525144 -143.0677948835524 -2.9630654639615304
32.04708815013291 -142.94137716847231 -2.9523180940685307
31.88959769072233 -143.1084922205202 -2.9659879178312085
24.071855234028792 -173.84377746246383 -2.9836532034894256
24.034865116137972 -173.78056840260595 -2.9861578895693315
23.859959341062968 -173.6174437023734 -2.987688053189217
31.399769927934067 -143.06499729568634 -2.9583488291216566
31.454643569572664 -143.04527507834476 -2.9572917506685537
