ply
format ascii 1.0
element vertex 830
property float x
property float y
property float z
end_header
2.520395588968009 -140.1378685316057 -7.6825149204441
2.5833044606919024 -140.02862561251047 -7.6082706273127325
2.5895850234314466 -139.93840074883323 -7.619491669916924
2.6221870115887125 -139.8577861298021 -7.631303431783184
2.6883582006354114 -139.66038608369644 -7.659649238279773
2.7278248416942725 -139.60794205307025 -7.668449026768017
2.8576745073708096 -138.97317933246939 -7.627210261029167
2.9226582651346815 -138.77813702037517 -7.649282618363817
2.9047139330701093 -138.67060295754717 -7.660231819282301
3.205701066513349 -137.18275096105356 -7.639282989371953
1.642198438506027 -143.68756784860798 -7.645478840471583
1.6299685565058095 -143.6497724106437 -7.6372992384240685
1.6652850777679442 -143.55355576757424 -7.687433763906925
1.7057451826360892 -143.31460269809253 -7.64026609792628
1.721295704397244 -143.25665897168963 -7.630197565488502
2.2207121101460405 -141.38396522765782 -7.618061480178943
2.281404235984732 -141.0782961498118 -7.645876637332985
2.2833343099114516 -140.99697649895626 -7.646011474860999
2.29724327191438 -140.89721780398799 -7.648502021931405
2.327111318230029 -140.7984155788779 -7.646278749245168
2.359302715977815 -140.5948733373809 -7.642185493764288
2.371113043077817 -140.50662587352954 -7.680108578452908
2.4243422002457384 -140.41549542871127 -7.6346140183887945
2.423002211488311 -140.34069915386215 -7.644822922876917
2.4442027033530405 -140.21790058669964 -7.664146944498267
2.439216546928165 -140.11557529962747 -7.678604365111638
2.5313818610838004 -140.03001201941967 -7.604787464672431
2.5490103767397954 -139.71349599792325 -7.645093150935923
2.607589086967197 -139.64739016471037 -7.656723069567374
2.6131851166898477 -139.5458485457248 -7.670049571747862
2.6668735711953317 -139.3827848167343 -7.694014164990489
2.761277973507294 -138.70804154114157 -7.653040934834495
2.7644876826578555 -138.6852028581374 -7.655574227860834
3.0427171428241424 -137.38446200732028 -7.623455775687027
3.8521399832844576 -133.93369217012022 -7.603280430248113
3.9147891992840718 -133.93653435169827 -7.601600595336346
1.5985826909805028 -143.513354513798 -7.659842232369139
1.5940672062434058 -143.45146508118967 -7.6582232024264645
1.6661746193300044 -143.23818660945614 -7.619955798800254
2.148987738213524 -140.94246945687868 -7.664581852134141
2.1717441868918947 -140.87329179629273 -7.6730940537356735
2.1985578657148417 -140.78141272385236 -7.631275643013953
2.2230582358734186 -140.7081964462666 -7.64565893615841
2.2148118551632865 -140.57227146716477 -7.666216976347452
2.2771946058945756 -140.50767680118022 -7.669058594980873
2.292199799837533 -140.38246665314915 -7.6492674036276265
2.310112778849642 -140.3062486680515 -7.639422280055458
2.368465342789207 -140.1820049688079 -7.662705369345838
2.372909354379707 -140.14517346422812 -7.668542281228142
2.529708979366184 -139.58693917204417 -7.66039822918712
2.5673451193893024 -139.3000178496961 -7.700263659836087
3.012194920254423 -137.48514151335584 -7.615373516973074
3.0217553209576824 -137.38748830171423 -7.623320192097076
3.053973012268216 -137.06687198832722 -7.649548563188469
3.0752505457253285 -136.9976613562807 -7.65514223409098
3.1783471205797618 -136.7529567780282 -7.674724539401537
3.771982952098128 -133.97169075890884 -7.603275161641797
1.5439008742038012 -143.28695171077612 -7.6172513509094255
1.5418454743728467 -143.23341153674622 -7.605401877436423
2.0546447940278503 -140.90779046297385 -7.654826467241618
2.084740659924714 -140.8618286546104 -7.662649863586776
2.119859820850755 -140.74859855121466 -7.682037675262162
2.146019725827509 -140.61979470829561 -7.65009495213279
2.192821937110817 -140.5639802965368 -7.66491566887728
2.184532614562454 -140.45501460463083 -7.682344048716462
2.2329627361281834 -140.42018657744183 -7.693798878510007
2.2068363172483734 -140.25151925187853 -7.638799217634837
2.259349426039468 -140.21184119210542 -7.649131320701855
2.2779435210692442 -139.93909110413145 -7.692916712621101
2.2759195337003866 -139.9192898979986 -7.695935430544901
2.4667616006589546 -139.34189278820395 -7.690189465099564
2.671436810182507 -138.4978950032066 -7.674435094165424
2.615225136022156 -138.44091109041517 -7.679979820111522
2.7113229782331274 -138.31835506467024 -7.6950284936464435
2.9080928162949027 -137.20640117252051 -7.638974782418288
2.975234170486239 -137.0113743767553 -7.654701811998593
3.70755756963079 -133.80223675264176 -7.613827575153726
2.0707036609960694 -140.6783739683438 -7.69934812149467
2.09028647216671 -140.5062505179409 -7.662928962078469
2.078745030749145 -140.46354947978767 -7.669220503734813
2.1039176539397224 -140.32793922096928 -7.67696561730653
2.109720011567716 -140.25371749631665 -7.6308633339104714
2.106553615310892 -140.18872474918956 -7.640827841821126
2.1326745879003095 -140.01581277861328 -7.670430897240043
2.2217037919871467 -139.94892117052902 -7.687365257402359
2.217264684134994 -139.88242996065296 -7.632285116537594
2.218189909724015 -139.69096877625105 -7.632080814653579
2.2950430938699284 -139.58956538781854 -7.64916504133629
2.3336896436688432 -139.43149913421436 -7.672436361422081
2.3219848348145082 -139.39608610164697 -7.676898807496417
2.52125890064754 -138.47335028146207 -7.675142422422129
2.5129029000238505 -138.42928009921783 -7.680044102461853
2.811880824101463 -137.19912519396354 -7.640358262616642
2.9670991012974737 -136.5336635953117 -7.694926251887169
3.014084589321964 -136.47308543180142 -7.699573157539307
3.6528412641684884 -133.7795526943042 -7.6164642607913295
3.6635087921639675 -133.65836803542356 -7.6225912663812085
3.6429809623569724 -133.53084978797753 -7.629910047139514
1.3029379948322437 -143.52000056890407 -7.653623315510128
1.3422479258150508 -143.40326627310282 -7.627822994597401
1.971545849544122 -140.61360599240217 -7.698403367034255
1.9749641012512142 -140.43591643028776 -7.663533671226669
2.1055363296691585 -140.10994825494654 -7.653342725017464
2.09035006527116 -140.00376474772258 -7.669617788007757
2.090301471094623 -139.93088376772175 -7.681690432417171
2.126033174277193 -139.85971891503334 -7.695740193603372
2.1866441168175177 -139.72262915692792 -7.6264542374516635
2.1950623193431076 -139.68234702359874 -7.632324267700204
2.2074996459845027 -139.5612857132392 -7.649559984449619
2.2121731130411755 -139.45559677901537 -7.6645399495069295
2.2349060751342753 -139.35327753080023 -7.679763712691066
2.2381145052429248 -139.2353735221309 -7.696614327783749
2.451663896092777 -138.26416230101864 -7.698367711186093
2.636420091721752 -137.6491044075615 -7.60418020027502
2.734903851142504 -137.29000524881633 -7.633428601202378
2.7858209742671773 -136.8286443822166 -7.671930759139696
3.469537127332499 -133.75940875725018 -7.62241054174457
3.579914160793531 -133.52439083388452 -7.63194261995067
3.5527321800956138 -133.40608878220357 -7.638995148727283
1.8356114175916376 -140.6635045757696 -7.6705460318415595
1.874492910622974 -140.5730091301101 -7.694546818268552
1.9046061818174351 -140.4605031199952 -7.652154664083908
1.917941990675038 -140.3971310224928 -7.665347682422671
1.9185138607099639 -140.31276999064184 -7.68154208152386
1.9053058400463396 -140.1148359624113 -7.6397567320725335
2.0032563805697805 -139.89960314789167 -7.681831782380905
2.008761214665635 -139.83464419920477 -7.693213192313765
2.1237012999464167 -139.40559840078663 -7.6687224687048925
2.115094961042657 -139.33335126411754 -7.678876611781344
2.269226730394146 -138.9477160216564 -7.618520430263478
2.2496560492134554 -138.7665019073465 -7.639012828453461
2.275024529422642 -138.68189328937027 -7.648952036537513
2.3586808526659997 -138.43601578494525 -7.677899535735038
2.6880288970009643 -136.81270371284165 -7.674469686694892
3.536946012401982 -133.24992242436133 -7.6477850453067715
3.5763020468978706 -133.23312495857627 -7.647618765760446
1.7870433737600808 -140.55846232227282 -7.687440366460737
1.9408416504738657 -139.8645155889999 -7.68450500781108
1.9196110476809398 -139.79812399709152 -7.695038273251643
2.029353149740092 -139.52173768578126 -7.649210873395274
2.0301768099570205 -139.36739736079628 -7.671626252747103
2.0181333027193946 -139.24804875706872 -7.688836355446841
2.12954425418126 -138.79585128643262 -7.634830364974491
2.201492077196126 -138.6926298998372 -7.647202474064598
2.171221025113309 -138.5053300517617 -7.668921082162617
2.5848324182241456 -136.98513379133303 -7.661066303168782
2.5773245303380454 -136.89853409361882 -7.668626469289461
2.5999554595723575 -136.77783862513817 -7.678690611742692
2.7041232271060727 -136.54272353020292 -7.697405379445373
3.484293567120881 -133.20410648730507 -7.651709336994386
0.9253959674554564 -143.72378796424331 -7.698639670861926
0.9086816521816261 -143.70428833126653 -7.630648818868696
1.8434928184055535 -139.76649284347212 -7.697228268308435
1.9820032044135514 -139.2773385833185 -7.683720033048234
3.1549673176895983 -133.8644321131456 -7.625563788125535
3.067043026864061 -133.90768353458128 -7.625806959795621
1.5115932413117479 -140.12521797402687 -7.693528176238157
1.5740561276161018 -139.84874509534734 -7.673238783444607
2.9431440115535823 -133.86715567716578 -7.631710913660559
1.350686359146863 -140.3471180259635 -7.670661558227324
1.447411488921341 -140.1051820011137 -7.658756175001807
1.476625938620963 -140.00055580122648 -7.642738748063165
1.5387788339271018 -139.7961093843075 -7.682207391419561
1.64325337541527 -139.25973700357403 -7.6818394594525685
1.6829447938239526 -139.17067097638574 -7.6957676964374215
1.7274935035777623 -139.05812183762333 -7.603758622754479
2.2052270310370736 -136.69904186312806 -7.692480837581924
2.7039844013800973 -134.49838412225162 -7.604672406317952
2.9008729888695672 -133.91378549507047 -7.630450276774252
1.3883683762775132 -139.96601636960412 -7.647632942564193
1.4459219552535203 -139.87279300017363 -7.66609639798536
1.430960901907377 -139.79739352859107 -7.638594419844289
1.4446330868748836 -139.61902823228596 -7.625617297351613
1.5438749217904784 -139.26179409729318 -7.6812979324993735
1.566621403600128 -139.16636509882645 -7.69615554835692
2.077177186898627 -136.81863655608913 -7.684689234368337
2.1731768298988507 -136.67460595824645 -7.695308779345806
2.707124219014716 -134.32180628661078 -7.614200013838027
2.7098507113506454 -134.19681051391458 -7.62092434777757
2.699191976137093 -134.12625422153036 -7.625119551953061
2.698507330527212 -134.00885306137084 -7.631545804578511
-4.4176177936165155 -164.6588747083964 -7.652590351522366
1.3013055717600666 -139.7042629050509 -7.61278504355968
1.3215302593941665 -139.67351239107225 -7.617493958607829
1.372615446347366 -139.52210925912468 -7.641025243882744
1.4348113451809694 -139.31340717761807 -7.673511037659802
1.4793690673996633 -139.17984226053727 -7.6942870450575445
1.4958352741252137 -138.9714425721896 -7.616616641830689
1.5506562369209442 -138.54557457365797 -7.668232982979346
1.5742628702894244 -138.49801161979588 -7.6737224442251755
2.058287206629175 -136.66197223827677 -7.699000343484515
2.5424366580460047 -134.47790057233706 -7.610847879384177
2.5179154886037107 -134.40752438543046 -7.61548869209712
-4.473883905357874 -164.55147004454437 -7.654607771722177
1.1966751886832343 -139.81197301115753 -7.6765614844751715
1.2109910320805075 -139.71637746515296 -7.695068155730034
1.2359687396875103 -139.61930389613505 -7.626920309377099
1.3037523003730676 -139.28718405766443 -7.678879707605058
1.3407954346690727 -139.1564325202654 -7.6991927480322
1.3425043949779396 -139.02737437795733 -7.612403363276248
1.4418889740438006 -138.76175491036403 -7.643423087006055
1.4225012864477122 -138.68480433533142 -7.653336699626878
1.8474540983272891 -136.92266295902257 -7.680948337178907
2.4740365602969296 -134.47943308070865 -7.61295013098456
2.467999995907368 -134.20483057678666 -7.628221647741918
-4.52272230437149 -164.40240476848436 -7.655514119324093
0.9677801194886295 -140.19372364869938 -7.670743141758203
1.113999329455742 -139.76602361378553 -7.686341324760381
1.103344695735132 -139.7325878717997 -7.693043231296551
1.2408511771075048 -139.31358541430586 -7.675595029580643
1.400730866504357 -138.67448961013352 -7.655062395815782
1.836205604498738 -136.7960765775412 -7.692554730468201
2.4035020281271136 -134.237973625935 -7.628526365808392
2.3627630542034552 -134.15911516775498 -7.6342244427327905
-4.622737660785776 -164.47519108123785 -7.66080407307655
0.9096621562578744 -140.21606690765628 -7.60196668902701
2.3034186745969523 -134.1757411306725 -7.635308154063027
2.2876346643009686 -134.0383587332492 -7.643421180676191
-4.743434819594041 -164.4612915315671 -7.66606615968826
0.10653253057852324 -143.41048897690055 -7.689534396514978
1.0018981440631105 -139.44176648382293 -7.660408585221261
0.9906642994539802 -139.41993771007418 -7.664276168966849
1.1693937891513007 -138.74052644432368 -7.6525471637594285
1.534416649706467 -137.17246993757092 -7.66727127612047
1.6111486956621142 -136.8669224695744 -7.692506944220479
2.0382008426861757 -134.6568447452029 -7.61784733919924
2.1761933510214053 -134.10306917114215 -7.643690620733139
2.245046172258264 -133.95718341229968 -7.649370667516639
-4.857536988816065 -164.42371571251618 -7.670869558547624
1.021759054650213 -138.72758273489194 -7.658853172256283
1.083006926486514 -138.44388410161181 -7.692592930860506
2.0443930496733866 -134.13931000286587 -7.646317162012288
2.092666997393786 -134.10479813903873 -7.6465205054685015
-4.9352617909617305 -164.41023532007006 -7.674554848277515
0.8179130972930772 -139.23405715295976 -7.6025173199121285
0.8857101532311455 -138.74957913056053 -7.661114403191667
1.9500694057681895 -134.27210209628933 -7.642331567879754
2.004704838585552 -134.03993721888818 -7.653253076874272
-5.0232939066468765 -164.42482485728078 -7.678442580143074
0.7316968322467056 -139.20000016239666 -7.610602900413435
0.78113378406063 -139.16810198297475 -7.612443000130332
0.8083295400328612 -138.70600630823532 -7.669823365105051
0.9338339948894006 -138.46358409438852 -7.695439096944392
1.0718356370673348 -137.8841138663925 -7.618346294949915
1.8100474287803514 -134.6107710735186 -7.6285855509209375
1.8905560410335027 -134.24092549015108 -7.646226112213588
-5.156361197960973 -164.45510253771803 -7.684866322894791
-0.37380232055680196 -143.73269470049792 -7.692691094386759
-0.3010660955758888 -143.18555849727178 -7.644192646262042
0.6376286718273068 -138.99022574934142 -7.641662719461357
0.676153853911027 -138.89753526928175 -7.651528035574618
0.7634970817940329 -138.65018413780447 -7.678845432052731
1.6999992090045413 -134.66045317981036 -7.62990031496839
1.8831106511361257 -133.91103749966584 -7.664863190168864
1.865571750476668 -133.83000955692174 -7.670018245535159
1.8513249915237255 -133.71931410538843 -7.676722350665847
-5.289584114059365 -164.49927410736825 -7.6913931917108345
-0.5709023025059206 -143.77406339318168 -7.649357208085287
-0.3483995109470369 -143.2329239129107 -7.617029275762571
0.48636040060548635 -139.35587774782118 -7.697821095838613
1.409613587209682 -135.25903485229205 -7.607581889345898
1.479328686539294 -134.79823799954312 -7.630636174028781
1.5687639322169444 -134.69114120078657 -7.633171553430729
1.6119219693130673 -134.5291365756017 -7.640563095006812
1.7138011907009796 -134.12678325484762 -7.659153392815905
1.7556785145441038 -134.01721065304267 -7.663695738081709
1.7386850029253802 -133.6832148000355 -7.6829794624244165
-5.391189081211959 -164.56703253232962 -7.696289876588385
-0.5805414074534152 -143.77415259139894 -7.650719126251922
-0.555717202081933 -143.52253313572592 -7.680166506505048
-0.5291342617003585 -143.46476422843267 -7.679724560239848
0.5043690393004743 -139.02477117216768 -7.6442660532208455
0.5109087998974682 -138.8431014643435 -7.666861485677697
0.5130655060593604 -138.7196661355111 -7.682359567168003
0.5656206701025053 -138.65235524431017 -7.688088908004083
0.5851768299077236 -138.579683211244 -7.696278112006469
1.431572174252977 -134.7756116523578 -7.633772018230861
1.5887141053220157 -134.26737243054134 -7.656081379084993
1.5771339497027532 -134.111533772546 -7.665247838314075
-0.6260095800178109 -143.46831749857242 -7.697404421971141
0.18424263623293702 -139.60783664275422 -7.679099292528707
0.42609080862159243 -138.6477761226386 -7.696248585888274
1.4255157052296816 -134.42215548964592 -7.653805259025779
-0.7870886600629228 -143.61146141805978 -7.663750785441631
-0.8025345206141772 -143.5177633643189 -7.656800159097294
-0.7048538373862445 -143.2023001336859 -7.68031355078584
0.188888999576039 -139.4730280404183 -7.700067979430607
0.32266494745691404 -138.70614887054413 -7.6950127040236
0.4710338384374666 -138.02696349671913 -7.631834780006735
1.2439213547620733 -134.5766144294985 -7.652448797145273
1.2863162895285012 -134.33524153264273 -7.664264285049385
1.3484611680840048 -134.20551714969238 -7.669025814426544
1.3670279923368596 -134.1469331619596 -7.671563499231576
-0.9039006013523492 -143.57494734503848 -7.637029008569028
-0.8841351380440559 -143.4686865889316 -7.665382350000616
-0.7792624853063006 -142.9440901564968 -7.6698325758069466
-0.7697292935550792 -142.9095174895948 -7.6647718720730875
1.1940542382275052 -134.54956087329887 -7.656011420757191
1.2450574823821667 -134.15647223568442 -7.675980694656703
-1.0017196938214392 -143.63020578027513 -7.699869605940044
-0.9867871166613125 -143.5656875820599 -7.691364903526038
-0.9769538308875321 -143.34767289550766 -7.670282269542314
-0.9169737928738171 -143.1815380003456 -7.64629154570449
-0.8426965715251009 -142.95750277979988 -7.647880409783135
-0.8098591041475645 -142.88164421340278 -7.618493522549996
-0.7660169456481942 -142.43134538349497 -7.691359135737083
-0.01616220949730862 -139.09543185245585 -7.669861576151588
0.07649167656112565 -138.8368353320658 -7.694913940007735
0.2133048129801136 -138.51749567098867 -7.6013158930433695
0.9465133268762003 -135.11478463111027 -7.634671606149947
1.107868631313758 -134.45916222018474 -7.664670458006156
-1.1828860187294707 -143.80456948551273 -7.650757254189592
-1.1085337834592945 -143.5182063682264 -7.62088749581177
-1.083730196004961 -143.44097609899927 -7.696555819703277
-1.0876652366422384 -143.33338856576935 -7.6883865270667355
-1.0201235022182555 -143.19223445617047 -7.665469484544771
-0.9723522742855053 -143.16937802692524 -7.655207245269925
-0.9151384888920462 -142.92763539470485 -7.639422411522695
-0.9551372841900836 -142.79093202939177 -7.696612646429207
-0.8967563664940572 -142.76046625231893 -7.631115519908141
-0.9262098618069394 -142.64001696888047 -7.637149046121793
-0.781779670471864 -142.41994666923702 -7.694524103881259
-0.785208666276779 -142.20161410319685 -7.628019239389321
-0.7764219399484513 -142.18937132621033 -7.62564039276196
-0.46328395455207994 -140.64723664653573 -7.613072216748365
-0.4184815607003948 -140.60220421066225 -7.650525275014914
-0.38896208252475284 -140.52857012193772 -7.6600190905956
-0.06679272484342957 -138.94699894242444 -7.691954427946599
0.006870415134004437 -138.88184496678574 -7.694397648444161
0.04974529944389783 -138.62066057426586 -7.601936352083601
0.06938203345749405 -138.47646731385058 -7.6136399571902285
1.0294842250132532 -134.47400149779733 -7.667139044266912
0.9958189919396306 -134.27509428566836 -7.679747386076707
-1.156074510662138 -143.49244385182294 -7.626037507695595
-1.1259398837460797 -143.3710869559043 -7.698122423668893
-1.154668260067171 -143.2698437693991 -7.674802205606632
-1.0738595009161271 -143.19229886806946 -7.675150473461977
-1.0579849764299842 -143.14217737692616 -7.668646934778483
-1.0205988426773065 -142.91418341214842 -7.6468961217538425
-0.9907804348898064 -142.82731244474917 -7.63633787286371
-0.9711993605770566 -142.72669237484178 -7.696133881422176
-0.9791470671937301 -142.63465322789457 -7.667181528434563
-0.9646051893075842 -142.55655414683744 -7.685589290614164
-0.9481205091804703 -142.40418764403637 -7.636680472983032
-0.895962992989418 -142.21403908886626 -7.654785068399949
-0.8725567329263342 -142.15452626710695 -7.647979596605381
-0.52047157576448 -140.63971059173684 -7.613307274099353
-0.5030728137048208 -140.608566459524 -7.682220817388177
-0.07197172371243143 -138.57294613087063 -7.614003272456588
0.94118658765259 -134.36555755428645 -7.677006706251271
0.9032737193958963 -134.26694261331906 -7.684192823780927
-1.2639191822373237 -143.62150343917017 -7.649644813745986
-1.255501381256638 -143.50900787598553 -7.641405331071928
-1.2355110687828732 -143.2804179591387 -7.625422835839483
-1.1928576349835291 -142.98615039858808 -7.604822377206336
-1.080862684483632 -142.6021778562433 -7.643859682606156
-1.0604918398710912 -142.4968603574463 -7.6353917799817275
-1.0116127613502672 -142.3921137149736 -7.654967322959821
-1.0109251501646224 -142.32782843090538 -7.619741775227719
-0.9896494743372848 -142.18103526743798 -7.6123702783564156
-0.9583753281031082 -142.1042967808051 -7.641578740892231
-0.9550182244785697 -142.02786590733024 -7.63529948430445
-0.8996824904224494 -141.95310649280182 -7.653509060336151
-0.6823413690354043 -140.70558667871734 -7.63144660881195
-0.6734818149355257 -140.66834021738936 -7.634152465176548
-0.45298635825215294 -139.98669378668401 -7.689358337285327
-0.24930644364733012 -138.8516970318204 -7.601613169023647
-0.23933004341358877 -138.82757239554826 -7.6029995259923115
-0.03551599330864741 -138.27665263038912 -7.638086962642829
-0.057034176853825946 -138.23654617168617 -7.6430357682004475
0.7313884107044268 -134.5433864768352 -7.676205908401341
0.7583713879269323 -134.36559221960846 -7.68500371479761
0.864192261499628 -134.2723376539418 -7.685591182343657
-1.41230628116711 -143.79041160490914 -7.681652467030888
-1.277846781176457 -143.2414059768123 -7.62978404066644
-1.3208015105632314 -143.0371026982786 -7.627059257139754
-1.2696380815365402 -142.84571621851327 -7.611796501850758
-1.187429772090523 -142.6345622159314 -7.666254913819284
-1.1355919736934181 -142.58368602773297 -7.653895026944749
-1.117945942995566 -142.45783560669602 -7.645184134904503
-1.0940187864439144 -142.37454831060802 -7.637752855320849
-1.1289314037557507 -142.3240854359924 -7.643400891265197
-1.1120032732663805 -142.2192410457153 -7.637800975862205
-1.067472187773999 -142.08497352998597 -7.655822775990843
-1.0236124821309043 -142.00865460213143 -7.6701944687828325
-1.0402415292823717 -141.90093512760774 -7.654631775982249
-1.0096134892733701 -141.78242103017377 -7.682821096088725
-1.0082124082003059 -141.71466011464545 -7.662787659391007
-0.7264691140829245 -140.7302777836295 -7.6360447399988285
-0.686770270511404 -140.623455263318 -7.641361078367231
-0.47687592282095226 -139.49349872181887 -7.663261094370929
-0.3144640818019636 -138.87026520648357 -7.604723298673717
-0.22149301739266947 -138.23734945040985 -7.653697027209641
-0.18416295017994144 -138.16413128010143 -7.657710599487286
0.7025928294407842 -134.30596032363914 -7.690846047055308
-1.3340707651179897 -143.03020279354692 -7.628872440868244
-1.2494757187612888 -142.4117129698285 -7.670020797837655
-1.214405198357579 -142.3470876063989 -7.661193790886401
-1.158282212674601 -142.23094972595126 -7.647378635776292
-1.1582588227638642 -142.207194525194 -7.64699497443432
-1.151121143366372 -142.0627414078948 -7.64426901974776
-1.156346790112343 -141.96144103184037 -7.64548560546523
-1.0598753632981746 -141.76338549024396 -7.695357812905522
-1.061330993545932 -141.71528910090285 -7.697151788256372
-1.0777201154598937 -141.54771314672422 -7.639132743759659
-0.8044588844872727 -140.69501051401474 -7.652781695781877
-0.2971364544546533 -138.11141147157693 -7.669939348958045
0.5552988971635423 -134.74209393665936 -7.673002794850267
-1.621200533835429 -143.69916684692822 -7.602040788430315
-1.5710178270687234 -143.40953528101147 -7.682880346973852
-1.4967912427056385 -143.1944017759074 -7.661317910535638
-1.4883161711420214 -143.0968518811334 -7.655897674869108
-1.4657786511597017 -143.02385148390272 -7.649500040768119
-1.2931172165603309 -142.41380353772496 -7.678856887635798
-1.33331208807532 -142.30089794295023 -7.6080699823365
-1.2515931360273251 -141.95403438320295 -7.664912784959963
-1.2293495598188107 -141.8438077914824 -7.661549234533161
-1.169287600909159 -141.67867041410022 -7.652981373043391
-1.0751097556784017 -141.46711262905458 -7.642176413088556
-0.3612049268771492 -138.2354132878972 -7.663443631359106
-0.2950076814441541 -138.01189449786725 -7.678588394641459
-0.2943116090006368 -137.89854980298128 -7.688579780585149
0.4345823153727103 -134.83056570899075 -7.673625534971012
-1.641374182811535 -143.16135412461227 -7.682665601748312
-1.5705052982940637 -143.11723167397807 -7.669702903141793
-1.4966371681571793 -142.83749662589483 -7.649629253440857
-1.3456057728210862 -142.0171255711921 -7.6389671137512245
-1.3217464184764642 -141.9024644181135 -7.679655947342146
-1.3343148836255767 -141.85837009030504 -7.682731490878799
-1.3147421253753295 -141.7374194455452 -7.620773562067127
-1.2859553896936247 -141.62816637273235 -7.678078309742111
-0.45846824890512616 -137.95930856413358 -7.6944753317551715
-1.8001948646978712 -143.3222074413188 -7.611601864383991
-1.701654678096132 -143.09125452503739 -7.689615105913677
-1.6343753310211666 -142.79724070869293 -7.670070282325752
-1.5972049550868272 -142.67680894938397 -7.660666981510069
-1.3967906719352023 -141.9891853453249 -7.694386490425148
-1.4349625018853136 -141.94349364622715 -7.662415314531064
-1.3735165373187974 -141.82666452410768 -7.691169381075489
-1.3939138313235575 -141.702164546508 -7.66407011729028
-1.3410934934899725 -141.59359217678158 -7.6903030294726245
-1.7997474192025045 -142.985545666125 -7.605202597297887
-1.5061409614469314 -141.7570529551804 -7.637541048283487
-1.4496283910271026 -141.7124267340704 -7.628872860218606
-1.4903303137014288 -141.53628903223998 -7.6398149884630735
-0.9519006515961037 -139.19476881634807 -7.630408278867396
-0.9085179166122441 -139.15762053467822 -7.629416665466828
-1.84323757149835 -143.00241535818682 -7.611086307634375
-1.5790650753988131 -141.44648923538077 -7.657161520131723
-1.5421524040241719 -141.28445707295222 -7.656943453949972
-1.2184757219708502 -140.03873461674908 -7.6936018603317065
-1.069339285356995 -139.37341288618998 -7.62763191487807
-1.0349036830755651 -139.3399005614171 -7.626913284302319
-0.9914861093480358 -139.19521188135403 -7.633998001219797
-1.6633530569313904 -141.62256205625036 -7.666390563864872
-1.582927344879277 -141.4369895232994 -7.6581124347770935
-1.5495850703954719 -140.94475788433783 -7.674365446161381
-1.1442902336170122 -139.3353338447367 -7.637703229622143
-1.8042397859555506 -140.87827743997534 -7.618798915902544
-1.7951176872986718 -140.80804844983862 -7.6204763722242905
-1.761859444681068 -140.68287990492382 -7.621753412623639
-1.755680504140855 -140.61364506017114 -7.624151313485525
-3.055641952772122 -146.10289588668127 -7.67503440823664
-1.9709692542861583 -140.93264922014853 -7.637700119365791
-1.8790749913875866 -140.90000976771887 -7.627327913616754
-1.8350088687698134 -140.75118816923657 -7.627782780511777
-1.8378174642983998 -140.70007456305504 -7.630306958596995
-2.002912301472292 -140.9466648619342 -7.641251410539119
-1.976653119936724 -140.8980490385621 -7.639667005329947
-1.069942027412473 -135.87553477350653 -7.695751122031597
-1.4247355799475938 -137.16980320342648 -7.649716550086772
-1.4725594905961235 -137.10834277123175 -7.6560715277238
-6.08520498590179 -156.70672685696985 -7.679771339899065
-2.4902781640952565 -141.07016051305482 -7.699666001138498
-3.2247381168439846 -143.61502271014186 -7.647069918953691
-2.112449165113058 -138.32252124059963 -7.643343110912796
0.015286010293078411 -127.0176343191773 -7.607725247947098
0.20036632641361224 -126.33524573126482 -7.613838745416217
0.24413048151461153 -126.07964355016613 -7.617290603668298
-0.17893501878234397 -127.2770525953508 -7.611052077778679
-0.08727200695971571 -127.08922024896475 -7.610863214017108
-0.0412059781078673 -126.97450858228069 -7.611200592196373
0.044834412187120254 -126.48973162458203 -7.617581770441676
-0.2285681989108176 -127.29433286428053 -7.612950164172616
-0.48356160148666283 -126.97675045881753 -7.631357090178942
-0.5608396654377452 -126.98736631145128 -7.634687985079413
-0.6178319064589681 -126.9262671727262 -7.638607426944567
-0.7915518062329325 -127.27090517451953 -7.639354724414584
-0.7077937481896779 -127.09351343715042 -7.6392236245761875
-0.662035954666977 -127.02276987689099 -7.638605882529909
-0.978755228834876 -127.8537899616393 -7.635763062229431
-0.8487894544591537 -127.22275725626274 -7.643028237685353
-0.7726782701564137 -126.97142842394454 -7.644809777605328
-4.8490158880475045 -144.082557587811 -7.600779714738011
-0.902694141303467 -127.21870528926644 -7.645619537771773
-4.86256104118422 -144.05468284340586 -7.601543562811976
-4.866794105038862 -144.02280920129272 -7.601735021539264
-0.982284694550605 -126.98834710374196 -7.654188505533391
-1.1120090904227902 -127.1834111127137 -7.656128764703159
-1.0501819998571802 -126.84137347257908 -7.660454711720977
-2.9893188015477987 -134.23921468988956 -7.603744364727253
-1.5356756942194936 -128.12825328813778 -7.656225213175325
-1.2830882542076019 -126.6895686375135 -7.674551492553111
-3.0624386012860825 -134.22602714313385 -7.607857783792445
-1.3562509574904975 -126.75810788608929 -7.6765449158758035
-1.4745208486776715 -126.8700387857753 -7.679758555818586
-1.4256471012428615 -126.84467994179906 -7.677989932053086
-1.6266497214325784 -127.09282004571561 -7.6822747272417615
-1.563765493190987 -126.98064659881427 -7.681652108021208
-1.7264443639304619 -127.27644464037513 -7.683158141119475
-2.033378255205445 -128.11207328373263 -7.68037446804864
-1.8064087340998525 -127.1096123074584 -7.690467038995145
-1.9309091450201297 -126.99760249541903 -7.698752290690757
-1.8843721019201116 -126.95480446680187 -7.697425510566322
-5.522602995772534 -140.7263959601342 -7.651072143564143
-3.7273921220117616 -132.06056245103935 -7.6848765446045935
-3.6869755256769112 -131.96686419144257 -7.684600852518244
-3.8137860593958637 -132.09944449568542 -7.688642820059334
-5.990441550547237 -141.37036378922048 -7.67572514839344
-3.9336427238628584 -132.36965122729558 -7.689712298401848
-3.9004457869039904 -132.18505160529506 -7.69153412530366
-14.543424372395569 -148.29677862428957 -7.61965018816833
-15.021967326885083 -148.9036354638091 -7.598495753508495
-15.048950652918416 -148.78587140823007 -7.601838501903153
-14.992349907028082 -148.5704498205874 -7.604572289211322
-14.95869055348009 -148.4949755538274 -7.605216781982021
-14.77918485568501 -147.61730769911676 -7.617907221934191
-15.072510127671029 -148.73063220396713 -7.603656760761868
-15.023191171487378 -148.55963497848046 -7.630426129291191
-15.162746946882246 -148.70197961157604 -7.607135394791339
-15.115053539823624 -148.4931686937908 -7.60999346063681
-15.157182942603894 -148.44257410409998 -7.612439593580124
-15.211120224978746 -148.28241355669508 -7.638767912931002
-15.296592550631827 -148.24262481901295 -7.62093078123486
-15.26714452687708 -148.1774425630767 -7.641491117640892
-15.201795746297982 -147.74709309835723 -7.644267894475607
-14.953797232786567 -146.88920047719597 -7.638163270984315
-15.382488035193656 -148.21446391362753 -7.624076430939034
-15.331811823950062 -148.10945506296244 -7.643999488098499
-15.349179072239533 -148.0085941120353 -7.627420108477501
-15.361636765523677 -147.99631643030514 -7.646046653566605
-15.293673847939976 -147.65633166060613 -7.647785546422929
-14.97824052616359 -146.53073402921373 -7.64793906064789
-15.495121253526248 -148.19418317106033 -7.628058278988932
-15.412319314175928 -147.91977028607758 -7.648330643135215
-15.357380912539877 -147.75205311417508 -7.640683014031237
-15.320990019425007 -147.6370781016724 -7.638876615586032
-15.328365974736096 -147.53659345288654 -7.6409854049234545
-15.30196411362732 -147.43671766449847 -7.646024691503654
-15.303345180012666 -147.3421893393847 -7.643490336370566
-15.287108121189831 -147.25980505975605 -7.646332481564488
-15.492464695118452 -147.9378074109831 -7.63329329529828
-15.338822089445285 -147.2377441580319 -7.653165940836471
-15.303248649208301 -146.9807241628723 -7.654676436349263
-15.715195831945755 -148.1923826098403 -7.654021098783543
-15.510279660389644 -147.25154333957863 -7.6477699465479185
-15.504631987607643 -147.19938139321326 -7.658211207769524
-15.445145025554067 -147.094844618336 -7.653214528493767
-15.421361871710369 -146.974326318903 -7.65063314621946
-15.42314248234967 -146.95848617414978 -7.6583230614642614
-15.578028630718508 -147.21038371646372 -7.650773960603488
-15.466043947243444 -146.88765613951745 -7.656914026203987
-15.463000529064162 -146.73279725033888 -7.659085252443174
-15.58436976995763 -146.8420944552097 -7.658357701792068
-15.547404012178484 -146.80973149108124 -7.663077442497605
-15.578686510705294 -146.653403589989 -7.661829831026037
-15.592752850997575 -146.63920695772725 -7.666009791710401
-15.69736657438685 -146.3649118555788 -7.671281372560564
-15.643022176906127 -146.04622324237104 -7.6726497776618725
-15.679376903430173 -146.11527424610017 -7.672962206545471
-15.652526725374644 -145.99085545024818 -7.673291970061428
-16.317374407037594 -148.43934248115283 -7.6481681297643505
-15.835008599699188 -145.9764244466735 -7.67852704917591
-15.88395429676474 -145.89584678864537 -7.680496571027037
-15.814682600055276 -145.729238523715 -7.680017602277526
-15.93223745309531 -145.81630456954764 -7.682431927341834
-15.946564077219117 -145.5194032841276 -7.6853210004644374
-16.005935285188393 -145.65208642604878 -7.68588729794376
-16.10835875800494 -145.73544275736063 -7.687924870868006
-16.07790229208003 -145.48741876493153 -7.689072135581052
-16.302619924865077 -145.34485043587858 -7.696203066839118
-15.966221636230875 -144.0937704592784 -7.694861803778163
-15.975487250972035 -144.03560830092664 -7.695399121522218
-16.313680400265728 -145.28824203830038 -7.696844956658173
-16.00391405156722 -143.80743035204935 -7.697420419502461
-17.909458394277216 -116.75790716506856 -7.642335302704566
-18.162862843481278 -116.22419861501285 -7.645492659481355
-18.4203933676255 -116.25557920686735 -7.654833800196736
-18.606141914587766 -116.5508154156225 -7.664454998469403
-18.55909348108747 -116.34086371025494 -7.660602853104586
-18.796785913697157 -116.84904662177526 -7.67376059022177
-18.881275434739727 -116.9200932112505 -7.677104199105285
-18.833677412533536 -116.43276240769869 -7.671085920634505
-19.0438716153237 -116.3472270018525 -7.6771751026589055
-19.545494196525365 -114.14323405956424 -7.6718632955619395
-19.457832265910422 -114.05975051127407 -7.667837353708863
8.55435777597576 -154.13089480272976 -7.586480711585705
8.467028551078592 -154.370588322289 -7.5958720590288875
8.44349795825671 -153.869343889031 -7.578556261364288
8.480307242295364 -153.79409687496872 -7.575640311879906
8.480020772457593 -153.66147757977146 -7.571181189335354
8.23611517557048 -153.8168110777513 -7.579364854919729
8.281608396435093 -153.79744121610082 -7.577967575538303
8.616102151479081 -152.39518319634323 -7.527517554285044
8.569346493934702 -151.61672875893575 -7.502970872815244
8.238727668338322 -151.96846874777103 -7.516793746856539
7.8426398878504076 -153.28249072888661 -7.565344560408589
1.124994838094147 -175.95824893853717 -7.504405551768494
1.0104314360132585 -176.09124183625207 -7.510420153175387
0.8913051009868381 -175.96791863182915 -7.513800614077338
6.441002376526108 -151.90510377141385 -7.534894377580881
0.7757241593833749 -175.94013118798898 -7.518634360073704
8.155341988610383 -143.44231958854948 -7.591522474915514
0.6577769012750969 -175.89797879462267 -7.522616790711999
8.069353265583116 -143.6374436863208 -7.590409791678715
8.09135990808995 -143.4569144839432 -7.588958431940008
0.5425661914319116 -175.87740211768198 -7.52750604775262
7.787266047770741 -144.39379908379112 -7.592857946592206
7.782424893557453 -144.36451766609824 -7.592007888189246
7.7955697087494205 -144.09952045894715 -7.586893646423026
7.92493061058087 -143.50236170664778 -7.582440351277569
7.978523496262174 -143.46053532156924 -7.584191496932703
8.031733290291479 -143.3656845321689 -7.585339196668241
7.477171162938318 -145.01588563133143 -7.597450633496352
5.542164124326742 -152.96751941970314 -7.589066545915128
7.431731460927001 -144.74810647040476 -7.588027940561215
7.525959074249034 -144.4617021360203 -7.5841438627382445
7.885193477190298 -142.88163865318094 -7.574757832347602
7.43864428267957 -144.53573259509392 -7.582598403218016
7.5101678476484715 -144.09012434327875 -7.575087956562395
7.78908373926525 -142.84475583185906 -7.570333119929944
7.876776974246597 -142.7063235752272 -7.5734933813931375
7.298755285575276 -144.64045853682583 -7.579992335727221
7.327738622021217 -144.36362568724525 -7.573969261688359
0.43884054941306083 -174.2725452853453 -7.518926011955954
5.247599677781016 -153.12127283056563 -7.6006718674519185
7.2456159750986044 -144.51442144410896 -7.5745733892894735
7.28656370970847 -144.1717032958593 -7.567840348551102
7.313250115577612 -144.15469369348543 -7.568537602042421
7.565631139706422 -143.05944706908764 -7.562160152546956
7.575739987247676 -142.79454628780132 -7.560713144753681
0.20688838004145654 -174.61740156730065 -7.530947983222931
0.32633087346827416 -174.26319520050512 -7.523798698519823
6.66152606452535 -145.85019820274601 -7.597812489417705
6.915293115427503 -144.68623227642155 -7.566816332907844
6.653299330131707 -145.81522019400518 -7.596221682685956
7.035871391058532 -143.9667131308778 -7.5533133392541485
6.541105293778929 -145.69985632787828 -7.5880697734405365
6.814535641123753 -144.59218042466 -7.560311012676455
6.900952256671191 -144.11422673906657 -7.551166492908632
6.972429641359484 -143.9350609284932 -7.550083177703276
7.017727638295338 -143.60915434206422 -7.54579830335334
7.073946119372704 -143.09349249363788 -7.541232867002648
7.117179953663746 -143.04138535606884 -7.542590868661
6.4273078403534 -145.58667757300316 -7.579969141685206
6.791818485878682 -144.1475887380993 -7.547628958582721
6.8086367106446595 -144.1180157496438 -7.5475917603684675
6.910848905282806 -143.7868629294963 -7.544593665608543
7.062731163828709 -142.8680834916379 -7.5387808950807855
6.2896278608416685 -145.6340569966518 -7.57753445789214
6.374414736541253 -145.36430041924433 -7.5698150201154855
6.61258544177785 -144.4337089491117 -7.548185669946568
6.832325343281835 -143.42673787832152 -7.535127330784566
6.716662446561792 -143.57574271917738 -7.532707601141051
5.917742151312791 -146.4035038003112 -7.601093352251363
5.967452283916857 -146.17140175389306 -7.591340158238831
6.402054676353506 -144.29968934028608 -7.536455699762969
6.510506124549833 -143.84526708142351 -7.529520567042753
6.616694138504958 -143.41771934651837 -7.525928926732561
6.054270561562865 -145.32434327010947 -7.5578287970932
6.205039804920786 -144.7457669326148 -7.54241636542282
6.268808886524342 -144.5879262164185 -7.539765889558703
6.532209165817505 -143.37599674665555 -7.521740954415505
6.63434305856804 -142.87105181992288 -7.520169413737878
6.004649062029804 -145.25487248570533 -7.553515529360458
6.132600270835518 -144.8747812380435 -7.544080653686145
6.1151713293763255 -144.7242026766761 -7.5384507724405445
6.167928175719932 -144.5744800523105 -7.535662845634186
6.528649398499613 -142.83449782957516 -7.515286997590115
6.62742128492201 -142.5192441854768 -7.517867429427946
5.759381129063597 -145.9194859879653 -7.574177156263007
5.910811303485518 -145.1348698435109 -7.545904940143077
5.968294211933797 -144.9868616844378 -7.5423359685682
6.018617798068518 -144.93992848549078 -7.5423793126481735
6.050375935246073 -144.74964661837362 -7.536996757585094
6.091692506220675 -144.63078920565877 -7.534634308258567
6.055298104394993 -144.56661995425523 -7.5312963743578045
6.090403017913998 -144.44789198097274 -7.528993747896066
6.325539942406457 -143.28615493182542 -7.511688832711275
6.403481981084004 -142.9364851175027 -7.5107534607829525
6.515663149344521 -142.81263619718587 -7.514551834871214
6.555670352624722 -142.58322310646022 -7.514953439193338
6.605641702930901 -142.027753149759 -7.5170448850704
5.674246172364866 -145.90795730120917 -7.571330282256065
5.839061753516319 -145.09132403905429 -7.541854821660196
5.8898426747384995 -145.01428607001006 -7.540700099298009
6.064531162528987 -144.32527151113933 -7.524451670239775
6.111919964939704 -144.09455630649552 -7.519792586625909
6.196597285789225 -143.3355083793041 -7.507026148382287
6.312604961821795 -143.2622544983403 -7.510787705886921
6.322704411100801 -142.99294535136815 -7.5078415006702635
6.4137282680552605 -142.42072160093494 -7.508187700580866
6.522068391335072 -142.3279803377856 -7.512851638594401
5.613921387058179 -145.7780231676072 -7.563676391385632
5.944677709684668 -144.3704342730841 -7.52129750186261
5.9474814870566375 -144.18825374723158 -7.516107889742241
5.993084806618695 -144.06913199886142 -7.514537770314729
5.984621224326899 -144.002912013271 -7.512471607119612
6.201406908313922 -143.0010570710053 -7.502712478025811
6.317582387586667 -142.36428050083808 -7.5038504750356445
6.410794215498251 -142.10617082819863 -7.508149053147699
5.445746548415433 -145.83476390153606 -7.561829206967258
5.925645318040838 -143.93882361226838 -7.508534270781822
6.373348606087153 -142.07627521200945 -7.506573714536331
6.36684743038391 -141.9595707363875 -7.5067503842829915
5.248119744033294 -146.16712727419687 -7.573218634615369
5.36305441428679 -145.74025619773428 -7.555155704743967
6.317137296752635 -141.89253715105457 -7.504899528276201
6.243158778687346 -141.75967729224422 -7.502532069748804
6.217217972594055 -141.64731719604654 -7.502369385501723
5.253872866691182 -145.30070500137862 -7.53224909993041
4.378161597120012 -146.73797982668987 -7.5892644513825
5.040701529574164 -142.6230670185057 -7.600734293820267
4.733177355530796 -143.51830632839267 -7.600753095138714
4.910196390462265 -143.04644800906993 -7.598782289506905
4.990589674609359 -142.52595917140815 -7.595659558729704
5.013697524086832 -142.43875165689295 -7.596656643626195
5.050354560178303 -142.30840445102865 -7.598725820435583
5.038839617503624 -142.24002332750533 -7.597574581144779
5.043069037981858 -142.15124660896936 -7.597789898351023
4.6787131883982385 -143.52095087264937 -7.5969681036041
4.651577433375957 -143.39465262984936 -7.5902647128392395
4.752836308684024 -143.0655123040121 -7.587380939554634
4.938943564728495 -142.39513718406516 -7.590429653632959
4.982028563744285 -142.23680938272273 -7.593077647068025
4.645359965637902 -143.30960744690464 -7.586829301670894
4.657607533776842 -143.20103207423907 -7.58418291184575
4.721628568950266 -142.95421742636472 -7.582200918411267
4.71881884551417 -142.83167315400118 -7.57927114760964
4.839056322905215 -142.37149351318334 -7.582388026100882
4.845947538634853 -142.3503885849956 -7.5827972465180675
4.922963262288018 -142.16123504480169 -7.588266598428713
3.9137042554877626 -145.8711312322059 -7.531479745055559
4.311753936351746 -144.1300599831853 -7.60086507999713
4.670905954022282 -142.792794555638 -7.574807892607993
4.722684694207301 -142.2908310925214 -7.572748032662874
4.778941124639045 -142.16954333123783 -7.5768523762881745
4.188749329570789 -144.1790806066912 -7.595999432340055
4.706621438000753 -142.17973524259725 -7.571130040311081
4.811745802889035 -141.62195851501173 -7.583371400828143
5.293883207344487 -139.541963075529 -7.521508824758655
4.230458359884664 -143.69899732034554 -7.573430099795621
4.243253926821091 -143.6450180209004 -7.571808750648673
4.646765320756258 -141.65744530520917 -7.569819198308574
4.674831560879314 -141.59380152237554 -7.573022411180701
5.143436418934708 -139.59349830272703 -7.514059283497717
5.153761123252695 -139.4877472083569 -7.519213615797187
5.205634340572846 -139.40702252470152 -7.524675671258522
5.088661194424929 -139.5646728370739 -7.513525864356861
5.0775995947585715 -139.3790801641122 -7.52182613520189
3.9633310953995045 -143.98158242924052 -7.570681745070651
4.042753539436788 -143.75041956747725 -7.563377549834449
4.292800044739767 -142.34485966881897 -7.539129823880212
4.480394620515801 -141.61316195683082 -7.557377765021717
4.970909821968694 -139.6487743112273 -7.505718640768178
4.965111235385328 -139.35635905463297 -7.519361135871698
4.979379911095706 -139.2451312689022 -7.525324903934974
3.89268405472098 -143.7545747418283 -7.553776006993528
4.253396027094201 -141.77015301800995 -7.537215734044998
4.307660813233323 -141.39183412464098 -7.5483356952800875
4.8259941872377485 -139.09789665353443 -7.528433399165051
4.878308487284812 -138.91891263361498 -7.539641175273897
4.203011026303969 -141.36084836104044 -7.540987342899879
4.724905544810221 -139.14878972385316 -7.522845265923664
4.7680930239510255 -139.03338123014285 -7.530298417642341
4.831736583135823 -138.94320911124163 -7.5370290698425055
3.7099739024170955 -143.25681135321247 -7.517856120465996
3.9114894280913806 -142.42833864229775 -7.509988227332681
4.09590726030181 -141.67534721727924 -7.526070474445602
4.154333910072837 -141.4297505074733 -7.535500981194898
4.197227796059566 -141.25038130860136 -7.543605620227078
4.160707557503994 -141.04445785897528 -7.547614998157908
3.256486878806122 -144.58359959930115 -7.573769991193803
3.6067331917447056 -143.1601723087193 -7.506570492154521
3.932339776449261 -141.85102782348628 -7.5109065770334595
3.923792717389037 -141.80194396223808 -7.510746052848371
3.9664091532125854 -141.6198190788082 -7.516802103663986
4.004126183896859 -141.50074925765503 -7.522156088625151
4.015853446661297 -141.41255208823273 -7.525159455209669
4.048635648530343 -141.23431463161046 -7.532712853462277
4.100518728008006 -141.07354542768223 -7.542045846314037
4.138670656921388 -140.9618144904731 -7.5490956442105235
3.7056772992604925 -142.43009879826974 -7.599014573444678
3.702312326843579 -142.36725153779824 -7.597573142125114
3.8314617148120425 -141.94628889404473 -7.502152822675428
3.848717452946371 -141.86862191302149 -7.504131207778276
3.8381972567745395 -141.7675119373556 -7.5043969221719165
3.933958937607425 -141.3484439025145 -7.5205368240471415
3.9554015708889 -141.30531673195725 -7.5234319370014555
3.94790279835793 -141.19632777144952 -7.5262826054987615
3.9596889210265918 -141.05200642659128 -7.532287444783249
3.517606575456079 -142.82536228097624 -7.589801469165202
3.5823474231058983 -142.42174086936532 -7.584933802417829
3.6164230115796396 -142.31596484628585 -7.587094341797357
3.6591960634580865 -142.03351172496792 -7.590427463736481
3.73240604472132 -141.82817226723014 -7.600359075293922
3.8066261306529547 -141.31185728099427 -7.511818411168459
3.8977379626621023 -141.24565279048596 -7.520841500763741
3.886661040672089 -141.18449373908226 -7.522021219278366
3.8889099778555627 -141.09664173504936 -7.525327945877206
3.979214412189026 -140.5975081944522 -7.554027633912779
4.12510138432287 -140.07494897078251 -7.593880368729336
2.9849779082626995 -144.53805275973522 -7.558642013719122
3.607864897361443 -141.7015018502395 -7.588216445542342
3.6592320601132293 -141.4861987162667 -7.599524725028758
3.751664127321508 -141.26909750044405 -7.508957854674009
3.84733342095171 -141.03836278165645 -7.524457178199622
3.7955631455279484 -140.89041238305407 -7.526904134467465
3.810230351852141 -140.8609346205392 -7.529285040527257
3.8650801926442506 -140.67263803541215 -7.542211735812792
4.030143789384286 -140.1136103635237 -7.585352148474387
4.399800233988111 -138.33092048107537 -7.563901719021607
3.2806688239201183 -142.74390770127974 -7.560920027900698
3.560708054555908 -141.80366866459693 -7.581059940032454
3.5822743714471086 -141.51794809951343 -7.589918378650589
3.6458211731816075 -141.39968132248723 -7.600890613501354
3.6995466107280492 -141.19421168632428 -7.50755466817155
3.695938083254493 -141.0569438774518 -7.512517170338766
3.763424586331075 -140.86660576424117 -7.525663687209142
3.8129995995344768 -140.65010263527353 -7.5397353150436315
