ply
format ascii 1.0
element vertex 821
property float x
property float y
property float z
end_header
-35.936214361341676 -27.42467074227161 -2.255555859876579
-36.978598334701026 -31.886271221842886 -2.3263135185730706
-36.117070025334236 -27.516236287183407 -2.2750063918761905
-36.05205266161943 -27.488153336726082 -2.251169762431237
-37.09767149523565 -31.791320653199783 -2.3244029388307665
-37.088301353361686 -31.76643484548785 -2.3226397025343553
-36.18275678315627 -27.50552808819701 -2.288966508518751
-36.19365154286018 -27.429341156841495 -2.2681477684769122
-36.22613871419483 -27.48839757499712 -2.3215591804308082
-36.21600192359126 -27.43682917430483 -2.3236653714621034
-36.50802279944338 -26.90975207894798 -2.247955670581882
-36.45620007301024 -26.898493119075823 -2.2611221487971793
-36.514471824444804 -26.897857109160967 -2.2481431399504364
-36.51292283165296 -26.848885581896546 -2.2494268150376415
-36.76428789817221 -26.89312108254799 -2.287321689603626
-36.77986415840759 -26.795088950386962 -2.327899458895164
-36.816875565096964 -26.87597754385287 -2.2602175868769807
-36.80707684095822 -26.815748300370572 -2.246704976278624
-38.47002078741499 -32.977598787864196 -2.3288808554108615
-37.18225184963385 -26.786098469037107 -2.279112468517803
-37.25863988276035 -26.80561136777654 -2.2819672938165763
-37.2479114201907 -26.55790634196351 -2.255233770668273
-37.248255045575114 -26.53450173941846 -2.256158491682915
-38.61621675073503 -32.93848894892192 -2.3329674478648474
-37.313383273872496 -26.776987771907436 -2.2992209052770467
-37.2993185610608 -26.726386123514157 -2.249084701089366
-37.26449256703468 -26.544678617176714 -2.255871725601683
-37.27850426927716 -26.504031331809955 -2.257561852181265
-38.585349155072784 -24.001411450278088 -2.2360815210422382
-38.35558748831835 -22.50248310123852 -2.239554053806709
-38.65825690079857 -23.82521347507007 -2.240368078187997
-38.668849645013246 -23.539231008607707 -2.2429721104185507
-38.608058563183306 -23.44435606577664 -2.2413563182159857
-38.58431974705943 -23.401488023322813 -2.2407482883996175
-38.387210887777634 -22.33998585086053 -2.2419294352200323
-38.87656107899331 -24.107982118319736 -2.2470851000786616
-38.44856260236371 -22.408042258663205 -2.2436772450745828
-38.97153698851195 -24.16955642813161 -2.250682182158921
-39.08158522165953 -24.22927661152439 -2.2550598957442367
-39.05371947023353 -24.200050640918995 -2.254031883625297
-38.65284740705089 -22.36309103002646 -2.251558710217346
-39.160973790331674 -24.27474487606636 -2.2582710825185863
-39.314541542337615 -24.261106506226294 -2.265402599017215
-39.38083500253958 -24.369026988815882 -2.267929168030887
-39.39453464136893 -24.32618000678151 -2.268773231681325
-39.36799129742011 -24.248537458996406 -2.2680210042423714
-38.94268451234775 -21.86980133876305 -2.266639660257678
-38.835743051562424 -21.76352148871144 -2.2633752686280033
-39.488945180022654 -24.296975903502812 -2.2734952667394306
-39.45579579030651 -24.241828385465492 -2.272252894206818
-39.01917036697056 -21.849335824498212 -2.2698431951231184
-38.97988415589588 -21.77805504180472 -2.268910571265306
-39.552813896083954 -24.261668000702393 -2.276833808285445
-39.06018654290675 -21.74122606764065 -2.272405140388504
-39.730774518911986 -24.362864568920617 -2.285147747830453
-39.1520136434549 -21.63067085812991 -2.27689361541044
-39.91746747778828 -24.633875521466873 -2.2937491535497547
-39.808640511824294 -24.571608960260964 -2.288278440465301
-39.82359642463668 -24.220177919877717 -2.2905442413175674
-39.24602256472447 -21.52799965531093 -2.2814779794283755
-39.964527137666146 -24.626291746129944 -2.296233114636049
-39.86523863868664 -24.2740517215696 -2.2924792626461126
-39.295218010583774 -21.54678538040855 -2.283376028348747
-39.314252145208485 -21.44056445611218 -2.285051231122694
-40.10287458361424 -24.65158976224017 -2.3036208221513568
-40.10378002407213 -24.544325790203125 -2.3040315655165147
-40.010314515947485 -24.15131362277223 -2.3004778219724153
-39.43029133835221 -21.51320682129939 -2.289312599325081
-40.314125784499765 -25.19823787459555 -2.314650660876035
-40.26023805637822 -24.944967277731372 -2.311715858019212
-40.23771460946825 -24.81596557702835 -2.3106891197305486
-40.20693388962525 -24.77445677685109 -2.3090423041059656
-40.18420377510003 -24.66732816137948 -2.308071140966175
-40.103679349763695 -24.15384087895447 -2.3054457421367154
-40.28962038646902 -24.43574135781619 -2.314418722868023
-40.1699872220905 -23.922594295988905 -2.3098614766955268
-40.466020172411405 -25.023129704564298 -2.323691779581004
-40.43390172632831 -24.930420401648085 -2.321899922980588
-40.401981430372985 -24.862917661328282 -2.3200837497472047
-40.32602423917948 -24.43944232722967 -2.3164222189298767
-40.34340235973258 -24.260622401809528 -2.3178557685549257
-39.78448880282699 -21.569493927895646 -2.304372909357326
-40.594181160821435 -25.23843255567179 -2.3317010857912237
-40.57697397073408 -25.053163049653605 -2.330445366886658
-40.58363567610136 -25.016319148517553 -2.3307449258861777
-40.32474543736426 -24.0646664083456 -2.3174471946321447
-39.840153119933554 -21.45352966552161 -2.3075348946872962
-39.93023532173953 -21.61971310577239 -2.310610287783201
-39.988485258071115 -21.50291416477773 -2.313917279960525
-39.941586953019744 -21.42711572622349 -2.3123298543404944
-39.89324767999444 -21.351506251761087 -2.3107013664586917
-40.486872428649704 -23.4655394711478 -2.328234834849795
-40.02426430067394 -21.469258025519967 -2.3158738299232593
-40.07984750282067 -21.36850634311117 -2.318966092785244
-40.15556759138746 -21.20295526179372 -2.323617652037204
-40.238573976009256 -21.114578932722505 -2.3280202541205903
-41.55411625534834 -25.65939869143238 -2.2335728131138968
-41.74296263541628 -25.520201790717064 -2.2374190287441493
-41.825760482521964 -25.47247716285036 -2.239413930528176
-41.89824446253977 -25.592020138758862 -2.2465161882697484
-41.89445947593388 -25.516719217032705 -2.2439187400598777
-41.85293204642954 -25.483024724463284 -2.2409901852827105
-42.10010152442045 -25.873366706907984 -2.264962642079929
-42.0184700497849 -25.586234542476404 -2.251652620489671
-42.004116742995755 -25.53567556420924 -2.2494099368853147
-42.970715468737446 -29.67668079140255 -2.3040740719513475
-42.968172015818 -29.62188731630851 -2.301398671713445
-42.21673319381534 -25.961088284281917 -2.273247508189442
-42.17085303111582 -25.888271860588652 -2.2687496705543073
-42.124322250222804 -25.59403578810703 -2.2566709579897344
-43.160796372277794 -30.05234951668309 -2.325143196285393
-43.14328210638571 -30.000130379989997 -2.3223938737810417
-43.031639504035105 -29.5795516218504 -2.3003413208150794
-42.23236063703617 -25.637997659991928 -2.26296744137639
-42.22555439163869 -25.608307417878052 -2.2616150753679403
-43.2911239948543 -30.14478115961515 -2.3316827233930746
-43.19171867281536 -30.020833426079246 -2.324151846766845
-43.08744462563109 -29.54404410480403 -2.2995205167905004
-43.09307769475284 -29.509771867477745 -2.297934787968543
-42.4564550704311 -26.186576814287097 -2.2921472984295526
-42.295080032654816 -25.637856788917016 -2.2657767175755072
-43.18680032011228 -29.45972023990818 -2.2969659814286345
-42.5122719176854 -26.15536723860125 -2.2936909171695765
-42.431575328247455 -25.688465394633333 -2.2735958859619756
-42.64953067539275 -26.203249408090002 -2.301703552787889
-42.63042365367111 -26.141315652251308 -2.298597913530346
-42.76637900476167 -26.225661389132963 -2.3079019212312577
-42.70822036757677 -26.235179009821543 -2.305634094727747
-43.49210094159378 -29.34897366581129 -2.296377414049209
-42.81475542212157 -26.232208617611192 -2.3104325053770483
-44.060200129418654 -29.11768181396433 -2.293883807506688
-44.141351697051164 -29.037329977081743 -2.291156100534394
-46.75280771908774 -35.22049986381116 -2.234786864752105
-46.775101651975625 -35.19058503045481 -2.233865800710153
-46.93055387519119 -35.61936327148397 -2.2414457695025667
-46.934846306885945 -35.52531435604345 -2.23947994099833
-46.8682279683392 -35.353390539636365 -2.2364566218701554
-47.06682187910692 -35.5516688786961 -2.2389032782966534
-47.331402598052584 -36.487661442858816 -2.255323622330021
-47.29606713050991 -36.376882967846704 -2.2534381333401536
-47.24085311725283 -36.04185944147092 -2.2473009790882794
-47.201996222867415 -35.9588037786999 -2.246053980492373
-47.20217063673507 -35.90692580815786 -2.244924715070977
-47.353966537123796 -36.34436327456578 -2.2523248061193537
-47.35101889438991 -36.260787420722416 -2.2507711556022736
-47.323447514139104 -36.159508088037214 -2.249048667444425
-47.65897303972413 -37.286723444743615 -2.2675799185547527
-47.85634437180498 -37.28345284917198 -2.2663319902367616
-47.87605631058328 -37.210373663534284 -2.2648219585087457
-47.82421629394412 -37.044939131915356 -2.2621439478952885
-47.863281300224315 -36.98953742287447 -2.26078440498985
-48.13615954408339 -37.9668658299011 -2.2765026868805083
-48.089565786212866 -37.827852460902676 -2.274436761895829
-48.11344819016778 -37.75353950220654 -2.273047948529656
-48.124991166202925 -37.577858179415216 -2.269756862783787
-48.42822190306086 -38.299233672507086 -2.2804599774318723
-48.593644882406785 -38.51809510280263 -2.283119974148541
-48.88533478840432 -39.21342342276796 -2.2924143979894605
-48.86172153602768 -39.08646938393724 -2.290641938805301
-49.11597407939927 -39.66125195874007 -2.298091306309941
-49.09970515624829 -39.49501489568992 -2.2957762028586495
-49.15633450277423 -39.62601263759426 -2.2974587462869582
-49.60248699393929 -41.39855950995246 -2.3196941050355524
-49.45888457104595 -40.406350767901785 -2.307398340160993
-49.42099198090288 -40.28654800900196 -2.305885054274269
-49.399717869411276 -40.1839233664148 -2.3045404057240173
-49.35963843488274 -40.06007496883528 -2.302954374270046
-49.33280953431277 -39.951120162605 -2.301510876856651
-50.06278243572331 -42.41716052687984 -2.3312778817032975
-50.00839762630367 -41.934962442822425 -2.325771415802861
-49.96646775579519 -41.705142591464984 -2.3230673456542412
-49.83909576263796 -41.12883491960169 -2.31608295957179
-50.194235277267936 -42.4212030392364 -2.3313284531582927
-50.043842649492554 -42.06740902652593 -2.3273061867928067
-50.016025641400866 -41.66766581183796 -2.32256754401728
-49.9956665403519 -41.55547666004823 -2.3212137459334623
-49.9187038552635 -41.127413147410735 -2.3159298283200003
-49.92493163574603 -41.049367538542455 -2.314902412635793
-50.23015309513328 -42.36769427003133 -2.330705073214585
-50.04458774205873 -41.51800567418567 -2.3206864182207423
-50.004233478173404 -41.38834930624794 -2.319118177143445
-46.03027328873174 -19.659942657963803 -2.237740762801376
-46.02092141454994 -19.57703663130212 -2.2347268455148326
-47.28670498488425 -18.668965076644305 -2.2602708396265023
-49.71594957258267 -28.034573571534505 -2.3280617026604804
-48.084850103919734 -18.25641242794648 -2.281350492901848
-48.20411904356781 -17.982945861139356 -2.2779478336817163
-48.17943339472517 -17.93198989280293 -2.2750533302530846
-48.807222277264124 -18.254310118614715 -2.3121089496062774
-48.745496564682185 -18.020041608058534 -2.3021224782296845
-48.72336426658386 -17.8933945821612 -2.2972325436882723
-48.69295988191854 -17.77644616980846 -2.292310386576451
-48.79291151987973 -17.897668893756144 -2.300049993111121
-48.746845459836166 -17.795691688832697 -2.2949210770014714
-48.89098976946121 -18.099405859858045 -2.310562582952546
-49.048282836436826 -18.095172544098016 -2.317179793338902
-60.74039242755734 -24.358055898852367 -2.3096093561948523
-60.79970454707028 -24.264222216241567 -2.3056154146170016
-60.80375523338297 -24.18081974812682 -2.301116201067539
-60.86665290546952 -24.08744918099122 -2.297194966850712
-60.865644569717745 -23.923310829732984 -2.2883431595265518
-61.00364119239072 -23.978108576715098 -2.293434148804394
-61.05266427106474 -23.715987383521657 -2.2801882424404636
-61.02941921926147 -23.054456438569694 -2.2439894801401348
-61.20879358295137 -23.766848324673656 -2.2853684790882647
-61.21679359884399 -23.59559792928895 -2.2762591873210445
-66.04606769231835 -46.83224932808943 -2.3000371485061515
-61.2318802414253 -23.255487846279127 -2.2581055454479757
-61.223448249205134 -23.090469853606052 -2.249016883764699
-66.15468830092217 -46.76699716880721 -2.297505191500267
-61.27935579290541 -23.160757389835723 -2.253820165106881
-61.287572590319925 -22.90685266585555 -2.240082765717225
-61.29046687557122 -22.81979035097673 -2.235474635837049
-66.21615799572768 -46.67100679326683 -2.294255051633032
-61.84654474262359 -23.286404880179717 -2.269733506939074
-61.823590854761974 -23.204169945330793 -2.264997651359805
-61.921415530848975 -23.355046111958092 -2.274742551918177
-62.40259978598077 -24.128274745485776 -2.3241169808522097
-62.96715201687969 -24.112390615914013 -2.3322478808559377
-24.56530855685742 -34.754432408882046 -2.174662999391068
-29.22543253761178 -32.49268963979352 -2.165579909855883
-29.17135785910826 -31.98115712872022 -2.138960339693483
-29.40058932292556 -33.03426485924723 -2.1970423232920946
-29.402866632716908 -32.939276777691376 -2.192221002757674
-29.315593908097227 -32.48978995001912 -2.1675109043479837
-29.300878831961914 -32.42466772406631 -2.163910301048924
-29.51288858628293 -32.4744791603109 -2.17112890947455
-29.629116961488762 -32.42341999735746 -2.171222429385237
-31.583885017212687 -31.356625579897628 -2.161547089187687
-31.68937530994388 -31.36607377886056 -2.164372059623544
-31.792243224886032 -31.19716419547305 -2.158237564163773
-31.806680477732257 -31.104648351516595 -2.153965258747372
-31.7440913647454 -30.894816456601184 -2.1422721005919314
-31.068560552935303 -26.76886445529046 -2.2034466557701116
-30.933930760873203 -26.21521162912826 -2.1909061432365364
-30.894614060300157 -26.06029961528915 -2.187678071672068
-32.00564384286256 -30.921014900531592 -2.1492863983402963
-31.129742056783382 -26.747456849663216 -2.2021681841261134
-31.141692322697978 -26.66057352725889 -2.1997395322321145
-31.047300935493602 -26.47275254937172 -2.195983713991404
-31.02334969383289 -26.274534203631262 -2.1913605019573184
-31.240717116252178 -26.74168408142428 -2.2007410353118773
-31.18735864465339 -26.412351322428634 -2.192945852319458
-31.105112647809808 -26.34389613544475 -2.1921622694086387
-31.127147222616994 -26.175070200219686 -2.1879317205690483
-32.17787987446099 -30.802480082785316 -2.147274669994955
-31.30712941345161 -26.735790316510602 -2.1998098297788444
-31.285193741200036 -26.511010667690943 -2.1943078151738313
-31.036423110002325 -25.180998140213884 -2.1684245077097
-32.23056778095702 -30.78370566397459 -2.1475123257331106
-32.2821346802049 -30.688117916134104 -2.1439499725687523
-31.428028963961637 -26.722599504028526 -2.19808704564499
-31.33072479753914 -26.303721565740958 -2.1888000995310937
-31.29617546623916 -26.15752431569199 -2.185777728914898
-31.310480404793132 -26.095575334597186 -2.1842461171094585
-31.307257545859855 -25.971873423639455 -2.181572524875677
-31.10354210771029 -25.12467702376964 -2.166906845595134
-31.6342194825063 -27.121078961786218 -2.2065019108655117
-31.62394851888133 -27.059008604398198 -2.204875793519855
-31.397535267256977 -26.222871011838315 -2.1862386713443276
-31.383471732080263 -26.164402235131632 -2.185056056498768
-31.402329908933446 -26.064900547313243 -2.182650827565524
-31.372560245724703 -25.957931435453332 -2.1806370037353107
-31.19849447640048 -24.927199340117646 -2.162876129397963
-31.440267370417097 -26.080226922507855 -2.1826198984858767
-31.511381390949776 -25.975986001697176 -2.1796815745398783
-31.41233529922423 -25.796892939150517 -2.176920750790873
-31.373842343975326 -25.583184934052493 -2.1730465906221212
-31.342194018443053 -25.24897453768832 -2.1672023208005897
-31.23254109440873 -24.977240550718957 -2.1634382569490684
-31.504916469502753 -25.700988146652413 -2.1741812157373275
-31.498977281017503 -25.445137817581642 -2.1694362849674
-31.448929667512374 -25.362510244890228 -2.1683614225479366
-31.45978483412246 -25.237951642285168 -2.166108941559852
-31.43103951519279 -25.14778280605902 -2.1648008697965673
-31.347439041208332 -25.071225674628838 -2.1641541012920387
-31.349822284544317 -24.966074053311 -2.1624268951325
-31.827635146815602 -26.654407252713614 -2.1919096202001236
-31.617491663739614 -25.941555920884547 -2.1779741265637256
-31.66621848562046 -25.69473315046844 -2.1726569554122976
-31.62612503959944 -25.593922229818375 -2.1710989325467285
-31.47952971411319 -25.205185147345464 -2.1654088920901695
-32.67345570704341 -30.349332809112028 -2.1360527190421448
-31.802091393267236 -25.944357640603037 -2.1763197860344436
-31.753509122363525 -25.896203065382522 -2.175805769290717
-31.680303849826007 -25.66080855907417 -2.171893634159098
-32.052292039130165 -26.18087877702392 -2.178848887472227
-31.996233652471492 -25.980913146308758 -2.1752933180323812
-31.91658079720488 -25.710222669357172 -2.17083249123994
-31.92921932882126 -25.689336973727045 -2.170338790220682
-32.52431215800698 -27.981572012390405 -2.2218856103138283
-32.14384936511211 -26.195827081662113 -2.178287089646082
-34.0363516021489 -35.02112039890002 -2.162634765243257
-34.179100086654856 -35.08297157707846 -2.1710661091802783
-34.13132850901921 -34.71103415725109 -2.15835736639613
-33.94490376423508 -34.17678370616101 -2.134148516371186
-33.330837429547074 -31.171243543317132 -2.1915989908263094
-33.312319743700094 -31.068160025924797 -2.185897058166269
-32.66935675563503 -28.076633525242244 -2.2232217177724993
-31.39980558026064 -21.802964834813565 -2.132167754638768
-32.734146823697536 -27.612776925161285 -2.207412093118921
-33.601410822257954 -31.160326194004135 -2.197244009275651
-32.986399598710584 -28.43336535912964 -2.232342680706577
-32.803578080907364 -27.598988437778765 -2.2061286658872943
-34.57444429558921 -35.407842994646714 -2.19824161996182
-34.32155180167182 -34.46262678617862 -2.160370221290099
-34.219536255394004 -33.77515501905761 -2.1357566943419575
-33.65545771697241 -31.15073698870026 -2.1980210664811635
-33.12912713602134 -28.42488694677977 -2.230024077933446
-33.10830380042352 -28.406348075026823 -2.2295987335482574
-33.09918605376821 -28.26882693735368 -2.2243978249770495
-33.05228703106582 -28.14166261727979 -2.2204261618352508
-31.683701544963515 -21.56873252576366 -2.132077715651419
-33.77289814991766 -31.163907472066263 -2.2014199066854854
-33.15814822935974 -28.35064067105037 -2.226730915569026
-33.125508709917426 -28.28812379679905 -2.2247538320269857
-33.1133047597296 -28.036579043456697 -2.216038744231433
-33.084357217809014 -28.00580446741294 -2.2153949355103664
-34.706392835049094 -35.20588521106155 -2.198716417582017
-34.541552327475905 -34.3325141203149 -2.1670411441900894
-33.856874515326 -31.097139855793237 -2.1998870977559726
-33.7902095576313 -31.000671146692717 -2.193396732288339
-33.77623576694805 -30.766578881738113 -2.1811291776336112
-33.785495055260455 -30.708804139903485 -2.1784140492330466
-34.66640100152297 -34.3458013555246 -2.1732832027975877
-34.56447543631106 -34.296112594429005 -2.167126838340992
-33.90720566469117 -30.83789265170787 -2.1877247580627666
-33.84042798489447 -30.73632761633787 -2.1810271567368837
-33.82825316149366 -30.70590807339615 -2.1792129515818375
-33.37798722069721 -28.115799932184657 -2.2152503553591814
-33.3114684686831 -27.938828527738515 -2.2102632200130383
-33.296654321591774 -27.813984218594857 -2.206511431642386
-33.2608044053783 -27.742370512340152 -2.2047539799213833
-33.259148180755524 -27.610680480298754 -2.200872657455144
-34.7459756159715 -34.694218975173236 -2.1865737034454544
-33.37987076829248 -27.85132424366687 -2.2066181130037705
-33.339111769111035 -27.809171362085323 -2.2058253255033553
-33.360149652461914 -27.59246629926328 -2.199115373601542
-34.9153078286856 -34.850046106665715 -2.1985600884184713
-34.87757162507115 -34.74706195899321 -2.1940323043052263
-34.83525059761891 -34.21345064385849 -2.1774446373665883
-34.82832981380154 -34.11873375223803 -2.1744806938213337
-34.20001633089622 -31.314206993396706 -2.2193085854526093
-34.14221661933068 -31.183273394215863 -2.211049493119239
-34.178084069304774 -31.00557856983161 -2.202621926143976
-34.113778066190086 -30.70792840105946 -2.185792972927445
-35.11033207733238 -34.99452849316464 -2.2112116683643217
-34.88288165001247 -34.330842719321694 -2.1828987179932913
-34.88217609570957 -34.134229347089345 -2.1774240067139212
-34.29249030089489 -31.407401528465144 -2.2264712230560235
-34.29345589013029 -31.245430187123265 -2.2178914537201617
-34.263411380324996 -31.17788265975611 -2.2136310858162065
-34.26079831561599 -30.980251232309996 -2.203220959491313
-33.574402971178955 -27.529627862566784 -2.194808286772406
-33.4764589102511 -27.485968416718773 -2.194754991170194
-35.22215841840658 -35.411984097310416 -2.227230152168731
-35.04487387545329 -34.31052163508121 -2.1897717767623934
-34.45574402340681 -31.415562586425526 -2.2308635124962146
-34.3430674640168 -31.193666329858154 -2.216358052991202
-34.31747506044369 -31.037239098313723 -2.2075247580341326
-34.374204987452174 -30.924637760046867 -2.202985100653732
-33.5896059764173 -27.550379609203492 -2.195189638476934
-33.586787825873216 -27.499478718793856 -2.193841021870946
-33.59241986600779 -27.359292418832087 -2.1900768206197117
-35.060201834875485 -34.236957027970426 -2.1884359781489735
-34.51042363190075 -31.41329357207424 -2.232053954464857
-34.461438838569094 -31.186667522921123 -2.2188087869602167
-34.41877986268651 -31.05360673441088 -2.2107581118927047
-34.386764042311825 -30.9512434850336 -2.2046465206572363
-34.398080261107154 -30.644230116342108 -2.189052355414667
-34.29518481601842 -30.43368960162633 -2.1760147015237568
-34.283059989022306 -30.292756136706803 -2.1686762954701995
-33.90948195875378 -28.324826317007314 -2.215516135845654
-33.65786643539664 -27.337792354579044 -2.1887927935754012
-35.33943119204313 -34.95313085671504 -2.2202521151245764
-35.23421865458564 -34.32329292862637 -2.19869631618254
-34.512781468149285 -30.600216216999797 -2.189405625779044
-34.32846244427781 -30.110219713319577 -2.16064749103357
-34.32747651703612 -29.981259321556124 -2.154334471413079
-33.94620316765219 -28.299767656687905 -2.2140952900733506
-35.46319759776877 -35.210396112256404 -2.2324263834750866
-35.479834290023 -35.040317267037004 -2.228677189050396
-35.38633078718964 -34.785905066320616 -2.217858550554764
-35.32068782251927 -34.442436827957344 -2.2057800455686465
-35.29458445814882 -34.32428263909833 -2.201443579004738
-35.55393805870123 -35.04629798506325 -2.2320718894603626
-35.546634509288005 -34.81487355779017 -2.2256717670412076
-35.50271704764595 -34.71841960365416 -2.221192691742414
-35.44950427643697 -34.47911279318713 -2.2125118652752342
-35.49998384481775 -34.418462036179186 -2.213108514311523
-34.691723745187566 -30.610960900350925 -2.194092445338134
-35.60319750090747 -34.7968375674521 -2.227656755336201
-35.54321100072153 -34.592316918153685 -2.219646120611237
-35.513692724118684 -34.43990400485468 -2.2143071872915
-33.0666734349529 -22.234554064065005 -2.140033363700852
-34.94258210897631 -31.034695919629087 -2.2222745609470227
-34.90087494669231 -30.76058318195453 -2.206766812603327
-34.44081033009016 -28.271226035583304 -2.206566046461743
-34.3632017721816 -28.176005473954888 -2.204399262470036
-33.21529781543206 -22.337705932488802 -2.1410620333065955
-33.117102309443446 -22.254037033477047 -2.1403741783510517
-34.77751167953697 -29.692703814411626 -2.150180910246883
-34.4865910612832 -28.17636271015693 -2.2028079880032214
-34.411129790471875 -28.09378117350399 -2.2011293344179426
-34.44236319337152 -27.917794732751585 -2.1953681455941023
-33.29736618985972 -22.40120550833868 -2.141646021013576
-33.3823773347995 -22.42113799116884 -2.1422381612233123
-35.70364580440281 -33.013749878078286 -2.1844408974013194
-35.27452463329793 -30.90267763805275 -2.223313831914185
-33.45187087290937 -22.42401587661822 -2.1427390828651522
-34.88807448500144 -28.79040155343852 -2.220899154433071
-35.94718899915034 -33.288274072218414 -2.202810514035516
-35.01552976779475 -28.714394847023275 -2.2158447812027693
-35.11767718035481 -28.69523913396331 -2.2136211439889926
-35.10946831964198 -26.56290904039995 -2.1631035370354743
-35.0203804799474 -26.31292657090484 -2.1609198934960983
-35.11973793413215 -26.586108628895396 -2.163310309780166
-35.11731169031251 -26.514309940047575 -2.1625823259733763
-35.10067759395909 -26.4359173995385 -2.161860990836665
-35.08850109098192 -26.3004912625383 -2.1606740961139432
-35.09540127794894 -26.227533085774297 -2.160064679213138
-36.321342626417874 -31.294198545049376 -2.165436401014396
-36.25804468753713 -31.045088328696224 -2.1552716395742437
-36.2397652121049 -31.027026273080896 -2.1538650994770934
-34.63945768220978 -23.13693377147412 -2.152613711923671
-34.652112208767804 -23.02370247922844 -2.1530322319243145
-34.672917995150954 -22.968141593937226 -2.1534123874794227
-36.42264190540862 -31.116450463133056 -2.165212224242898
-36.394609132950315 -31.078154493045265 -2.1627875068483666
-36.41514526737256 -30.991509156849283 -2.1612995630511134
-36.36850854516698 -30.84448365708414 -2.1547928814952315
-36.37480776007491 -30.781556725928997 -2.1532570386819714
-34.759160027723794 -22.980877258675086 -2.1543732725705356
-34.71040163681275 -22.96497365607382 -2.1538495993106
-36.46579270293153 -31.123720769714005 -2.167455574433274
-36.45388235505651 -31.0529971190169 -2.1648856908762157
-36.491924999765544 -30.9405034853049 -2.1635028851209643
-36.394291761741094 -30.728961324696257 -2.152676006012868
-34.832605774940745 -22.993506155208543 -2.1551609646801393
-36.816501895401174 -31.904477334903138 -2.204287035284333
-36.55966839993538 -31.03214236838542 -2.1692882414648276
-36.516775065630874 -30.804155359815674 -2.1607944718462324
-35.90495433208509 -27.508091130166488 -2.1710923270406584
-34.946504214555056 -22.989830284478067 -2.156509232202555
-36.88600963970915 -31.95386430744625 -2.208529917977661
-36.87082196038844 -31.9089446974518 -2.206722384234029
-35.94289243502098 -27.470997265859477 -2.170310760147265
-35.04137471310396 -22.977633487458455 -2.157701769700621
-34.98260875561181 -22.91359162927579 -2.1572035997211176
-37.000660551874354 -31.920589696360476 -2.2125010766847235
-36.09437799380008 -27.512534089988407 -2.170010450840326
-35.195772877462076 -23.132273312435526 -2.159173199866569
-35.106613000986705 -23.05428635879314 -2.158310602239032
-36.15815861833735 -27.506720861513823 -2.169602705212644
-36.177728383662306 -27.43476963851732 -2.168646747065424
-36.16224661346838 -27.369480889499485 -2.1679815186641234
-35.30989845534339 -23.167124808896578 -2.1605885388477373
-35.26631430568685 -23.151762368248946 -2.1600403320569646
-35.38774433015866 -23.20562059778801 -2.1614961614763017
-35.48689014841417 -23.21929196535461 -2.1628476366760507
-36.500896890662176 -26.934025133298245 -2.1654324432040104
-36.43521082568854 -26.907921197590664 -2.1650829867962162
-36.52610957387903 -26.9128495552071 -2.165515262806892
-36.527173689489885 -26.854009649735733 -2.1654414218014932
-38.98545579792644 -37.953678853702804 -2.1777350100502573
-38.93955835503277 -37.8197951631389 -2.1767528257142317
-38.86394832008085 -37.70474822187091 -2.1746174002633154
-36.70802387070903 -26.913349355431283 -2.1666854420614787
-39.01650955664673 -37.94431798930432 -2.1788773573405873
-36.7664690463402 -26.916588890833655 -2.167166819451165
-38.96005013640107 -37.04392788746958 -2.1801078099734372
-36.816721377899434 -26.881122968138385 -2.1676685479512257
-37.17552720880515 -26.781258988815104 -2.1724854054653546
-36.54291419362676 -23.593396701946908 -2.179294243606508
-36.44846567394493 -23.468934228056693 -2.178111197001124
-36.45705403910527 -23.39653448244162 -2.1787693052022514
-37.260897409233266 -26.798013610054372 -2.173804081194309
-37.25572964622688 -26.57705109170587 -2.1749129249996293
-36.713634024523024 -24.00233097639659 -2.180165610790816
-36.65436845000875 -23.717907584701308 -2.1808270371350886
-36.52864962476018 -23.438345928124157 -2.1799858357304798
-38.64766697554401 -33.007472189177264 -2.183674954680446
-38.62868935236574 -32.983970891570934 -2.1831330450253974
-37.297533313196745 -26.740571891701073 -2.1747474695793616
-37.29042725355776 -26.698514906710294 -2.1748706853423703
-37.28632974573531 -26.556165856634983 -2.1756196953041576
-37.31399152332622 -26.483642984662836 -2.1765980959821905
-36.76769083814787 -24.072563277413288 -2.180855600661981
-36.76098199496131 -23.807592095568616 -2.1825188366239177
-36.70300710907818 -23.760729763496137 -2.1815887244792
-36.850802900462774 -24.059244713033625 -2.1828066916290045
-36.8362310652041 -23.81777758454966 -2.1841342765646514
-36.83335263595698 -23.742340319719137 -2.1845867138240718
-36.906889806398645 -23.689051582357823 -2.186674365614889
-36.918277330008266 -23.61336971863423 -2.1874869429639014
-37.09700181895232 -23.92077939442367 -2.1895898060263255
-37.06623084781014 -23.806591763753318 -2.189654569011068
-37.003590837790014 -23.68780287338887 -2.1889852816473128
-37.19660716540455 -23.998046653702083 -2.191470409864594
-37.117780331124195 -23.74735989662429 -2.1913871426641167
-37.14574540701169 -23.594872415922225 -2.19326132259103
-37.26617149923521 -23.844832596577888 -2.1944658710313787
-37.23731784954138 -23.771408488940576 -2.194270762034915
-37.20535015886865 -23.68132653275613 -2.194124138473984
-37.286819386939015 -23.68592881003861 -2.1962115937685938
-37.32561923436878 -23.642647381514294 -2.197618388684982
-37.41935380759136 -23.76515343962367 -2.19925523381687
-37.47528561187536 -23.699352287173003 -2.201329068643475
-37.40215790530123 -23.617210606567884 -2.199921380568104
-37.5356286243552 -23.698260308166894 -2.203061509398181
-37.63430288894955 -23.72380552502299 -2.2057573862167277
-37.61764542579041 -23.69310288786519 -2.2055212805028193
-37.72211193779668 -23.71984523594936 -2.2084463649690127
-37.69351539234944 -23.667520432260613 -2.2080254771340107
-37.67077844232999 -23.59081212362274 -2.2079028854919573
-37.733375770144804 -23.45076088313423 -2.2109427013920993
-37.79047135754237 -23.496073242898 -2.212405817933564
-37.74875750861611 -23.387913446830296 -2.21198598205363
-37.75792963951939 -23.17918736486198 -2.213907671826355
-37.938479278177 -23.66675874203962 -2.2156889280827574
-37.937821102962516 -23.619771127020673 -2.2161068016439978
-37.89970327172863 -23.494476514947973 -2.2158940558751055
-37.83917784410127 -23.306047231385513 -2.215432644561634
-37.854307850186096 -23.169552242882794 -2.2170887815681772
-37.84272851087412 -23.107937460420537 -2.21719546622832
-37.79104125140582 -23.033624254784783 -2.2161286244401617
-38.07008461932888 -23.688435306562393 -2.2199127956958105
-38.045160506981155 -23.511243273779648 -2.220548359296165
-38.131350694519845 -23.69243867747933 -2.221939283939117
-38.02838573661711 -23.133155829495948 -2.223013488539159
-38.00898492850022 -23.05918736566084 -2.223036170968567
-38.315085782060436 -23.838307581707944 -2.2272948287364187
-38.251022880537654 -23.73668931985826 -2.2258167987392463
-38.21172797934966 -23.64491339302721 -2.2251462239203166
-38.104955270922304 -23.203853065654247 -2.2250195880192543
-38.18354008760709 -23.149657310050493 -2.2281612105297297
-38.16682421882791 -23.05518511894164 -2.228419348387982
-38.128807151030976 -22.986289081939884 -2.227674779352259
-38.41799151841384 -23.932005273254287 -2.2302894373654256
-38.36618801040659 -23.834777610742776 -2.229128775229129
-38.37395265405078 -23.721932633191834 -2.2303129169532405
-38.454900872881865 -23.897105978492004 -2.231949340965798
-40.26332944078862 -24.923538025224037 -2.1575609565284535
-40.21961646408967 -24.814974354633748 -2.152758887528926
-40.251322230838895 -24.34378608781506 -2.1407058691104757
-40.19808136691004 -24.21668954848318 -2.1351088879919375
-40.186717774439664 -24.200062968948178 -2.1341232872020033
-40.511625415099466 -25.118980784073017 -2.173071008602143
-40.3497009245343 -24.482135702992334 -2.148316683196974
-40.32472183537481 -24.275887928086803 -2.141626358251545
-40.57753244535466 -25.065024478115536 -2.174197017148105
-40.45435529162863 -24.25668796342645 -2.146102485965966
-40.53997458971757 -24.176017781661997 -2.1471524624299176
-40.81358518120539 -25.22956293525307 -2.188684373043602
-40.69672835850768 -24.923929636557542 -2.1748063005116864
-40.57062075976357 -24.15876556386411 -2.147765987875276
-40.906241354174846 -25.299173896098953 -2.1946640870221135
-40.907667881136355 -25.212928628175607 -2.192081496871984
-41.01781034819261 -25.362123801568394 -2.2012593376160163
-41.05642126422031 -25.294664111212864 -2.2007364354306573
-41.138829998959515 -25.43891180873843 -2.2086644831026536
-41.124640442353325 -25.313239833869254 -2.2041754827405713
-41.158858045100914 -24.702525743095872 -2.1871298462377107
-41.01381394688932 -24.25095293345385 -2.168044830668888
-40.93783989453025 -24.018303009832316 -2.158297228916468
-41.3081928086294 -25.14708634664968 -2.2068774549949537
-41.22233223336426 -24.441057251855266 -2.1819650426835264
-41.21178018664324 -24.377090703455284 -2.1796931565645568
-41.169442797518734 -23.91248950646013 -2.164365366858971
-41.05190434585153 -23.47551233460083 -2.147175364000344
-41.73676682969183 -24.59121380953798 -2.2078272283391365
-43.14330246627073 -29.949899738369172 -2.1348023421371787
-43.10323711527285 -29.902558170096665 -2.133638335510126
-43.315614551294736 -30.256731960444608 -2.1435386882354304
-43.29885964019531 -30.191842292590138 -2.141432439604703
-43.21500804047928 -30.052776884992756 -2.1375529695215367
-43.18694859965593 -29.998366987321813 -2.135934153649192
-42.06687194392812 -24.527911539719586 -2.2198499560012244
-43.59032255458284 -31.381141107417605 -2.176607917083964
-43.59064710945965 -31.35741551012924 -2.175857972135439
-43.4629789744775 -30.52792308973056 -2.1509330011877688
-43.4132275278117 -30.448780655832987 -2.1489390109547264
-43.34229524282207 -30.334436210316007 -2.145968460546027
-43.5346750442058 -30.61499545821452 -2.1528101420434744
-43.83390747242676 -31.063218884843224 -2.163122866520218
-44.212391268945716 -31.600484095805168 -2.1741801400913316
-44.17337001631975 -31.53079692836011 -2.1726715637109697
-44.12406646921805 -31.329439284257838 -2.167168787600005
-44.07816254108291 -31.210826357177872 -2.164122721512379
-44.01984206234044 -31.10213211595699 -2.1614772498750567
-44.238625715625794 -31.638595082841423 -2.174992128356779
-44.218282107940816 -31.472087094372235 -2.170233537142973
-44.18140623218515 -31.39207540397438 -2.168271472559834
-44.14532856011345 -31.262990677508373 -2.1647207358245346
-44.69565317295927 -32.125173925283946 -2.1827367427309636
-44.623389257130995 -31.959581675089137 -2.1789497548697043
-45.198291316062 -33.11931716064841 -2.202792458748788
-45.196440465549955 -33.01584672254781 -2.2002306920755084
-45.204690766132096 -32.95528679184466 -2.1985424486374003
-45.23839737090261 -32.906933549676054 -2.1969208516694634
-45.25173383162654 -32.81429055646109 -2.194346996812154
-45.220263976499226 -32.748068465585185 -2.192954289095265
-45.157141076482695 -32.6310965918234 -2.1906524461544348
-45.307544069806 -32.87797404062881 -2.1952684126242357
-45.32192941359906 -32.75474986216202 -2.191804026188345
-46.02237065566191 -34.25847540697581 -2.22075446032384
-46.014330982668426 -34.19074069421926 -2.21933509896343
-46.010407808926054 -34.08643621187671 -2.217022095281751
-46.08818908076521 -34.05886004797766 -2.2154998456493997
-46.148354972458556 -34.01599776878044 -2.21388726772118
-46.6242063393974 -34.94305731440615 -2.2300441798193607
-46.493836787160475 -34.69398387655679 -2.2258055717187357
-46.70554381620214 -35.06913787012704 -2.2319582306827654
-47.03385819918214 -33.240926581842196 -2.1824970165234294
-44.50078417560341 -18.228784802749296 -2.133078040029558
-46.2170427043493 -25.53177729969325 -2.136881797389615
-46.19471110360527 -25.49105586004696 -2.13423592780076
-44.69037906274469 -18.214361820145612 -2.140293027223823
-46.34018191046633 -25.64690420236339 -2.1453887760361794
-46.27022733420906 -25.57572306267166 -2.1402491477296373
-44.86592967009844 -18.45891429437924 -2.154227328755467
-44.839349125527484 -18.263970735197347 -2.147760741187202
-44.77918004037825 -18.236817998946478 -2.1444665224147137
-46.486875963208945 -25.792941856132483 -2.155978437262075
-46.431877883762354 -25.72949526930331 -2.151522710087489
-44.88769647616486 -18.348481254164714 -2.1521296420734917
-46.59293127607967 -25.889079236770307 -2.163048346600091
-46.53325804518378 -25.826836538665574 -2.158615387128913
-45.031019693684975 -18.448278816138505 -2.1606175382715573
-46.648568049474264 -25.93737354841901 -2.1666583193889313
-45.3875380319477 -18.470398970071948 -2.1755510719841964
-45.43733176756107 -18.47679199188073 -2.1779873015595106
-45.42280856152426 -18.345559268513803 -2.1735570994620868
-45.857201237652895 -19.53834915561477 -2.226600132780306
-45.96322624031476 -19.51615846319104 -2.230475239156534
-45.94331687699786 -19.307065196585647 -2.223204186886481
-45.825940375836026 -18.549966616076976 -2.195979686768239
-46.00464449424378 -18.392283979108505 -2.1983872481772617
-46.12797116729692 -18.30832335820979 -2.201192439788401
-46.82294327668609 -18.191452231607983 -2.2263728485657315
-50.89097363304627 -33.759875829143404 -2.141184844490338
-50.870324941451 -33.67786837518066 -2.1388400046347864
-50.902248586873014 -33.58614620491207 -2.135282752410552
-59.41549132095643 -22.006685006188864 -2.16026364265645
-59.50637444817927 -22.056383922096767 -2.1644349786258195
-59.67912866951292 -22.08756793531068 -2.1690606544083804
-59.76394478553337 -22.146620925182447 -2.1736337866184106
-59.88536980964179 -22.23189656011523 -2.1803489967199887
-60.05310909669315 -22.30641345196609 -2.1872276279738965
-60.17911880824028 -22.35360768940979 -2.1918084147888246
-60.49120888935426 -22.347013492810557 -2.1966304593593255
-60.73423106814715 -22.36166358353026 -2.2013363902359235
-60.86045723249249 -22.458311595600264 -2.2087180877366963
-60.98588416240851 -22.554259570186975 -2.216043432173437
-61.07487719100182 -22.61658788529818 -2.22081905744681
-61.24076282073244 -22.745959470153593 -2.2305693479742765
-61.1733755456768 -22.677036251594313 -2.2257961964512667
-20.10700482416725 -34.52939470717013 -2.0643381560201677
-20.3405616951083 -34.18596280756348 -2.0527280519544258
-20.477773406486396 -34.20990321037811 -2.056999005427786
-20.595629345795103 -34.23827610241632 -2.0608583858172738
-27.321350786746052 -31.996739259603597 -2.0990974338107766
-29.033225748872574 -31.64744022227219 -2.1195541911416065
-30.25209256323651 -31.314760139630515 -2.1300005598615055
-28.32220504298152 -20.17320806579494 -2.121105562401965
-28.462620782595685 -20.210759744063516 -2.1212614107560026
-28.588299708328798 -20.265131086604825 -2.1215634233983325
-28.6875967858643 -20.29537028549023 -2.121719009732724
-28.939299056495464 -20.40502783474474 -2.1223699579407804
-28.86078889335655 -20.39307267997017 -2.122315444694396
-28.992193571026526 -20.39468215164342 -2.1222866981468016
-29.09160722092563 -20.42867088085925 -2.1224997477850804
-29.342729395061422 -20.57732379018097 -2.123460914824723
-29.44563580915963 -20.589132017287483 -2.1235545576608454
-32.40823277853759 -34.466824754494894 -2.0665232049277273
-32.41399767104136 -34.36402556418474 -2.0636041790011
-29.54776836964286 -20.6298263321302 -2.123840558987351
-32.593978918154626 -34.88792510173106 -2.0887181449260224
-32.51895295008921 -34.51299535528538 -2.0735437830599475
-32.42374681207021 -34.10636423235022 -2.0560359808682978
-32.43863922892462 -34.03780192362608 -2.0546680366872785
-32.65623542316195 -34.649475512231476 -2.084566432409501
-32.64982995403044 -34.455296255724306 -2.0783725564924684
-32.53992976053554 -34.37190068035252 -2.0702121734006766
-32.55335409227088 -34.28127622405106 -2.068091423496764
-32.520448891126556 -34.200196474731186 -2.063950343733199
-29.80370855671774 -20.793502833625524 -2.1249400241398866
-32.75631318237639 -34.62139123351406 -2.0887232586005546
-32.652607679468524 -34.03229181895029 -2.0654036232780144
-29.900762470898464 -20.805408344749996 -2.125072592887323
-32.83780901815557 -34.490216199810966 -2.088872804690608
-32.77141465096153 -34.40483390159977 -2.0829466908339813
-32.697186735098576 -33.95204041935955 -2.0652207145972494
-30.046734392080403 -20.836572124298726 -2.125377008904584
-32.84220959702931 -34.36684466163207 -2.0852983163323198
-30.07883657427943 -20.92374797081145 -2.1258849210125637
-32.93166656902733 -34.307868428782136 -2.0880367335413994
-32.94262287815497 -34.03259099714045 -2.0801252246779383
-30.205976320991216 -20.940220995906664 -2.1261057731167172
-30.358699291767117 -21.03913841125159 -2.1268034688110866
-33.17928596678498 -34.42320149944285 -2.1038579089238185
-32.36034184063043 -30.209887928847994 -2.122609718806359
-32.25996477752169 -29.66985186570515 -2.0951635804241318
-32.190143807765814 -29.453337591104717 -2.083804484648742
-32.2131010773082 -29.4093738471162 -2.082331452448793
-30.44723079762833 -21.048540986060566 -2.126974537473368
-32.44953267667338 -30.33181284627486 -2.1303622712279826
-32.351805832643564 -29.72633179249181 -2.099734901866778
-32.342375261735675 -29.636229427200046 -2.095401646519471
-32.30495592814093 -29.500240464879464 -2.0883657399205777
-32.266119331994425 -29.46448052579853 -2.0859473906871053
-32.23705424586184 -29.36563376257578 -2.0808479752881808
-32.56853407653049 -30.23765111321086 -2.1284364719603674
-32.442496646964166 -29.800250406258957 -2.105078679026968
-32.43550434835138 -29.75154839215284 -2.1026847774579296
-32.41027975783574 -29.53539528492538 -2.092217342735161
-30.744251218225553 -21.274036415331953 -2.1285351619020307
-30.732363965177246 -21.210169270409228 -2.1282115344304975
-32.65324324055492 -30.200962834563605 -2.128498018037913
-32.630374195328265 -30.119823806994 -2.124126565714945
-32.62895238215563 -29.941850300770643 -2.1157117245885315
-32.567237125673536 -29.786724190689988 -2.1071297240543596
-32.25370387999628 -28.46993927566224 -2.0421504584877916
-32.74267026325569 -30.130553170434766 -2.1270625238158902
-32.68268086391279 -29.988287707429354 -2.1190363449958114
-32.62188245393272 -29.805954017190174 -2.1092035269583502
-32.56548986978724 -29.282318856100737 -2.0840594581747904
-32.440419434541404 -28.741212040043273 -2.057632654926711
-33.59101477013215 -33.832682105132804 -2.106555015339383
-32.82602233408841 -29.879159554668238 -2.1169695668129433
-32.68028606490499 -29.243765635929453 -2.08477160894299
-32.50090950805188 -28.663638666297857 -2.055581363816316
-32.512524135479175 -28.58739590828525 -2.0525868163412673
-32.51169673092207 -28.52072075978206 -2.0497448837965395
-33.759048054047085 -34.34203917613348 -2.1299367336341364
-33.684758914891624 -33.76053889180563 -2.1090868682782307
-33.66566956251708 -33.677252900365474 -2.1055947330646108
-32.82806061414828 -29.850739077022293 -2.1156939452852406
-32.70844375480173 -29.22289610382398 -2.0844082707672875
-32.73126724802513 -29.165253112858046 -2.0823374509951638
-32.76283970840549 -29.070006114399437 -2.078766657531429
-32.68812209322402 -28.825057249110277 -2.0664892769867893
-32.61663830558236 -28.787954930418678 -2.063377117923763
-32.58317852473489 -28.646753598736186 -2.0566204910007118
-33.82486465937569 -33.95362947459549 -2.121749342817419
-33.780373655348576 -33.74158400708068 -2.1132363865148003
-32.7892586865201 -29.10583277088069 -2.0809079147894227
-32.801458230559376 -29.045009839462587 -2.078498869558752
-32.81086747109214 -28.913495208857057 -2.072921439001635
-32.75681751042628 -28.860190600110933 -2.06946195617745
-32.691030768328105 -28.377537343075485 -2.0475222475380934
-31.314429588715566 -21.763000169037305 -2.131823393298117
-33.898162625504504 -33.682358525487075 -2.1172853551801163
-32.879183515406936 -28.9825401257292 -2.077383754292046
-32.850980358873876 -28.956824290303363 -2.0756502079103734
-32.74284965066904 -28.187568998014925 -2.0407616792825953
-32.73209253468475 -27.98086328919638 -2.032521260712018
-31.415591619892638 -21.745188058646008 -2.1319553528420863
-31.443485491148927 -21.701066760600728 -2.1318395809691
-31.398898828757268 -21.579921869739604 -2.1312491014687147
-33.58293554712708 -31.676662558880082 -2.037657827389637
-32.935105895814324 -28.47465021747862 -2.056760933226523
-32.84899580416945 -28.07104218521037 -2.0385060146442004
-32.811891894345706 -28.038707666096883 -2.03647036727744
-31.48600998127252 -21.577186183321068 -2.131478687182281
-33.28280779790833 -29.918052357254993 -2.1286219019322203
-33.292353548610976 -29.89818643638788 -2.127910693259467
-32.99744224103498 -28.451282619534794 -2.0570874256888425
-32.976361276798386 -28.149523154146088 -2.0442864605392783
-32.91708054556487 -28.106537977292156 -2.041348057462575
-31.564426746130366 -21.58959584796594 -2.1317525324136075
-31.585359444808823 -21.562681787111337 -2.1317299427374503
-33.052657731668745 -28.35874079547757 -2.0543818084694823
-33.11235212735787 -28.303586157855385 -2.0533722013050766
-31.638907543682624 -21.57104507024131 -2.131928187207393
-31.695791048657618 -21.531312899091848 -2.132002666224208
-33.755814124926125 -31.37473910509605 -2.0366695506966574
-33.15925375072312 -28.34227922530869 -2.055965577058436
-33.8433848245606 -31.182195137553606 -2.0347397200205934
-34.040520514181026 -31.618763260274992 -2.0598895554517944
-33.936549590169335 -31.042918074862015 -2.034939855444276
-33.97876207030241 -30.991383461898586 -2.0354098350110066
-34.06920719135804 -31.238953814119434 -2.0487208580795286
-33.425554526247524 -28.046949467181072 -2.049992906653342
-33.419104846558845 -27.948084761926683 -2.046090345123184
-33.41265426889339 -27.890880781430422 -2.043796133004522
-33.39450065647959 -27.827144191038816 -2.0410060770888276
-34.1462176746518 -31.097177263762152 -2.0480284767714156
-34.22171345626712 -31.024851202230476 -2.0495782368410893
-33.52484668552306 -27.722091539146085 -2.0399165169318043
-33.53855235286643 -27.659349451246445 -2.0378860412789326
-33.59064725973847 -27.523828823750275 -2.0340506154900764
-34.534458802141714 -31.209398459667185 -2.072359273455292
-34.40010550621899 -30.960648960804722 -2.056894854428616
-34.335869358378424 -30.693488648028257 -2.044242812264825
-34.563823566256666 -31.205914836880236 -2.0737707864666155
-34.50454041415743 -30.94716301189376 -2.062013016464678
-34.10767260462399 -28.135671228002625 -2.0681033613312643
-34.161108953023216 -28.130462427388263 -2.0690456247198115
-34.40867950232643 -28.387451143100296 -2.0843168825981397
-34.35212390736223 -28.134462171833626 -2.073332041831992
-34.49150024799297 -28.383095302070977 -2.085910843948942
-34.412329756560204 -27.762705762832038 -2.0608233073575084
-34.53471455765928 -27.847950299114025 -2.06662298963959
-35.289570179707354 -31.182341625759474 -2.1108758357040287
-34.62391892584276 -27.983199385912584 -2.0735465861545417
-36.83313165883958 -37.42504046748119 -2.0382241760122413
-36.61909197008196 -36.568320971581684 -2.037240804595861
-35.02989873091645 -28.71971208708394 -2.1113477726910164
-37.06660738289503 -38.102266375691755 -2.0409881961641534
-36.713765886480324 -36.658045445459074 -2.0406125027428796
-36.74550809230991 -36.636958410188925 -2.04221197373851
-35.095971751333835 -28.709971013145978 -2.112337989124398
-37.14031604031877 -38.3607907237329 -2.041310111742912
-37.18301685225278 -38.252314333097985 -2.0440552264835987
-36.790324672977235 -36.53286026180943 -2.0451338442222133
-35.53347174201294 -29.805816550526966 -2.0776004544603706
-37.407818777017354 -38.342215859527734 -2.0517820649111567
-37.29295230071138 -38.103157112271504 -2.049864975359133
-37.39491081992294 -37.799069306220545 -2.0568587498560142
-37.355120420197224 -37.696854033930094 -2.05637733069011
