ply
format ascii 1.0
element vertex 822
property float x
property float y
property float z
end_header
-17.36267795997474 -142.98066442350031 -7.764143248357325
-15.133007105667248 -149.5609991932772 -7.7036631446533965
-15.116315813542588 -149.53647610664586 -7.67367051250797
-15.644529464320536 -148.12477150738172 -7.66004093326691
-15.739079682191248 -147.90535668461536 -7.671099390911494
-15.733002637509953 -147.84332108516284 -7.651111085318359
-15.771188670674475 -147.67812694719478 -7.7189073290559795
-15.95677979024139 -147.27522933638076 -7.731240948341752
-15.99264037594657 -147.1898641939297 -7.710322808309816
-16.020147230737813 -147.0547331857873 -7.679595978704911
-16.053341372325413 -146.99310768034874 -7.705485122779303
-16.39448690928672 -146.01096926586337 -7.661566092025183
-16.444122980770793 -145.74232439948273 -7.6663715331544005
-16.60192027918903 -145.2320718135617 -7.672722416195912
-17.271454284012986 -143.53441876588494 -7.757155755332124
-17.25554966455424 -143.500124119429 -7.736164674981722
-17.394264457732223 -142.97960632257028 -7.7349620781105815
-17.472146038891392 -142.93806262703544 -7.6954146883524785
-17.51942325663206 -142.78571496886437 -7.769499032415309
-15.177971552021551 -149.67615347383085 -7.647222204437316
-15.757413856364956 -148.267735565988 -7.680936007159075
-15.79544881768533 -148.04878249199476 -7.70060183540475
-15.986556045372843 -147.45115822636726 -7.677074573895169
-16.044791335958717 -147.38221211977643 -7.733364249562622
-16.072276588877756 -147.25469621331152 -7.696021679410106
-16.064391749951454 -147.2252453395427 -7.734936120203411
-16.102867027457055 -147.09942042858896 -7.722954695670913
-16.467670496123393 -146.02320260340835 -7.668289743183554
-16.534772263614986 -145.99639569137344 -7.737725385969733
-16.65259218703106 -145.53523849206087 -7.670749423336378
-17.542067332595703 -142.88039882450508 -7.691908008162704
-17.58732215339364 -142.85006956773015 -7.711365412379518
-15.824296914887977 -148.35772651470722 -7.728668556438158
-15.792144366093954 -148.27517826399858 -7.717264703884922
-15.836945884648024 -148.11754581659494 -7.66334887258915
-15.840088296998896 -148.10688491655995 -7.70349538026494
-16.051842151845953 -147.48582349045017 -7.695120411543112
-16.127827426308492 -147.28423409759785 -7.7152986099029865
-16.177321791687287 -147.21169501983113 -7.704985719954615
-16.768341336475853 -145.54037567840257 -7.683595730429944
-17.66898981890192 -142.81608860739956 -7.696966801855346
-17.656837959048143 -142.80279828047824 -7.701005178433084
-15.860274331893327 -148.38333925761592 -7.736736864226803
-16.244948080499057 -147.27332576151446 -7.69327735453261
-17.57541739235381 -143.37705987006396 -7.738980107943231
-18.00802848447789 -143.28889597063068 -7.742902954668428
-18.01716281129501 -143.18617152652624 -7.688386600953149
-10.344871832585367 -148.1715829288296 -7.5582330826543656
-10.402268762112264 -148.11595330864273 -7.577356389720017
-10.596697029650189 -147.95179741889828 -7.620520883405886
-16.054387818666047 -145.1986202497149 -7.592223367814379
-15.46411584516838 -147.24884959570952 -7.569999730817554
-15.440710378888763 -147.2176830069598 -7.575247306693116
-16.120266817749144 -145.16824014267252 -7.589218482424163
-16.166258066374315 -145.14303345416963 -7.622250669857757
-15.510904191961624 -147.38125127097823 -7.586468286352932
-15.473191079655255 -147.32998624565482 -7.5964599648463
-16.208219853299006 -145.20072037753127 -7.627858255559132
-16.271259662558005 -145.15560772689741 -7.6030017872729
-16.318850068508908 -145.05665224218157 -7.587730406122328
-16.35573201287886 -144.9457429329423 -7.624737629841227
-16.35975744202452 -144.83291248163232 -7.60904264425387
-16.41463021962954 -144.77411203142583 -7.612595156313715
-17.251671798904933 -142.30348690549255 -7.66577113472219
-17.31132792091479 -142.23882664554984 -7.650249183953059
-15.57442300940273 -147.4491884536292 -7.580157268358782
-15.624587873557948 -147.3843890904655 -7.641944820736752
-15.825380105665971 -146.7872044027636 -7.617235430406158
-16.312233642221415 -145.18205153498926 -7.571758486852832
-16.378562016755147 -145.05269727898795 -7.615483791007327
-16.420662293740346 -144.98138148571596 -7.624729303603104
-16.464971426710253 -144.90230643999985 -7.624062384159269
-16.480523859476886 -144.77240274158106 -7.604644136398909
-16.51523603677719 -144.68660086217022 -7.628270241888235
-16.555053665052053 -144.64458087974296 -7.628761710582149
-16.582520905454587 -144.49885077640624 -7.607209263207565
-17.339779949842878 -142.25446763738896 -7.616731926053676
-15.673565620415637 -147.56996115161556 -7.574918494456929
-15.859504630036572 -146.81145377393253 -7.610509051414286
-15.974132629042161 -146.67850824982102 -7.584328479735975
-15.95649177018527 -146.65796785896254 -7.588464480130855
-16.31962731929365 -145.72272260362777 -7.630239997587572
-16.524593531079308 -144.93513706227662 -7.65159239590619
-16.578229258309403 -144.8342028746737 -7.5939194930199445
-16.645137015652807 -144.62467068515002 -7.593140012115246
-16.699987633290426 -144.51047778982675 -7.639269172690475
-16.741412584815784 -144.43285104842676 -7.608727930513691
-16.77183665785599 -144.3890510128731 -7.5639046808656945
-17.217126581399754 -143.05403962287974 -7.635938050371519
-15.688914482102394 -147.5840338912733 -7.561795067997628
-15.860782286358138 -147.34963927979484 -7.6118886649057815
-15.925547653392222 -147.109002668286 -7.6179365762265245
-15.967990610163355 -146.99014342096046 -7.553789320415843
-16.021286195222462 -146.86686553878886 -7.640346796624191
-16.00997820369596 -146.71552845411566 -7.603805070785946
-16.0044388557682 -146.6699955054133 -7.5752887897366
-16.284277825325354 -146.05202919896797 -7.614158831456605
-16.29962849309852 -146.0201438327353 -7.628025521049409
-16.35707274668376 -145.7258691082231 -7.614702044571319
-16.4449108413367 -145.66639005303813 -7.626072800462574
-16.56147136082174 -145.20320663825592 -7.6146387798132
-16.65482280358802 -144.84789383691765 -7.588951624265441
-16.769064525913123 -144.73625924565238 -7.629138915256219
-16.788299139506805 -144.6274005838314 -7.633384081283524
-16.80738517228106 -144.62079575094285 -7.636176079504911
-16.77161774730186 -144.49232926990402 -7.6148267013955415
-16.820314361647043 -144.40794270419565 -7.590671541683616
-17.313759497792937 -143.03880669453252 -7.618434835901765
-17.31857428560232 -143.00165784246838 -7.626523866932949
-15.706771391481126 -148.04537651007385 -7.574036868707378
-15.927251234298547 -147.42360927724923 -7.619481924554141
-15.876803049165755 -147.36853015900766 -7.5982171848887905
-16.01552883837403 -147.218098443143 -7.630998416851303
-15.964253694292319 -147.13313362565563 -7.580209764077765
-16.07346858155123 -146.8843165738679 -7.632590010517893
-16.16269539131658 -146.66491562390635 -7.623340472325539
-16.20747768488933 -146.61120516949785 -7.5654993499014545
-16.26987995855978 -146.28885406519242 -7.559673433231669
-16.329539465012207 -146.05700367001472 -7.617579032801107
-16.33358646520622 -146.04079560772072 -7.623189006147541
-16.465133287260233 -145.70326490295676 -7.619230805486293
-16.49553812273924 -145.66622410910608 -7.613615718576722
-16.572808945147727 -145.39061106135466 -7.646324005059921
-16.655444288048493 -145.22864509977225 -7.621763096613035
-16.66279349763668 -145.18716077139376 -7.580793838147983
-16.848402202175606 -144.72310432005312 -7.6290896615087
-16.863984028646783 -144.59337202359856 -7.63509566981373
-16.893539648445422 -144.45903504668496 -7.598204603727723
-16.934269255196018 -144.45434404649728 -7.592212714468715
-17.016984047544987 -144.29445482096023 -7.632530012641959
-17.000803717042473 -144.19592019812103 -7.609875430604788
-17.425364079854507 -142.9784278045507 -7.633240131494903
-15.761738263799092 -148.11999583006823 -7.594377507475431
-15.794045070141266 -148.04967488244822 -7.601543814448409
-15.775542830666144 -147.95403492797524 -7.639986781826081
-15.989911822976984 -147.47775839903085 -7.632864072339011
-16.031889417330355 -147.2301481471502 -7.628254020432497
-16.03746764834348 -147.1824235495378 -7.59813706768225
-16.220354282316514 -146.69822670265592 -7.619292241668293
-16.22994204767634 -146.61133058646863 -7.554130087743545
-16.623181621101384 -145.64267644469624 -7.570093736451534
-16.6657602188942 -145.56357704111042 -7.5907084036962305
-16.65073464860505 -145.5228807514675 -7.599405912301967
-16.685045702139774 -145.3755351237342 -7.610714535861424
-16.706255690101326 -145.24501978861682 -7.626738545902101
-16.732352190514824 -145.21399505645823 -7.596689702461731
-16.935242086228747 -144.5909652653617 -7.625264984138543
-17.086079011401537 -144.25157951021913 -7.636374770773193
-17.135354480655536 -144.15896917770132 -7.591997392764178
-15.846540756018767 -148.26573224126076 -7.6029047184048615
-15.840254176668921 -148.17820000347203 -7.605024276442212
-15.854982598313786 -148.09322914005114 -7.60846843143669
-16.748089429405283 -145.537158909884 -7.614152197257172
-16.776567187785492 -145.35914476379196 -7.599004839515869
-16.815649939940368 -145.2459268553309 -7.6006763477147565
-17.500337053204277 -143.50704923603587 -7.606889030887067
-17.65610637236204 -142.8857719480623 -7.586715081351441
-15.869155599425788 -148.2694937731987 -7.599948609408983
-15.909710606637537 -148.1851144863579 -7.588237211325248
-17.777745970519295 -142.8005204944348 -7.5754541696789195
-9.940002444528924 -148.60548035561555 -7.506146673177408
-10.066657421494067 -148.49240933668816 -7.496309197978535
-10.117355616903275 -148.46647991120483 -7.517104090652143
-10.1367634401386 -148.41264636748062 -7.503411906781946
-10.17217441285 -148.34750692265885 -7.492736419610244
-10.25118839999837 -148.29936449188543 -7.517606554804457
-10.267505637091514 -148.27069568767257 -7.522496814915479
-16.174035641715637 -145.14201589044677 -7.554564528586536
-16.367700410713013 -145.03982094645573 -7.550491627243754
-16.44022130887977 -145.00040506607897 -7.544294184952999
-16.490930070194302 -144.87821901357438 -7.542237288638194
-15.654873599901746 -147.54151438345303 -7.486680306625809
-15.651953515502678 -147.4582577465306 -7.510823824823157
-15.715124339518965 -147.41164968951648 -7.512107553324174
-15.752854356738178 -147.33248753541068 -7.530558995207619
-15.908644235357144 -146.8955754633363 -7.493083880202949
-16.150362793578125 -146.1130458754597 -7.547915650590677
-16.44798161047867 -145.171909836661 -7.547724969860841
-16.546324242112906 -144.89977326417892 -7.527576475390567
-16.58935006770778 -144.8555577174543 -7.543744545628057
-16.613399705332352 -144.71330826636552 -7.529829993123774
-16.664807840073212 -144.61014835610385 -7.556608066947607
-16.7440677523522 -144.4057295375359 -7.558054669471127
-16.716459107627045 -144.38708212903921 -7.541101777457235
-17.250704544431027 -142.92108967330523 -7.489324051459459
-15.731726229554221 -147.61661046128012 -7.493230152141453
-15.75825206667014 -147.4723074622348 -7.516740513008923
-15.773733146162911 -147.383933207694 -7.510126888087044
-15.976031735531176 -146.94319975748934 -7.509986456779477
-16.018301794111498 -146.82572062818207 -7.518347216311766
-16.06616146075789 -146.6656493111066 -7.510342965366483
-16.25725355760369 -146.17699755108407 -7.536074446186389
-16.566075642324634 -145.02731744642074 -7.503942848963452
-16.64145190713319 -144.93883105629428 -7.4964967725051785
-16.66514985857394 -144.85477742336323 -7.524444603983297
-16.76299776079572 -144.56826130148409 -7.532342597941052
-16.840064158532527 -144.3734840114572 -7.559572658889163
-16.881673150070824 -144.3291734755328 -7.5490013124514705
-17.325667458067674 -143.04834655684323 -7.534801353782543
-15.772365916865342 -147.6589053912909 -7.482689741469194
-15.815093814411487 -147.5077536052365 -7.45670502556791
-15.985955697789523 -147.15098600853472 -7.483274795861351
-16.014287934455904 -146.94039273855026 -7.514485244833785
-16.0533178306773 -146.84525885113197 -7.524914833403506
-16.101316170131877 -146.70113287950892 -7.472126977663563
-16.21051283106081 -146.64194066104142 -7.450988233248836
-16.256674351135274 -146.36312285202442 -7.521272340412552
-16.290014240759064 -146.3388695841643 -7.542605969094858
-16.320227599898057 -146.22121498519925 -7.530016540579431
-16.709687160295324 -145.17989971795978 -7.5565334177749985
-16.732375737219712 -144.96722225629634 -7.47641316553222
-16.912794032015945 -144.50493932682744 -7.476705533103145
-17.43798247217394 -142.98656116558772 -7.550559820006164
-17.496257713660725 -142.73169569315874 -7.553825494786404
-16.103863996838196 -147.2578127734709 -7.486073827407498
-16.077674106529198 -147.22534876605118 -7.4771375532356865
-16.188955159468918 -146.9249081964197 -7.453406061263166
-16.252964545682357 -146.63263132149348 -7.5170582313634045
-16.371563415057313 -146.2588385672364 -7.524461934133524
-16.59722340032354 -145.67668044534116 -7.550300971605955
-16.971186939455876 -144.4864771884057 -7.489989016465033
-17.020336062296266 -144.41755032640927 -7.505976900269431
-17.07000819094065 -144.38663707843907 -7.474063750216423
-17.55868922074946 -142.93252539261962 -7.511801082399115
-17.598569083647547 -142.7007449661086 -7.537012132142318
-17.65100370874386 -142.6740041999102 -7.512616368234978
-16.117143006175432 -147.25901931128791 -7.510978623429022
-16.121460670988284 -147.241727527119 -7.516963607979253
-16.311356126770697 -146.67572728429775 -7.471917785306161
-16.68617335163964 -145.66920294493335 -7.536706619988462
-17.142936518927883 -144.39420898946005 -7.497808356308191
-16.809109713078122 -145.62161606144625 -7.509111560199304
-16.860679141056135 -145.5640262353233 -7.520114825039075
-16.991022302604502 -145.55670940999127 -7.496157155180379
-17.750174045341893 -143.41414875322343 -7.545922711799942
-17.80294900086068 -143.4102595839256 -7.537112024096884
-17.8930406567613 -143.36944465287547 -7.5105494816722596
-17.967382154799754 -143.33569242211928 -7.535235249174771
-18.196016879319206 -143.42308557977745 -7.5694054104551185
-16.991789886869334 -143.1758013896716 -7.438023098664225
-17.04928937869392 -143.15897108681372 -7.430658964905857
-17.162161412276706 -143.103584566844 -7.397475529724773
-17.306599172313135 -143.04243169401687 -7.4199707635673695
-17.364718425751253 -142.84312922837603 -7.441642110223259
-15.065770167699197 -149.9256015333235 -7.383381967797956
-15.84593282481747 -147.53514707532338 -7.438503190357345
-16.008126648739353 -147.12263542035078 -7.440728316537157
-17.46191334481938 -142.7932890898848 -7.4471158293728035
-17.54096175096043 -142.74154958262653 -7.420515420557569
-15.110796558358475 -150.089711582394 -7.378427518278222
-15.088094732893401 -149.96559022720044 -7.384519523595459
-16.20926812581519 -146.71420115907227 -7.410908886326177
-16.651353055897573 -145.59234007696207 -7.430446595465795
-17.01843358331355 -144.4378720316004 -7.453627973236134
-17.087264539895884 -144.38104667927263 -7.455285877811132
-17.51656731416046 -142.98233254398798 -7.40166047212395
-17.589126522840605 -142.9399914274019 -7.405613764996522
-17.679713448748732 -142.65685585134074 -7.4688497839961405
-15.146201207385982 -150.2081164475564 -7.389761886633674
-15.138032035368267 -150.13882281334367 -7.386050419028592
-15.907421089906357 -148.02155474816487 -7.38653741329382
-16.79380150813035 -145.57558334651426 -7.425498980193259
-17.147603761149508 -144.34659600105664 -7.442757862930712
-17.20223859014498 -144.3145653204609 -7.412773861322028
-17.701455704763696 -142.88709309792333 -7.378319013816349
-15.150209893692757 -150.58259344355844 -7.328616806400077
-15.1741205465187 -150.4673418416932 -7.361354387527025
-15.19233207689721 -150.3734103128125 -7.365050326908219
-15.173575327112962 -150.2834422990786 -7.378803845900116
-15.979313049069638 -148.08337204299065 -7.384331232480152
-17.25040922982738 -144.2919811077454 -7.397576044781457
-17.807033141349848 -142.80384440087104 -7.397321276749579
-15.228631044169694 -150.6512084180634 -7.337900269953607
-15.183626091121646 -150.59387770602908 -7.328506105790068
-16.0255198780824 -148.1177661385179 -7.401545816537779
-18.143519882341245 -143.2840622042027 -7.459966313356232
-16.975280786393498 -143.47651649534077 -7.279040421454744
-17.02046102740872 -143.17179272805035 -7.2964989674123135
-17.02793725230197 -143.45668975036713 -7.278694979548377
-17.112142308997772 -143.42243660138172 -7.271550436542286
-17.12340143630221 -143.12731674023746 -7.342639863756819
-17.13761145924515 -143.42034194148675 -7.290782170750212
-17.25805572092019 -143.04308490901542 -7.287256159073028
-17.411644219092285 -142.79351598271296 -7.373629525977469
-17.376683624554566 -142.9864333629585 -7.334835675840574
-17.46256836934421 -142.78229446956414 -7.3626809897215795
-17.570372287351688 -142.70429022196925 -7.36055847823044
-17.63911876682546 -142.69768132997282 -7.32880494597982
-17.66027965357893 -142.6718287627313 -7.326271630450277
-17.71478244812091 -142.81034629657714 -7.35016972791323
-15.192824800241423 -150.691437483895 -7.263286377874699
-15.248835658883449 -150.73171380715962 -7.242820753617573
-16.9526707898533 -143.47059842997928 -7.249240074748622
-17.00491473616841 -143.42088344067056 -7.201063807579786
-17.10197635759552 -143.12285632656562 -7.214233730654909
-17.03413303063427 -143.40226929816401 -7.181488163035087
-17.16207046307774 -143.0928234892836 -7.22635761213659
-17.188035837326673 -143.06574635635457 -7.198036195985987
-17.62287530601974 -142.69268939760158 -7.235796067915356
-17.676890065129047 -142.65922061385044 -7.192226061189393
-17.704128636066862 -142.6668512420175 -7.209229410489208
-15.221735121559606 -150.64504505128593 -7.19200686773023
-15.212459518348222 -150.6181908650945 -7.196721557349166
-15.274945717021463 -150.79859162046827 -7.207238134390144
-15.304340455591444 -150.8567331516467 -7.206701998429631
-16.740754549171847 -143.49746668610285 -7.106253814955386
-16.79373987614184 -143.48867094895124 -7.100387943883855
-16.882595026889348 -143.43158929315487 -7.073050112610828
-16.99388868030327 -143.16744882111303 -7.115477929799957
-16.931559182069265 -143.41183839226295 -7.069327133039098
-16.98285044296992 -143.404533264046 -7.1187299166058535
-17.039803954472102 -143.14780961856718 -7.104374641115194
-17.10058274175747 -143.11411938116095 -7.123721683924829
-17.053360002986047 -143.38231920050794 -7.1361394778597615
-17.11849942636309 -143.35064324835105 -7.072744226726945
-17.146369929305642 -143.0844537050512 -7.144045963660618
-17.241970203191713 -143.02613237395832 -7.1441583993867965
-17.17423899396968 -143.3133370481321 -7.088462216256509
-17.675939656820216 -142.63823830181585 -7.161535200652665
-17.71317451623507 -142.58404763274942 -7.122606870318828
-17.765367251874252 -142.58497268613039 -7.141717717906807
-16.8469920816902 -143.41971985363708 -7.034142747327799
-16.897228011306442 -143.23340093574922 -7.002867486121678
-16.973771175271274 -143.1898057884583 -7.021525197856725
-16.91919175908425 -143.4185038264442 -7.0388213528710395
-16.974752267749878 -143.39249255707296 -7.03670933834847
-17.03456696311811 -143.16090342076353 -7.039114434139348
-17.066562634280245 -143.36422691432782 -7.057793491032321
-17.11874656735487 -143.34239599698915 -7.042228609582135
-17.27759065640381 -142.9034878035291 -7.03050127769611
-17.297920191353004 -142.88152119416046 -7.045786036348252
-17.17526907033455 -143.31098443475204 -7.044204754567977
-17.364370003558314 -142.8536441045646 -7.0090112617420495
-17.415616011132542 -142.78565356612336 -7.042537930471552
-17.512541737446846 -142.8553882209422 -7.055698559557575
-17.52875236903813 -142.72328651385644 -6.991546548756923
-17.651507266693216 -142.65270611211264 -7.001287443595978
-16.94471296452761 -143.2367101687815 -6.92340441090234
-16.999641078795754 -143.35542581329847 -6.928485098463946
-17.003793109766697 -143.2574755314957 -6.926357971852541
-17.031013061421657 -143.1890354750764 -6.899201243430783
-17.07788924772917 -143.29641901407544 -6.893587737599739
-17.333195473972616 -142.90774670704377 -6.924092249146772
-17.511907529302754 -142.76919698326182 -6.922977649964331
-17.549384264909474 -142.7081764048541 -6.960951994110372
-17.61505073385597 -142.742236796066 -6.880424953634237
-17.67604332408286 -142.62671538656565 -6.909625690205324
-17.05937592345556 -143.14497685733684 -6.841377111160086
-17.083175426392263 -143.11157422888513 -6.797600275171327
-17.15129921561941 -142.98394116869162 -6.815476363563512
-17.139550618317458 -143.19324425742772 -6.859489346171466
-17.144875482792386 -143.13512438820044 -6.832561113077571
-17.191985013199822 -142.97887318213776 -6.807404531553805
-17.217208278570972 -142.95475733816784 -6.7994971194399225
-17.39807790094713 -142.84170072456047 -6.780277210715646
-17.41905630782941 -142.821912857768 -6.8003803555774445
-17.499302966964493 -142.80362994306 -6.850866195608521
-17.610321498512647 -142.72683375541425 -6.83308545552764
-17.6808837271805 -142.67508821531104 -6.834727165332556
-17.746323072878628 -142.65481932179668 -6.8104602785184865
-17.235793835738036 -142.9222096028534 -6.75264372154726
-17.328549583048403 -142.88451730434193 -6.718644629414216
-17.500501988968768 -142.77778004600066 -6.758730408561797
-17.54855350480495 -142.74809453414565 -6.71391197761409
-17.613463605489347 -142.71373486225974 -6.734822168081248
-17.687297369829267 -142.67499855682843 -6.73903934296921
-17.223506067574657 -141.97691223096376 -6.596432995363362
-17.364966632919977 -141.8793428311801 -6.613741108572105
-17.40562601758887 -141.84429398989568 -6.597614400658841
-17.461630966478623 -141.75321573345153 -6.589695503575305
-17.411810799011278 -142.80298766186814 -6.6467892330636325
-17.51155159961268 -142.78042685042544 -6.612032699675651
-17.3350976874306 -141.88494407287567 -6.5649001903411115
-17.418429690232973 -141.80760050562216 -6.515086597443433
-17.401854288109046 -141.72850648032582 -6.487138339633008
-17.5909404956728 -142.7121250694783 -6.571824511272005
-17.171277948260105 -142.23147208952537 -6.386039792935204
-17.37835384220319 -141.68336392325173 -6.402837864402446
-17.43596786184735 -141.71964596334905 -6.4659020382653125
-17.34476712137464 -141.52299149801252 -6.3455338697088095
-17.387763970109045 -141.4763996517379 -6.3094577012035415
-17.35135676525888 -142.08122481389563 -6.284199496359357
-17.365980675871324 -142.02210287923006 -6.322071265387304
-17.411025454948053 -141.89479329853808 -6.310354579807534
-17.4221746100267 -141.63825367432796 -6.367391416588548
-17.457182085463888 -141.93877176785364 -6.284907616929382
-17.48362643636935 -141.81966318253856 -6.2797452376499585
-17.48316228446765 -141.96676144295043 -6.238025930568099
-17.542066285418862 -141.8636340556784 -6.229317837122261
-17.586083193269452 -141.8758090082117 -6.21927918357701
-7.888126285694918 -168.18398532091805 -8.342124772839338
-7.855908462708902 -166.59847546810636 -8.309673695104221
-7.786414762053803 -166.43504601887307 -8.305914980245905
-8.392100737649937 -166.67044737707997 -8.314236005557671
-8.856173915205211 -152.64249193453094 -8.346486639635462
-8.787463906583662 -151.01516362819152 -8.275131524845785
-9.013716045448868 -151.6202422666484 -8.296273126056793
-8.877923845634104 -151.19117114225327 -8.280429697023383
-8.848454398727204 -150.97102846417204 -8.271713621734508
-8.9695263994059 -151.18145765582616 -8.277840534831416
-8.959096423399924 -151.05081493757345 -8.272428940841712
-8.944610746924873 -150.98745326042973 -8.270033552496223
-9.218928027903036 -151.995976164796 -8.309199782956348
-9.275810608504155 -151.96190783478386 -8.30652958668602
-9.101423017618112 -151.461235453394 -8.287224648426816
-9.120030754077135 -151.32737409461987 -8.280804437410726
-9.102959041033206 -151.2436227828402 -8.27745003460792
-9.058683353442895 -151.17561161264064 -8.275499828209655
-9.36066735070537 -152.11057566033733 -8.311867135116003
-9.375124967081934 -151.57763332035776 -8.286694453687552
-9.343868718197628 -151.50945452845428 -8.284194617182962
-9.336219433448514 -151.40913115961825 -8.279762985355637
-9.302705004505913 -151.32048740811956 -8.276466270629477
-9.448825156968109 -151.5629769577811 -8.284502598025325
-8.569065639772287 -146.45428576056318 -8.33836006002076
-8.588998424528825 -146.42287308478424 -8.336300259441742
-8.627046786635919 -146.34316854776978 -8.332044261382896
-8.873878721530833 -147.2478451293941 -8.333261083830152
-8.769649256630437 -146.4484726359097 -8.32231551418177
-8.691249531866168 -146.375568229538 -8.327434963871877
-9.000177910468162 -147.23671500977318 -8.323402561802157
-9.02562975395347 -147.1704183459208 -8.319403033285946
-8.762258417285434 -146.3440627854409 -8.321223330376462
-10.211019776373934 -152.8878105292902 -8.336945842005056
-9.079039734401915 -147.26153737371456 -8.318198771288998
-9.06612819772805 -147.1920035052626 -8.316999731252222
-8.861586090533166 -146.15185472525332 -8.31063100131273
-9.498893815687047 -148.57883587387155 -8.345083308863979
-9.410692132647739 -148.48423481909282 -8.345887514315296
-9.426909368811987 -148.31770661441448 -8.336491248794946
-9.639560805816398 -148.7974425138903 -8.349224727751348
-9.540378115505195 -148.45854492281518 -8.336208123405108
-9.517907593527408 -148.41795618949322 -8.335606563542678
-9.116874243798549 -146.356663978335 -8.29322514479182
-9.729991843360265 -148.60420190882624 -8.332630661278468
-9.708804261698015 -148.50777464945875 -8.32838292050755
-9.61028843262293 -148.3620009396934 -8.326792603309936
-9.622663550993959 -148.24636125256004 -8.3202319839425
-9.58219904989927 -148.10525431375652 -8.316004095250571
-9.603076941426163 -148.01128065444678 -8.310228270183629
-9.72790379062181 -148.56053734936123 -8.330236791976262
-9.793511606506119 -148.48618907939806 -8.32210406741846
-9.671573364408701 -148.23250730784497 -8.31630869635886
-9.668067064614757 -148.069721239832 -8.308631971623454
-9.652495890875464 -147.99944833657904 -8.30630225679261
-9.52194060701779 -147.21781126943475 -8.28379394788665
-9.810764053088679 -148.45037294520327 -8.319018017454496
-9.807939855220097 -148.0556614303298 -8.298728403117941
-9.547084129251562 -147.15596298155626 -8.279909063558792
-9.431859280715774 -146.60446558583894 -8.273262103235991
-9.989737879616785 -148.56919566468838 -8.315495170211527
-9.849825018677912 -148.1254563277056 -8.29944390980763
-9.868069669978212 -147.7855098102833 -8.281886627217355
-9.85784033174945 -147.7542287522253 -8.281157114676182
-10.089938815488297 -148.72070684533332 -8.319145029861838
-9.977773832598082 -148.15483308393502 -8.292728181006588
-9.880486085351283 -147.80507064381598 -8.281968297270803
-10.071808010209104 -148.10396735419414 -8.28406858641701
-10.063772550831281 -147.9171718237931 -8.27511960087467
-9.969576894372988 -147.70365788089129 -8.271320055850573
-10.524550819190312 -148.8648458712175 -8.305799035965647
-10.017246792300085 -146.0984557770054 -8.349525261106924
-10.006191050172934 -145.9688231979542 -8.348219817059675
-10.66358370804423 -148.83373786870843 -8.296857693554943
-10.75657712322853 -148.84595162831988 -8.29328342833198
-10.732223554905245 -148.80351397455283 -8.291475319549226
-10.334162559597171 -147.0006683727763 -8.34828237587727
-10.366541539463412 -146.8588111448147 -8.337756431704916
-10.348043949518647 -146.81178266643423 -8.337470063532582
-10.343578391624806 -146.66422688996857 -8.331280936316091
-10.176094117101453 -146.09243339730372 -8.331229481890471
-10.145502244149665 -146.06091450386415 -8.334075066363962
-10.17094191079911 -145.93384316912534 -8.328660974117788
-10.067975954808654 -145.53905940111022 -8.33646009966962
-10.527465387581254 -147.20327329233908 -8.339941022451601
-10.472194232827352 -146.97605696891762 -8.332649454149124
-10.450010603162696 -146.86276933712577 -8.329106396915973
-10.41343406634163 -146.59860811344777 -8.32095695558795
-10.289094733993299 -145.99066937155752 -8.316140352090926
-10.173342556315298 -145.76811623608842 -8.325927203943372
-10.213457652362436 -145.7048729545597 -8.320629043338212
-10.191927587400539 -145.5887035242721 -8.322227387489972
-10.14655207393957 -145.56048081228863 -8.327389550220191
-10.131174088256582 -145.43714302503156 -8.32885504595173
-10.131951177940822 -145.1772957894308 -8.329839020445423
-11.864439164139801 -153.25185328498793 -8.344779361613105
-11.806622837557168 -153.01842817081305 -8.332185955656898
-11.768374785669833 -152.94715235988673 -8.328407693543136
-10.542502877606278 -146.71575238325846 -8.312162437522332
-10.502816692951768 -146.66730771302218 -8.314244254479068
-10.392459442770711 -145.93047719918036 -8.303064796822927
-10.393382672534111 -145.8595874858066 -8.301732350796167
-10.338745975544386 -145.7269501213764 -8.306271570380918
-10.270012156361943 -145.6261151967046 -8.31339284976508
-10.27993676766035 -145.45883440218603 -8.31154442839147
-10.251364780227798 -145.41175133423408 -8.314865189710149
-10.204114948698653 -145.21750552209085 -8.321125646573263
-11.14193951923131 -149.3267177893798 -8.312235026356687
-10.480194519992045 -146.04266512993914 -8.295393028826954
-10.429680382344472 -145.8468219128146 -8.297368398583217
-10.431392083918059 -145.6261615274704 -8.29457394090972
-10.396049611556691 -145.60571364076787 -8.298538769436847
-10.397362079657324 -145.4910488799918 -8.29788706164544
-10.354593719071735 -145.39963685864322 -8.302789499382872
-10.285729550846177 -145.24533563004277 -8.311447891935016
-10.319988352150842 -145.15583318801683 -8.30818954071944
-10.271634734297539 -145.08996403741358 -8.314489825974231
-10.267154151912253 -144.9671599328141 -8.3166776999177
-10.244199449716618 -144.89980873446768 -8.32041430790922
-10.211867268479761 -144.80922737820563 -8.325844427554252
-11.874775344306736 -152.42817480716604 -8.29992907524753
-11.308281326986485 -149.52983888480466 -8.322164781077307
-11.225026534751143 -149.34833676604404 -8.310850860944225
-10.637321791015918 -146.09948674750387 -8.278923022786541
-10.457958533874805 -145.3595324108579 -8.290823835565849
-10.388772485028916 -145.13851605526878 -8.300364538257753
-10.330579584344699 -145.03617736875023 -8.308363457040103
-10.408721177242567 -144.99814261821373 -8.299811904686951
-10.315515863668498 -144.85911122456855 -8.312911134368907
-10.320101744753458 -144.76105790483888 -8.314429173387932
-12.159014736247334 -153.08221946735824 -8.33523293497069
-10.670805837498845 -146.1027060254928 -8.275174745277685
-10.549993484468429 -145.31114089513548 -8.280255993977528
-10.494249616343408 -145.17599821344552 -8.287670589845753
-10.452727917025875 -145.06287218941944 -8.29381736621323
-10.431210256444093 -144.81650391805462 -8.300459713529381
-10.41885658344172 -144.77913348297147 -8.302679461391017
-10.902000468067275 -145.9752216605631 -8.347280808853192
-10.86001411608799 -145.86790690633046 -8.350491822949408
-10.858312602523334 -145.80175497849973 -8.349211045519878
-10.835663138836738 -145.57534583924107 -8.349135598755852
-10.663168339719242 -144.7760513438331 -8.27476124232389
-10.604367329698642 -144.74143673167254 -8.282340979788856
-12.383007201825555 -152.61635720132114 -8.30980291383125
-10.861894839105737 -145.56870694442406 -8.345099519315218
-10.81912832789318 -145.35644318218948 -8.350983468160932
-10.698679132204834 -144.7023058550125 -8.272627797902327
-10.656655850389827 -144.22711544866843 -8.294372329971102
-12.448870679804136 -152.60658301026893 -8.309329813334596
-11.060167040554889 -145.73985180796566 -8.31750029351436
-10.899031068608398 -144.91781755765922 -8.345368333575438
-10.880191566961932 -144.85449680772587 -8.34995775795742
-10.884215207016307 -144.79407009107746 -8.351236148361115
-10.765411001117805 -144.3660102792693 -8.276592068797841
-10.73384693251017 -144.2859501777223 -8.283412349672098
-12.531119135006616 -152.6636518654564 -8.312646875943205
-12.510503666340789 -152.63008097662336 -8.31070550341385
-11.105445533946105 -145.75623160082912 -8.310996161022684
-10.989779231112676 -144.90364102446748 -8.33211123634792
-10.964163762003544 -144.88962959382633 -8.336365121132012
-10.933865023111416 -144.75861255352012 -8.345051447257195
-10.83052049000794 -144.26501942373056 -8.273823625662473
-10.85189835364653 -144.18151526324576 -8.275377487583311
-10.820945635399793 -144.03719757628224 -8.285907700507297
-10.769836200781938 -143.8939078299818 -8.299007317351034
-12.626203486544213 -152.38534384774616 -8.297485672145026
-11.195180380812722 -145.66519179821637 -8.295783397955363
-11.045044715333933 -144.7857144611135 -8.327610182877605
-10.99663248954578 -144.7796683868647 -8.335003048701621
-11.012399407756948 -144.51586349009898 -8.343794890082638
-10.977970958157536 -144.46139463882105 -8.351467429845169
-10.888272407183102 -144.14335103422778 -8.273413299305089
-10.915780508943543 -144.0168708540207 -8.277074101354982
-10.878254063334486 -143.95975922615102 -8.2841259767306
-10.819595105177951 -143.67187503896432 -8.30715250338049
-12.748860893072552 -152.39678286962143 -8.298438888717616
-12.692049468533073 -152.36267468858014 -8.296393901058263
-11.27780619195131 -145.68930031479414 -8.283711408178382
-11.106234853219767 -144.48313085696998 -8.331937283499709
-11.084732581130535 -144.40916574702848 -8.339008577396637
-11.0749726201446 -144.3343134078084 -8.344679858982136
-10.95066363028408 -143.69172065764988 -8.29291588157758
-10.90060284406005 -143.62694352153798 -8.302105435800282
-10.932143603328537 -143.5377840686273 -8.304927664698887
-11.228297228069271 -144.79603758886321 -8.300066218954012
-11.189647086675702 -144.65693963124093 -8.311420521944163
-11.136201057517253 -144.39987845988884 -8.332212851052335
-11.155347204354083 -144.33033878270652 -8.333614482531438
-11.114031224484446 -144.1819840861059 -8.348901581042155
-11.160719563330309 -144.13208043173276 -8.345915498170124
-11.032952167960467 -143.81549293711038 -8.276900846645116
-11.039903877831064 -143.72141013235992 -8.282191924165856
-11.002290421734514 -143.59751348977082 -8.29413348120365
-11.007053180935964 -143.52010461907793 -8.29900042674115
-10.99677589881934 -143.39187442996325 -8.309128945642259
-11.738549867545682 -146.52265904550765 -8.340066180595453
-11.38722444742732 -144.81753781163732 -8.275745872838506
-11.38615369477495 -144.76199838622009 -8.278140202898015
-11.224692504463954 -144.33473783460306 -8.323642883618653
-11.221134966674967 -144.27691404006728 -8.327836839647702
-11.211956202020843 -144.15751615526148 -8.337200860328469
-11.16861190478683 -144.12519304426425 -8.34535337319644
-11.091952172295706 -143.7229400285824 -8.277009416574494
-11.059472700810002 -143.491151458771 -8.296099495648177
-11.07431630663192 -143.38275153240892 -8.302645195259192
-11.082187744370106 -143.31228224379535 -8.307211806522563
-11.01073070924233 -143.2017989401032 -8.322128463366967
-12.544366895560323 -150.03471921419018 -8.337173470534312
-11.764970580308248 -146.5389979818776 -8.337436433307678
-11.428459919902036 -144.72230256059564 -8.273649202929375
-11.318410858115863 -144.13263465610322 -8.324607395169357
-11.317008275761465 -144.06782566905852 -8.329694699443683
-11.287371584515858 -143.95670699336495 -8.342359686236827
-11.173580163824013 -143.56369202047065 -8.280183516322166
-11.184174387028659 -143.49142469982786 -8.284491351269567
-11.119351293924474 -143.3709634776525 -8.299425023919216
-11.124108035061635 -143.18896288947047 -8.313098749919652
-12.575457317153758 -149.97671857083836 -8.331686643037848
-11.366407262949748 -144.03952382673418 -8.325403171388496
-11.35225149886163 -143.9434718333354 -8.335059642547124
-11.362938072894014 -143.85789826340672 -8.340990059022529
-11.390862541687472 -143.78123543969454 -8.344288198034263
-11.312819354229315 -143.41466047804528 -8.278678935752724
-11.31302579410588 -143.38667245530422 -8.280856543889717
-11.250985021144594 -143.24598120132788 -8.297493615263512
-11.237747206402753 -143.17694576681762 -8.304242313509713
-11.448953074847235 -143.9241938074551 -8.324320129396543
-11.413444562254785 -143.80421184339582 -8.339407230484749
-11.401094027151618 -143.74646711829138 -8.346195399659262
-11.327364783210728 -143.4127455037644 -8.277517673315371
-11.33143078425347 -143.28707412169095 -8.287223254130463
-11.290021160386612 -143.24995204299685 -8.293783020704007
-11.314836118452444 -143.13792196730083 -8.30097260762257
-11.30964363666439 -143.0230639352009 -8.311153008712319
-11.299807163794933 -142.92555534765023 -8.320388404820712
-13.340450037515724 -152.44853101781374 -8.304701133823407
-11.790725226353938 -144.9786860134838 -8.280178326862321
-11.817208172765033 -144.91691361686833 -8.278042398798457
-11.38814670185676 -143.20538942391082 -8.28914536996553
-11.378607973310919 -143.00976932244114 -8.30673681036454
-11.38699958788993 -142.9191300857041 -8.314069245755945
-13.504264113047359 -152.7716253150779 -8.32413254472378
-13.45479749079464 -152.70496044626503 -8.319996149190967
-13.438841558846622 -152.45673248556693 -8.305940504914183
-13.403445521845756 -152.43238325161525 -8.304301159570777
-11.502320178984819 -142.98396787587183 -8.299302560177429
-11.4613712840983 -142.8832198411211 -8.311578538185827
-11.470710070376747 -142.83440543674232 -8.315320351534154
-11.479198464111944 -142.72475805461616 -8.32488800214786
-13.556056368531532 -152.7733891348435 -8.324750205799411
-12.235538036239719 -146.02055243008306 -8.330381510112206
-12.05528526826917 -145.0855086580854 -8.288061607320778
-11.522505976061579 -142.8589637902489 -8.309194325423636
-11.518142340971284 -142.8085496802659 -8.314196038709747
-11.515010718369343 -142.68079109751395 -8.326458476369236
-11.531791589561625 -142.57313911222542 -8.335578778426575
-11.53035939964077 -142.52444350658496 -8.340383256232704
-12.099829146453512 -145.0463627489413 -8.316212680986123
-12.141105631760574 -144.94602621824345 -8.336411110428505
-11.592548610810606 -142.72429674189334 -8.316776650221403
-11.57972776518057 -142.64895289007657 -8.324937314545359
-11.58036846764038 -142.5500468803285 -8.334489544341281
-11.573574464225285 -142.4670387730556 -8.343089808994263
-11.579559196140806 -142.39830541643443 -8.349504031308566
-12.260250465921985 -145.06149100276886 -8.29854760303842
-12.185094977482784 -145.00866046214412 -8.320968370605156
-11.661155205566509 -142.51450092991786 -8.332580249511306
-11.687269226357099 -142.45025228626122 -8.337317465000831
-11.67388229820335 -142.35760198503735 -8.347533383720545
-11.74640527279465 -142.4224118480428 -8.336391932628748
-11.770801410963113 -142.332977898517 -8.344072472877421
-14.048402583285242 -153.07369811342784 -8.346643056883876
-11.860088943999921 -142.299797475868 -8.342240200565673
-14.089936644373637 -152.58177592600146 -8.319513870649175
-11.922173499997804 -142.2836883391224 -8.340352519674909
-11.939150601042531 -142.1847975078674 -8.349858502736533
-11.783834989024486 -141.52518620290442 -8.276337285292739
-11.805644043267632 -141.41315903240616 -8.284228883020429
-14.111131196799585 -152.51450794918063 -8.315888694979549
-14.133578121572379 -152.48119248244683 -8.314293072884372
-14.148220204985797 -152.3181421633647 -8.305257882736395
-13.356327210356602 -148.4816876549739 -8.304532018225043
-13.0858030347151 -147.49224658105453 -8.343456572067069
-12.457655075397392 -143.98233373653537 -8.338530616080323
-11.997643123047743 -142.13260260500522 -8.352274565788113
-11.899084467338703 -141.45358475769316 -8.278005787955404
-11.848934347309363 -141.38014830312338 -8.285365745289567
-11.87270098897285 -141.22238922443017 -8.296921876176732
-14.26870938832026 -152.3092148216828 -8.306032142249107
-14.180095975468697 -152.23891178844727 -8.301169753747502
-14.206100727097517 -152.09787538892695 -8.29357525463979
-12.487556485356789 -144.0403162979395 -8.324110548820734
-12.456111071445275 -143.9707661133851 -8.340751515405405
-11.94612260170971 -141.44794417152823 -8.276938463495283
-11.964084554179067 -141.33614676424168 -8.285160051675698
-11.952293068867098 -141.16750129383288 -8.298842441485187
-11.91625864707138 -141.07990152335609 -8.306834997219637
-14.294141339474796 -152.32104656727896 -8.306906094071024
-14.22102307003666 -151.99250726730529 -8.287784959652555
-13.356397994758796 -147.46110242780713 -8.328930408253019
-12.573669428664955 -144.02280217242313 -8.314831716110866
-11.990329860356148 -141.15535349296195 -8.298687718348141
-11.990235138318114 -141.06764996242322 -8.30567406884983
-11.991811136232034 -140.93687481880468 -8.316068355518198
-12.001880262592287 -140.87145290196014 -8.321043031143262
-11.990177510744862 -140.79078489147867 -8.327820997552802
-13.469058483842002 -147.76479684915128 -8.300187447529165
-13.481961943808562 -147.7184310724666 -8.292636697132233
-13.379915376208457 -147.38527570794653 -8.313648857533416
-12.735796761942018 -144.07348571604743 -8.31523636431966
-12.136051334645115 -141.20765270564274 -8.290488165212626
-12.0846806522512 -141.00033201455545 -8.308493566128272
-12.041148542932534 -140.7292785452254 -8.331463499834816
-14.447386584398707 -151.7313604684641 -8.275821351875784
-12.787204243917502 -144.08560936449524 -8.274948810342405
-12.258469714459846 -141.25396966353324 -8.283588624898432
-12.217083640078492 -141.11868989407213 -8.29557286681837
-12.240940742655836 -141.0077217752228 -8.303988500812524
-12.201026445493506 -140.93906705146395 -8.310528042122867
-13.487679895588816 -146.6944256312227 -8.275648668387758
-12.872520691635449 -143.71517471693946 -8.304449925085493
-12.337768072545952 -141.17862724138078 -8.287819319918425
-12.33034805264269 -141.07771644909062 -8.296235796218625
-12.28087311460192 -140.92180055567363 -8.310068870859434
-12.367430586458843 -141.0371263109716 -8.298730011125139
-12.337847303285113 -140.76762248350002 -8.321487201625086
-12.336844218061783 -140.67451335530097 -8.329156611663326
-12.327963747681517 -140.58093619306754 -8.337057210123602
-12.433192490507933 -140.86487970656475 -8.311530292624132
-12.45297342155732 -140.6452808030074 -8.329324714428957
-12.423192602826866 -140.5906113519392 -8.334408941057818
-12.486295308521171 -140.60401516498308 -8.332151172453155
-12.51911549211292 -140.53919819879326 -8.336978073627945
-12.516595743982538 -140.43689126638748 -8.345545629125072
-12.61704046895248 -140.39622400569826 -8.347374204137132
-12.538841718503098 -140.3745511526018 -8.350387133410964
-14.644957047730019 -150.01172107676516 -8.349837959582295
-14.664356738636851 -149.90081297804775 -8.340362765998005
-14.674610660452226 -149.83442984469198 -8.334704325819281
-14.724579538529184 -149.9885502291355 -8.34963476117504
-14.68656514657509 -149.741985374698 -8.326757619365857
-14.742496530134282 -149.70230219183364 -8.324659937328011
-14.715064235994905 -149.62074042772366 -8.316683463222915
-14.648325464893286 -149.50144897477273 -8.304337807162316
-12.332007185427933 -138.0898340567099 -8.283905286366652
-14.741073408021913 -149.53649932941553 -8.30988517679101
-14.761109004118822 -149.46287176975778 -8.3039164552042
-14.853684450996637 -149.4114672498022 -8.30203202988747
-12.547868204522148 -137.97572437085387 -8.288465480120742
-14.849571717663144 -149.11667658485916 -8.27603311930227
-14.8571109182341 -149.0736579460224 -8.272490495285197
-12.616034985401363 -138.0740674041117 -8.283263981621205
-12.65623167717187 -137.98431321576706 -8.287591078239647
-12.71954958876195 -137.87528943409805 -8.292850026087727
-14.987809941400645 -148.46839480337704 -8.343783725311525
-12.761467342648585 -137.78962931780373 -8.297022898110663
-12.782226818536655 -137.73684722490822 -8.299606243674708
-15.086918644472817 -148.4743241622393 -8.349811388673578
-15.029946940253403 -148.4040738139806 -8.338522158927322
-14.955841710576516 -147.88490110935163 -8.274425430539983
-12.88850370041899 -137.98102114597694 -8.287083797612347
-15.304012081902394 -149.21370641383683 -8.300304394612835
-15.351968669164618 -149.1608397572404 -8.297746663307423
-15.280174255630516 -149.10059243430487 -8.289784241571835
-15.139078446382165 -148.43194227700909 -8.347848367882873
-15.015013425963467 -147.92503800464976 -8.282569623258661
-12.967667017517849 -137.71764842811783 -8.300201360522603
-12.903718107664883 -137.6133761355829 -8.305553813925671
-15.235241871730723 -148.28448457677442 -8.336727597155413
-15.221539178787168 -148.1613726418973 -8.322026287836216
-15.16559562389527 -147.84435203317054 -8.283180112864244
-14.302174567781222 -143.65634216443786 -8.34066593246507
-13.078890532723577 -137.77839474824037 -8.297023505258945
-12.971400974391642 -137.16187423072617 -8.32819759077354
-12.938556788592084 -137.11052855724185 -8.330810593255865
-14.360987526770087 -143.68281420695521 -8.272071366198293
-13.13454993187941 -137.40781968537047 -8.31568037310764
-12.989755071000554 -137.03402077518362 -8.334611515190483
-15.602921670614109 -148.86569514552085 -8.284178098131804
-15.537640752228949 -148.8156915943124 -8.277144186611327
-15.273798505080633 -147.51517537568992 -8.350929759674566
-15.286979081400338 -147.4027710154577 -8.337549083537258
-15.28958829708696 -147.3544478018061 -8.331555832382055
-13.231568028169686 -137.6760318974581 -8.302160858034815
-13.165256729115795 -137.45990866840822 -8.313059523799994
-13.052457961806159 -136.6647090167499 -8.353208555871795
-15.678482902261255 -148.85801083198913 -8.287175279906778
-15.667039614853149 -148.69905043032145 -8.273882076672013
-15.322054811446314 -147.36640053608477 -8.33644827030933
-15.313749244659991 -147.33818880688878 -8.332011540651322
-15.315167944630847 -147.2139939615857 -8.316543458544777
-13.262687254540616 -137.23429562435732 -8.324487224125042
-13.143595661547714 -136.68869971062907 -8.351977730812235
-15.774128856275153 -148.99831236642225 -8.302977533550088
-15.762080626410896 -148.83364219435776 -8.289310843330549
-15.762704176273463 -148.73923478231208 -8.281847793000502
-15.74029560738945 -148.61260920093525 -8.270743444542132
-15.383792598432086 -147.25229881242325 -8.328756461603856
-15.376391530897465 -147.21128266877574 -8.322899868976375
-14.618026351386396 -143.1609780172705 -8.296850151792308
-13.410496902644661 -137.3680814055549 -8.31788484154209
-15.502321350824309 -147.00635652307884 -8.313555288660154
-15.461853812427472 -146.88592401448355 -8.295313698199834
-14.685177153512505 -143.13461748882287 -8.30506570668746
-14.663397811618788 -143.09652123992433 -8.309071314040361
-15.748908523281797 -147.95373631424127 -8.338088140149129
-15.72024336552946 -147.56209983180327 -8.297265483319766
-15.660935101170647 -147.45216877168485 -8.281675395289072
-15.513615814296989 -146.9257077084229 -8.306063698470973
-15.488999383441914 -146.8080082971431 -8.290395480311517
-14.780402647485529 -143.1326062722243 -8.31199304873557
-13.414953373322325 -136.63258329224203 -8.355090856733506
-15.876331560268497 -147.89452637911876 -8.342747894833495
-15.894949162665217 -147.8144917782488 -8.33657762894519
-15.81732747621163 -147.55818031443445 -8.305494304819469
-14.376502295037401 -140.48009586775208 -8.340655394134366
-15.921231235398654 -147.88791720491434 -8.345886702585165
-15.923628117443652 -147.80346547919922 -8.338021088182774
-15.914711155442934 -147.61976847520936 -8.319995769451332
-15.91285382921898 -147.48808550881103 -8.307866644922091
-15.658493791327787 -146.34887775778688 -8.350285891582567
-14.407509667342541 -140.38599306983082 -8.349127229856473
-13.688255087288331 -136.68074716822076 -8.353351197466232
-15.99241649543453 -147.67982304280636 -8.332564374922388
-15.988398744134292 -147.57954569658733 -8.323059060105054
-15.976863019171066 -147.47035259895128 -8.312264222226627
-15.950264906238253 -147.40501500690849 -8.30401823865273
-15.826280270169034 -146.9537111378557 -8.348922578707583
-15.744563021722733 -146.09534098697975 -8.344871432150775
-16.05989243985405 -147.42396545543468 -8.316176496667529
-16.06741694611015 -147.3290279787215 -8.308909880597579
-16.077281227103857 -147.26226574739866 -8.304375038376934
