ply
format ascii 1.0
element vertex 836
property float x
property float y
property float z
end_header
20.011898632777005 -138.80073881659015 -6.497182346984662
19.800780075064356 -138.98916335861963 -6.500912080943396
19.517076052201432 -140.0871620601375 -6.4915856893905
19.529117924853907 -139.9625701910828 -6.493235943013933
19.75976128001676 -138.77656836689331 -6.504879955219045
19.109704886061714 -141.33481948909528 -6.478031574373986
18.89822928197004 -141.54749311819518 -6.479409763598707
19.629276005893974 -138.74519771061244 -6.509560518741782
19.650065079239347 -138.18723595888477 -6.515722463550054
19.60360918561056 -137.93712391180324 -6.519945515911289
19.187826310223357 -139.0601090923337 -6.518300197597578
19.329126494286466 -138.3936361503106 -6.522944446084812
18.61842195698135 -141.1837484967663 -6.496285039574795
18.71833695106546 -140.52855688590063 -6.507436861811526
18.85671049677851 -140.18143373514022 -6.509765158221108
19.165379964443723 -138.94076893590497 -6.520965217104069
19.140238139191847 -138.6952758031316 -6.525134388911368
19.173933211434903 -138.57346955459664 -6.525391891712293
19.391378224343935 -138.03022604208434 -6.525479841902304
19.4561704912176 -137.57501307848224 -6.528434449271206
18.547094784023983 -140.93952893411534 -6.5038606155622425
19.106501714385534 -138.5386730310828 -6.528178480754424
19.241253209436678 -137.86222519243248 -6.53198687313743
19.40738158951016 -137.53958648828112 -6.529899706783893
18.273565277222996 -141.6365497120435 -6.496077105517504
18.584684108803696 -140.59200752519993 -6.510233220306542
19.04091581466794 -138.48385089711022 -6.530719343189755
19.145915584478548 -138.1656110173025 -6.531205857527864
19.12269597746801 -137.9629905787377 -6.534474087965094
19.195622848525566 -137.82836040836298 -6.533378835106981
18.35150294658377 -140.801286497855 -6.512937369792672
19.025842093722694 -138.2205576175951 -6.534513991382109
19.06253062866682 -137.76720375399427 -6.537999006442922
18.360586078217956 -140.462005520869 -6.51946081171261
18.207925518951512 -140.41273681134732 -6.525278146785349
18.210555256749373 -140.37538449543698 -6.525745817819118
18.617283242779475 -138.42981019111173 -6.5443560864426455
17.789685986633458 -141.43641293478677 -6.515282212482334
17.727304826545843 -141.31428685525253 -6.52021695804415
18.102110687132214 -139.33392370270616 -6.547330500342627
18.099307480988674 -139.1487155904271 -6.55045699699885
17.861298120067975 -139.3769073956719 -6.554241255821217
17.61060346546837 -139.97987225265544 -6.55152425521458
17.56599854494548 -140.0487334156012 -6.5516247767913764
17.182190581003304 -141.0188704316923 -6.543476348569089
17.122275133469305 -140.60118030735566 -6.554446538860542
13.235757466545685 -142.96260079549526 -6.504481148641654
13.07900344484868 -143.05690694552413 -6.509841327702533
13.18554544557966 -140.93090390403898 -6.5476266501453075
13.230478838042394 -140.67657356003298 -6.4659883633567885
13.101595719355426 -141.07741743301924 -6.549755985524142
13.0994533765336 -140.9305665575308 -6.5521546133747925
13.164725738637143 -140.9060037746742 -6.549076592339635
13.035253091578443 -140.9992124264191 -6.554480192209671
12.972807119613396 -140.72839272751932 -6.480990321780376
13.449082882891112 -137.70049082836715 -6.485040652609437
13.218316111868736 -136.91837287260762 -6.490608323679062
10.197583086050127 -148.77033087549484 -6.479376002104261
10.594526134252108 -146.78278005346237 -6.521412305405909
12.928576937043022 -136.91587960391513 -6.507387964251995
10.552036633894337 -146.75337290584122 -6.524207273822678
10.577842248919614 -146.4181671670455 -6.5328725547436255
10.757650005214748 -145.70817290151078 -6.545219481388062
9.48809674160127 -147.81483797154988 -6.537832757463317
11.24903411861889 -138.03705430082533 -6.478929410634299
11.298329610710907 -137.86574321167296 -6.469572702211226
11.214375042497824 -137.4849646661315 -6.464097852591295
8.223641277593698 -149.98642412818242 -6.520635331474024
8.269302640445774 -149.87966677061306 -6.522199739614678
11.038606560249184 -138.09694475041314 -6.499825678113233
11.598310014523022 -135.48492869667263 -6.541863809349775
11.52071749521357 -135.29923846508945 -6.53957142168595
11.034023781534184 -137.33460516178363 -6.473566699861362
10.621104743697355 -138.29037645992977 -6.54314619736561
7.839983846854719 -149.846805917465 -6.539220473100767
7.04875543112458 -152.066595174169 -6.498904128872989
7.004094907157883 -152.069114058512 -6.500445688576799
7.408203469273678 -150.16589022007233 -6.545029879675637
11.293616287697036 -133.67907854532783 -6.492367772771518
6.841642527919253 -152.31639045292866 -6.498470377127954
6.918180989784771 -152.13377520569364 -6.501466936654755
11.182350617345783 -133.80943514050676 -6.501853979117495
11.167437403611533 -133.78814068749824 -6.5013928586870104
6.768643639111767 -152.023383962333 -6.510095982381617
6.697792264705702 -152.13044730668636 -6.50922692916268
10.825877653912924 -134.44922248468595 -6.539921374696504
9.399370323448979 -137.73836416958952 -6.526896624878702
4.355542020296521 -156.41916089309126 -6.455152445454075
4.1775191551603275 -156.4037493638371 -6.461286101003074
7.483739172294012 -136.31950611409653 -6.482823685482051
7.52523862478714 -136.26509610704292 -6.47590733133985
7.57427921510757 -136.16536067575586 -6.4636066051480014
7.415943634142148 -136.3109475393687 -6.482673163718895
7.443099930439891 -136.2885130499701 -6.479740778009256
7.310883375522542 -136.31435281651179 -6.484064910475191
7.367288581063332 -136.27744947351698 -6.479307178119032
7.217777608924231 -136.31049281784507 -6.484300827042845
7.141872914191636 -136.34667862421676 -6.489343842213116
7.115687600580287 -136.30122587509624 -6.484356299103986
7.044828903484807 -136.23389268275966 -6.477238332470072
6.300320474437169 -136.70043882112952 -6.525452799033044
6.3438216706082615 -136.61339610905125 -6.516837232135692
6.364909255287881 -136.50784158325516 -6.505639061354667
6.378784540447129 -136.4414110996977 -6.498545533449066
6.1342044021847375 -136.82312277192446 -6.534560087051131
6.142643019238385 -136.75116709827975 -6.527172840897189
6.198070937539104 -136.68564642512425 -6.5215942784829295
6.075326963311316 -136.81408356909333 -6.531936825137882
6.126771605378632 -136.71787142256224 -6.523260848015341
5.812383392661006 -137.49713245934336 -6.493495962416017
5.870430471822301 -137.43299874885628 -6.489758901060557
5.875425319620817 -137.31682270608647 -6.475707524762011
5.8887207480330765 -137.2490635663188 -6.468043492504219
6.012648296162899 -136.80019508176989 -6.5286102825440375
5.960334716079035 -136.76094881202414 -6.522910298996462
5.005836117175027 -140.394123343227 -6.524041792383616
5.050566224507607 -140.21884259540275 -6.538063823672069
5.0608829820303765 -140.1524267633115 -6.542111816243602
5.135605519606013 -139.91639905314574 -6.4746076216721296
5.6707191859708885 -137.56297862668137 -6.490640163396736
5.732838958848039 -137.52620231901224 -6.491144822859254
5.907354704252975 -136.73437816795 -6.518453899113333
4.773804880918804 -140.94979245144552 -6.459938576933707
4.890293906379984 -140.57150706907842 -6.499868211989923
4.946896731713625 -140.44665484936948 -6.514015037181945
4.94172581930856 -140.41481286315286 -6.515134412245547
4.971606734459039 -140.2550740216215 -6.526679686078423
4.980764202626567 -140.09190580993575 -6.5341916772544435
5.0348633158038645 -139.90404497295205 -6.546337887140066
5.099004687661779 -139.60366529214159 -6.473229304713926
5.584356202233639 -137.5607185893119 -6.483561792633585
4.728715899431304 -140.5888654040939 -6.479537604264094
4.871458304078379 -140.27165649680168 -6.513422911039553
4.883836977337639 -140.16936113450174 -6.519197252179948
4.925211134861872 -140.07261368594982 -6.527792806204141
5.494072290928376 -137.52982791407226 -6.472785274167455
4.738416302967767 -140.24539577193477 -6.497898153641437
4.792195196053482 -140.10654933564163 -6.509814149050856
5.412999020573559 -137.50368433959463 -6.463213497479335
4.639020857670353 -139.84627953472284 -6.496322239316318
4.701226120305236 -139.67617671663217 -6.506319894848534
4.338532071237866 -140.5696655743644 -6.549504240673947
4.269352472553924 -140.53584250880274 -6.544670389274565
4.336853777208244 -139.93683935164526 -6.455708812869016
4.518400073006715 -137.6284788416816 -6.5161759406720465
4.37845573811079 -137.7608875538922 -6.513670593713355
4.424780623437904 -137.69407148628687 -6.513151069020568
4.457921551787357 -137.64098786563414 -6.512409878379224
4.295983491686988 -137.79372629837147 -6.509298599368393
4.362208408821369 -137.43648968283463 -6.492042856574789
4.397039744151382 -137.4043915806668 -6.49246409206631
3.4392363601615887 -140.86880929794938 -6.457407901013796
4.1932198383389885 -137.83192389345433 -6.503478023025342
4.352055024016862 -137.3227720268992 -6.483641770160489
4.316437043443457 -137.2547636063971 -6.476426796172761
4.124330704808301 -137.8542522600629 -6.499339276304466
9.166561352883596 -110.82673481707678 -6.537319410210835
-4.634199220680286 -165.0814770797596 -6.458931068396067
8.260771822263328 -110.74374332239154 -6.548054236035576
-4.696729959160728 -164.98527294747137 -6.463612533407919
-4.784350578668223 -164.95201655676894 -6.4668824967551215
8.659289156259891 -108.23957014995528 -6.516916166350205
-4.843968393622084 -164.86093758982375 -6.471315116431666
8.429951074429535 -108.39981966901364 -6.521780030579506
8.547760497505275 -108.22353429824919 -6.51737847470709
-4.948857705177306 -164.84078544269593 -6.474650049471897
-5.008666885697266 -164.73100333049163 -6.479595379996978
-4.899220085468174 -164.10159726423512 -6.494903059596695
-5.028269085644008 -164.1438326935764 -6.497057877292809
-5.137493205702357 -164.14644316141602 -6.500033214861104
8.109796580510109 -108.33962475734032 -6.524550708782053
-5.183862741749706 -164.02131736935604 -6.504780643121575
7.7744799208846835 -109.17061531986212 -6.53876878126855
-5.186539143265054 -163.8148570062081 -6.510903343978967
-5.880926114608127 -166.2648146666301 -6.45866140078743
7.556513015672121 -109.33323786769286 -6.543466725932079
7.453504018471221 -109.36911308971263 -6.544344599811894
-5.768051929378848 -164.0993948598009 -6.518167242020598
-6.537694776188634 -166.1728356449829 -6.47899488514317
-6.357746965098033 -165.61199361383345 -6.490430197880404
-6.39141645352048 -165.46257207310245 -6.49550001818315
-6.276809053670445 -164.82449188790588 -6.510729214224137
-6.383911469590854 -164.80700145057287 -6.514130374609029
-6.460919944124252 -164.74398558293515 -6.517842107962759
-6.172896457835432 -163.63318732985707 -6.541970844156536
-6.551158449909788 -164.7053144308525 -6.521384033933546
-6.593588148956006 -164.57608716080156 -6.526058301347574
-6.789277462692724 -164.51572186922536 -6.532814890776271
-6.845859224529108 -164.41408513794497 -6.537213936362291
-6.823667906524917 -164.18199940570562 -6.543102324873511
-6.97295166809072 -164.24544996547354 -6.54520102438163
-7.496564155463045 -164.93052145513465 -6.539195645131208
-7.397400191529271 -164.55925019623302 -6.54715630376683
-1.0337290369300591 -131.70675385930636 -6.517193227414755
-1.1499970093640615 -131.73988854057012 -6.516828762525694
-1.118395456510382 -131.71140976853636 -6.51623426605802
-1.4443156555085883 -132.23642379293366 -6.527653180296107
-1.5638633810032951 -132.24332169283218 -6.526148562901652
-1.549479960512552 -132.20373575773908 -6.525094231965484
-4.40231303344287 -134.9991805382797 -6.540464630252333
-4.4363252613823905 -134.88892122554088 -6.537804367716093
-4.516007552256945 -134.80819178849242 -6.534408328988755
-5.4940356484610815 -135.16444768017755 -6.520178805793515
-5.535136905076739 -135.22621057945227 -6.520101085725113
-5.750250141363963 -135.30949074294364 -6.517043664533517
-5.959636589394088 -133.9044025368468 -6.4882986415285995
-5.955604054726305 -133.73858881118434 -6.485501532816459
-6.025510359767414 -133.81934663493954 -6.485698665129444
-6.093481503290232 -133.3961614823912 -6.4755326748597914
-6.0619355693690755 -133.26646344504263 -6.4736188577906315
-15.943727932283917 -174.62214603459103 -6.479696468807996
-15.967865987063202 -174.38925965842327 -6.486637553070761
-15.792622870112417 -173.87043939440858 -6.4964411298131886
-15.873176933088189 -173.73335204396412 -6.502096352816544
-16.596301707155856 -176.1474858868564 -6.453891711260932
-15.938600063699432 -173.58660458247982 -6.507544598091038
-15.915597526409922 -173.3132856072479 -6.514386347450649
-15.741599887022051 -172.8081713779676 -6.52380065488813
-15.73315994477242 -172.5454172736007 -6.530664494929927
-15.697568728408694 -172.2522276181439 -6.537622621036134
-16.647521498221888 -175.95550608333818 -6.460419962507734
20.16809989266571 -141.94393291469044 -6.431815220608358
19.98106335965734 -142.1344861644463 -6.432806427195787
20.012415987155126 -142.00483709168984 -6.4349627937613425
20.196221036829154 -141.58345871655567 -6.439588305380852
19.97137399158348 -142.06475607100637 -6.434770624797413
15.297295642937783 -142.9259362579439 -6.401085661984754
15.318201817317671 -142.88674682351152 -6.400859390823376
15.025604599393194 -139.96645207832964 -6.366961911294762
13.793030196158927 -140.8693906991147 -6.423839185967232
13.681745371043714 -140.82512924553785 -6.432460855619318
11.466753650010908 -148.29200100457203 -6.438378244332251
11.551162982225804 -148.15956560557896 -6.438442730017768
14.384822365336301 -135.91656448215676 -6.406318155308085
11.391543830573049 -148.36583835192314 -6.439643542906368
11.355761997281606 -148.2065735916252 -6.445837864164969
12.942256457793386 -141.0988840632015 -6.35833122910845
11.14887996255993 -148.39289447723206 -6.449557514350978
12.654530571262118 -141.47620392991806 -6.372331983277887
12.562133210210371 -141.6870585140694 -6.373335948840514
12.572793319005438 -141.2680477210648 -6.385491218003049
13.968133162202967 -135.27905868452885 -6.415777899911234
12.417033281979766 -141.244066161804 -6.399528562987539
12.1928566450797 -141.41949018987054 -6.413204412829938
13.952307120919663 -133.3788769667099 -6.364461850265746
13.926193652457671 -133.36052626173418 -6.364901113906489
13.608658844280468 -133.87225123501398 -6.395848167051555
13.552106230383389 -133.68337836906818 -6.393034402433901
13.441117790829093 -133.71014821978628 -6.399219558787823
13.289374912256198 -133.04556446577274 -6.385081732752395
12.059872785297248 -137.58024710504526 -6.392311806749605
9.43538967431771 -145.4747351172117 -6.393238588750156
9.19893017179091 -146.17903686642222 -6.360675806058008
9.228951314048667 -146.11170948559433 -6.363498258849356
9.284780166824712 -145.68621622991134 -6.387816375440084
9.316094677783221 -145.67461837713412 -6.38693401040762
9.334644397731257 -145.5148289595282 -6.396099063347163
9.370757840230613 -145.45005369655374 -6.398275024863159
9.033499800223643 -146.41151535098564 -6.3539367205059305
9.205260590742242 -145.7303440053365 -6.389117983271075
9.065814649473294 -145.94172620350517 -6.382642860766316
8.990340288688136 -145.8208587108602 -6.394174546421343
8.661364716909185 -146.26064151030437 -6.381369868197291
8.631873726658732 -146.22943663972382 -6.38472800671422
8.712716162756521 -145.9716002742379 -6.397776695644338
8.77958029687031 -145.9590155745983 -6.395441325040459
8.51914556739001 -146.332448364629 -6.383131629390552
8.571076378868092 -146.28248623771105 -6.384050415888091
8.608499038390299 -146.2315821491178 -6.385689173187455
8.663569547167823 -146.01269525337224 -6.397417587877307
7.824554432826992 -147.19302683741034 -6.355531867559012
5.537309239114261 -156.51556038517694 -6.413324692151871
7.68211307220721 -147.2786876937069 -6.355315822731143
7.734077383947022 -147.20634418762103 -6.358137870641625
5.488067009126944 -156.42536320070874 -6.4177130321310045
5.446299367217552 -156.27952400587023 -6.423661392078812
5.257658304593852 -155.9653874855666 -6.439635080072098
10.096170074580192 -134.84522482405401 -6.391373856381345
6.8225350127874425 -147.63940585227158 -6.361286515069174
6.718217384541282 -147.6978152189986 -6.360708984913647
6.563782436026112 -147.43841803102003 -6.382430172373169
6.468947394586357 -147.4362345512038 -6.38536062582362
5.9559456092680705 -148.0402046028768 -6.360030440020862
6.051598477915787 -147.74169990945828 -6.376947772281488
5.918527276320826 -148.07811200517057 -6.358517412653132
5.905058153593775 -147.98640898713901 -6.364851674876534
5.870306917684549 -147.70550988614693 -6.383972686347728
5.693287226826678 -147.84473726848657 -6.379336056528988
5.744077893549417 -147.747258842108 -6.384396586145278
5.8009677827630926 -147.68764969492443 -6.386869467357972
5.6978732675348445 -147.68641635629294 -6.389453875937555
5.426134636526271 -148.20440059316275 -6.3624138454719645
7.3896170518593385 -136.29234269229957 -6.362470667046374
7.423913609179062 -136.2709442915895 -6.358871189784465
7.270511727933758 -136.4262023406305 -6.383531882088661
7.319742295336503 -136.29338199322166 -6.363183592421923
7.341811543953772 -136.26623386537108 -6.358920030385181
7.199996458864982 -136.38927304734958 -6.3783446949078915
7.117932197321313 -136.26720798511224 -6.360550621521099
7.054575220395766 -136.2270226780931 -6.354850732654359
6.227129104025037 -136.84740992940146 -6.431689944060287
6.267482734245787 -136.81981452251244 -6.429383660874901
6.320855737663334 -136.45865410495122 -6.3800572009366725
6.3238807265237185 -136.4155226980597 -6.373954091825153
6.1767135443973675 -136.8522929538158 -6.430313250599024
6.250727764791511 -136.5813168786326 -6.395273353491821
6.2894050187587 -136.49010854688507 -6.383600533830276
6.073583446185324 -136.75074519609765 -6.411986002108045
5.798856589370128 -137.47442640090546 -6.392382586052144
5.833390540779108 -137.40566346470146 -6.385233003921979
5.869666288483499 -137.32664259480478 -6.376357665391065
5.992952539902321 -136.69087128136616 -6.400210963037687
4.832353131591512 -140.9978810035633 -6.355640075261681
5.141209197357819 -139.9179523657698 -6.390323764536187
5.648628208620971 -137.5386648999382 -6.387080570848948
5.7070690706237235 -137.5038888203841 -6.387927382112237
5.913577363305186 -136.6757200503396 -6.3944393461295075
4.831958269452253 -140.9286530851067 -6.362261335664982
4.8833347785534365 -140.5305818489766 -6.403103622366436
4.874204648781952 -140.49014563844068 -6.404456175587662
4.990270079005901 -140.16054936723282 -6.3963440469149475
4.969604852303658 -140.09461020606867 -6.441412616323593
5.58806213510149 -137.5439801959852 -6.381614957665871
5.643051786459635 -137.51734148253527 -6.383540295835916
4.83758813429886 -140.42549221547083 -6.403079296685277
4.892113551343179 -140.15596068345837 -6.426281434594842
4.884427528743149 -140.08262693810912 -6.428097484819589
5.503719999036067 -137.54053536530742 -6.372261809545211
4.604343220982521 -139.84721410765601 -6.388852617329501
4.391355652252804 -140.52112238072934 -6.442248064891273
4.39726408867762 -140.4844895929969 -6.444761498046781
4.28868845434904 -139.95281331297764 -6.449257575856438
4.27162646804053 -137.7120162686271 -6.37041153997107
4.312528420797536 -137.66918558869213 -6.371425913491813
4.353107502172136 -137.58770085323394 -6.369202931083275
4.330798253079411 -137.50284551960658 -6.359836860450612
4.36074752768405 -137.3949476313181 -6.353657914462977
4.188657389631713 -137.806660923768 -6.368813518614147
4.23436283978371 -137.75812883623814 -6.370062094976571
4.326497902276202 -137.44446108525153 -6.354427290879392
4.129010596732593 -137.80410299038948 -6.362062515298049
5.891892430200988 -128.77374935873954 -6.3939922592733645
5.698537081739043 -128.89164515965555 -6.402356109026183
5.712850812131657 -128.74350711553507 -6.3954314025607015
5.573173191127957 -128.95870038894776 -6.407293386168954
5.604990006207523 -128.79593692181948 -6.399382501599539
5.64077671233326 -128.7776499060294 -6.398078091556994
-4.8255490183580525 -168.25888819515308 -6.370884707300652
-4.882398521211782 -168.12990789874416 -6.37619305238163
-5.039717479093622 -168.2316911256878 -6.377557300329304
-16.671213285840302 -177.39055800278345 -6.421695230094676
-16.79290884650732 -177.2912418995528 -6.427472574273194
-17.01888456147918 -178.23124962067 -6.407178889249787
-16.70012971680037 -176.86073629386294 -6.43692583026254
-16.859144971151373 -176.82171464855534 -6.441920941816785
17.731799846846858 -143.2079468265264 -6.269696892209628
17.070023269878188 -144.5185435917313 -6.276665848274769
17.371475318308587 -143.2359499729056 -6.287881988696344
17.012234820714845 -144.53047316475158 -6.279172072887624
16.77222951461968 -143.3093117997693 -6.317436007989322
15.707541639319192 -145.04722974377128 -6.331507255415097
15.533841575502747 -145.3872547582777 -6.3309466779216885
16.62692151700011 -139.40283434978636 -6.271769543718925
16.27088030343557 -140.41852392055378 -6.275488964847468
16.05231424885585 -141.1279789772447 -6.270596420523163
16.12056958360899 -140.6485064624822 -6.279596240630174
15.930915635610233 -140.86500190214565 -6.286085794673665
15.897549925843368 -140.69660291920812 -6.292898779329854
16.852413283329916 -136.95471859357613 -6.26918102103661
16.6820219100359 -137.31294530162424 -6.2812655756801306
16.864107456487545 -136.3755344011486 -6.2649655845590075
15.769221911176224 -140.57786305729994 -6.304401480321236
15.642102458531525 -140.88035815435236 -6.304349898629536
15.727835309991153 -140.19934885939477 -6.3159524810661205
16.475581465218976 -137.16364305905796 -6.293891946376247
16.553803209894863 -136.2327978258649 -6.28301625857397
16.65123414135222 -135.93788666504318 -6.273725390610433
16.118890537202397 -137.22945934354675 -6.316217751445581
16.308276674425386 -136.39180413512491 -6.299471382491144
16.395183481751985 -136.21976644863227 -6.292530472676796
16.101983202177877 -135.51620487780104 -6.30068577164629
13.276465719997546 -140.52585420757734 -6.261722666055398
12.89224617583579 -140.5342521975803 -6.299554797889359
14.820993347003578 -131.7007542681126 -6.271306524295719
12.60589943450977 -140.6710814112873 -6.322778569477416
13.260530692017262 -137.71388842354554 -6.283434157348901
14.032430919519815 -132.93800815055465 -6.34726489280213
10.616407895956488 -145.3905413481655 -6.329292432919946
10.64471378972482 -145.32251103676998 -6.331519193105719
10.175596404901787 -146.89039063004583 -6.2636523658281655
10.374461379520005 -146.05025870374678 -6.304238309802874
10.123458409227919 -146.7875546194357 -6.272971966622608
9.957644801282477 -146.87677312282082 -6.276520890797246
10.08285745694063 -146.45972755951217 -6.295771554224291
10.133553206846582 -146.11113290954316 -6.3145195638953755
10.130436985450482 -146.0077251132865 -6.321116543982243
10.179759303125179 -145.97056793214063 -6.320575535256441
10.00523163909487 -146.1176909184799 -6.321457800416032
9.982021860117326 -145.9585266743984 -6.332651659940064
10.020873918629327 -145.9289224901818 -6.332278907916116
9.317230405155577 -147.39992782027835 -6.2762287770705125
9.260742438096148 -147.04417176448337 -6.301918016590636
9.165684318129188 -147.23238408906457 -6.294398771927909
9.223527486043574 -147.12081383001026 -6.298799610937839
11.28839238872695 -138.0493596225376 -6.330037912253421
11.259144015199682 -138.06153220364382 -6.334323683907331
11.26216015599237 -137.8480887904486 -6.324859392180304
8.88802624599225 -147.3750042572355 -6.298279262220896
11.770057615369492 -135.32274907704536 -6.315470766559369
8.972870916745734 -146.71119003953046 -6.337427734045898
11.660365949634333 -135.05268981962604 -6.308089141516126
8.297948602628384 -147.97427564571694 -6.284989187608755
8.096812625310317 -147.2867174140869 -6.338528361416486
8.02986903036813 -147.27673779405316 -6.3418933337511945
7.906587295490202 -147.25349680192824 -6.348336942416201
11.00551210891846 -133.86448090909823 -6.273678769368554
11.905338890748862 -129.822202042243 -6.316770135136739
7.271113993292445 -148.92918603299364 -6.26125304717996
7.340096551012696 -148.72262407602025 -6.2724617019304825
7.373546174801308 -148.6551188287729 -6.275765886377759
7.631188079791492 -147.44776264008345 -6.346065786864397
7.658217502176336 -147.42914751740543 -6.346312910864886
7.170474738048232 -149.06260050909015 -6.2559703847707935
7.306643478271198 -148.77013071774923 -6.270540004079055
7.244991146856189 -148.67518340465648 -6.278961986529025
7.409433294712515 -147.93683632534356 -6.3218762889536615
7.4942246938768315 -147.54564565566548 -6.344676772007953
7.563438809572333 -147.47348843655158 -6.346890435283582
7.037369641858837 -149.11178770618824 -6.257250379440955
7.075195582709781 -148.9734762906224 -6.265067875616694
7.21593271758376 -148.6085918534558 -6.284332014785035
7.438455334916164 -147.63359973281197 -6.340884756634048
7.4664372067804035 -147.54572979695507 -6.345647933918822
6.938993609406851 -149.0550919553914 -6.264232050955313
6.991865424203914 -148.99981788169333 -6.266141002242629
6.906298692440122 -149.04933691098208 -6.265720196107516
6.639274414214138 -149.0824840900799 -6.272084221658828
11.558616040096108 -128.47727186411973 -6.271174550747891
6.509528480782389 -149.3814176098591 -6.256406752210121
6.51092125920821 -149.03063146979758 -6.279454643104285
6.450235029053149 -148.99030939886507 -6.283938974255661
6.310456741635958 -149.04687245861123 -6.284373828127599
6.138508744474299 -149.09114155341737 -6.286398036155433
6.303103674221832 -148.14247833649563 -6.3438645014991595
5.987552912404744 -148.77821608853486 -6.311043627776823
6.0316481007610845 -148.70231293218652 -6.314822392562452
5.929648402111592 -148.72432295628045 -6.316118092349686
7.537037140947449 -136.1449845046854 -6.338239111228706
7.573725306421002 -136.11950218778034 -6.333797341596927
7.458614292394477 -136.21820506360467 -6.350476350372548
7.4943398865748785 -136.15203596194334 -6.339972134379944
7.015851902610107 -136.2084607369873 -6.352197836531728
7.082529782463059 -136.21033496456144 -6.352172397321906
6.974927663183422 -136.13418140741885 -6.34108623176117
6.245562189456571 -136.87744669580334 -6.328863681354353
6.231436128640567 -136.4743771406661 -6.258252937242603
6.279048534087053 -136.4334132721169 -6.2531756413451305
6.077104253834044 -136.6174211390093 -6.275123526059538
6.165902728777515 -136.53100422106158 -6.264999143093844
6.183486963144442 -136.5130507242478 -6.262735027115798
6.016991900535519 -136.63882836142537 -6.27527162756343
4.892547139685044 -140.92829885860723 -6.265865061561765
5.179602656151582 -139.90702593985577 -6.313369161525058
5.704301243457211 -137.46395299747334 -6.280830150698268
5.753025537412401 -137.391800177663 -6.2738836144363495
5.763744840154182 -137.34122004307085 -6.266060657216031
5.926792163811195 -136.67808911477175 -6.276291187408299
5.942464530848675 -136.65813960250003 -6.273986336905383
4.964047686051835 -140.1156492913895 -6.346936285943019
5.593456036259662 -137.45456905524568 -6.265746016394578
4.832875613255202 -140.37970399157777 -6.305489503773554
5.536478926762156 -137.50332354137973 -6.2666851994315085
5.533453972444739 -137.4625417213649 -6.259546302119143
4.686934784505677 -140.38550034230616 -6.277067261676473
4.811617645945033 -140.11277876859438 -6.317039269876708
4.808991080912747 -140.09894110694853 -6.317186961184292
7.813041104658394 -127.22298440246567 -6.295806948095917
7.960725130365048 -126.77209460895074 -6.273453898494858
4.602550031502315 -140.39293382166377 -6.260269826418822
4.356179208420383 -140.48120519499375 -6.324062207175853
4.281352876804839 -139.95127683991362 -6.333543876650206
3.653976407097868 -141.2187984326564 -6.312005037568614
3.6997793512264305 -141.13804684279341 -6.322778530376234
3.6252133252519663 -141.26241872081096 -6.305694157678907
4.323136272605796 -137.3183229386138 -6.34311769842143
4.295852420150377 -137.2651787182749 -6.335587178600226
5.9243188358541685 -127.71351366968408 -6.344811429936236
5.956566171004212 -127.6267844331083 -6.340350167817449
5.979561277742977 -127.46290109346047 -6.33237525639756
5.88208462190233 -127.70692400644198 -6.345270319245805
5.821047766359641 -127.5639567527478 -6.339655647000285
5.578021734538142 -127.51867936429821 -6.341479445176805
5.532055106235223 -126.79193004093045 -6.308911011936034
-5.504976278645727 -171.04683702664434 -6.308036132023735
-5.590761449006455 -170.9593759718723 -6.312955942126692
-5.706866573054142 -170.94342684708639 -6.316668761471589
-5.943671309907555 -171.18209325695986 -6.316196232275474
-9.429510300598103 -146.8089151799418 -6.344889053084408
-9.963196927360084 -146.39539237337223 -6.345228143730032
-10.024998343932342 -146.27967541098695 -6.346934067463479
-12.32034582680853 -130.62899723602953 -6.298397306120914
-15.786898290782435 -145.02379200812632 -6.249178803297137
-12.44457823183134 -130.65635344039427 -6.2960159643458535
-12.475640225537038 -130.72559115006962 -6.297313078217911
-13.227537856855268 -133.11832885205848 -6.322367511753924
-12.978066955143444 -132.2408140973679 -6.314254245348732
-13.002948086910234 -132.1510095224251 -6.312758908713435
-13.053786232987303 -132.05161557317746 -6.309515245545233
-12.69312034343556 -130.7129935543205 -6.29226986944783
-13.233415057877814 -131.90333064687022 -6.303773245966917
-13.578037971747118 -133.0869557047228 -6.314798242079156
-13.260722246065058 -131.81104693280653 -6.30111363170222
-16.319072376332503 -143.68192271105193 -6.256087901421214
-14.022968470447168 -133.43779434621538 -6.309768176247235
-13.032941028928889 -129.24932031865274 -6.255366796328946
-13.624539773085818 -131.3367555011749 -6.285292217839986
-13.485017766307735 -131.05300984346292 -6.2829697369292505
-13.521569587213918 -130.95247573038324 -6.2808942855135586
-16.042672685162895 -141.06699565400757 -6.287775756270262
-13.59892948275175 -130.74837709300976 -6.275494673587976
-16.0657285187772 -140.98328992112687 -6.287265444379189
-14.03011562334769 -132.11460296298674 -6.290468166589731
-13.674023688024334 -130.80354558502268 -6.274490054575438
-16.389603497313534 -140.92286530306706 -6.280221508523645
-14.514013283606833 -132.6307406721938 -6.287872536795942
-16.559552396347605 -140.8519509156544 -6.275977202638073
-17.016104327364655 -140.533874523826 -6.266518512591126
-16.912185310759316 -140.35567971808635 -6.269888654640552
-16.98668539485671 -140.27039657912343 -6.268962402980399
-17.451682037586426 -142.03283830235182 -6.246649068975199
-17.065246832897593 -140.44783981992668 -6.26625113024875
-17.240885716042325 -140.79864075915262 -6.26022551297078
-17.32881372266913 -140.7149199921322 -6.258032045482669
-17.859857377889544 -140.65229828114045 -6.245940995184532
-17.756705749359856 -139.41957800120198 -6.252851661775389
-17.712795410292426 -139.24450122477336 -6.254260085492481
-17.943354850914492 -138.57705164670756 -6.249035724814142
19.099797932155152 -144.81621819872163 -6.167090242558994
19.103104546348487 -144.76962619820657 -6.168044409932691
19.068431555883652 -143.27893901689075 -6.198774199076101
19.06626002380642 -143.09732990471238 -6.202061181204159
17.622278511119234 -144.75881850652573 -6.243306766555099
17.723619532601056 -144.67710499107832 -6.240152238382306
17.794840051848816 -139.26622017693808 -6.1970093078072646
17.703092179027923 -139.55284636955813 -6.19872216501576
17.937575189270554 -138.4224622294583 -6.1971254684690695
17.99451467387961 -138.00800090243058 -6.195809367274571
17.4314383543878 -140.03819471786076 -6.207816408114011
17.88300658559988 -138.09860114184013 -6.20255215090271
17.914050216716383 -137.9840715018514 -6.2014108047206165
18.181088694003723 -136.7716385667736 -6.185486304585536
17.27934129448026 -140.20308893596666 -6.214567680967872
17.313185706663425 -139.99900534892154 -6.21652736140344
17.812373902817654 -138.1825277167333 -6.206636280426631
18.122012859609512 -136.8687685678917 -6.189440967917815
17.798147954976233 -137.74326867011996 -6.209520910954355
17.546562746897603 -138.39647847705996 -6.22272875728415
17.522478307711477 -138.36472331475863 -6.224248078937246
17.526755826263212 -138.1868792190422 -6.225385734749914
16.87666776020691 -139.723926105927 -6.250220193746503
16.932994805127787 -139.6570499389292 -6.247691739997297
16.57854840810531 -140.73449046808372 -6.247725671321397
17.527654974160573 -134.96345682719334 -6.2094156433785095
17.27273860890584 -135.040448301385 -6.225073056326911
16.892427848590064 -133.8250032478872 -6.224731372499907
14.308732065546252 -139.45778903022028 -6.183127942873067
13.731295461768479 -140.87667370655987 -6.203924262001297
16.061320139482376 -130.80234114835974 -6.184269078276279
15.57626182510933 -131.0674975028909 -6.215504073521778
12.828887810301854 -141.1296336352872 -6.170221657581929
12.623895286389669 -141.4879577505721 -6.180318691617678
12.481331555310724 -141.74883076222972 -6.185035477345023
14.936228198840107 -130.87353748937105 -6.239004060107293
12.488825178352995 -141.18457025349915 -6.208914054575513
10.895250376332802 -147.14063558609882 -6.206814438189029
12.30102953693575 -141.21615205899576 -6.229989170420985
12.07860007964295 -141.4514818564113 -6.246023894258448
10.671838996143016 -147.13054955964387 -6.220491798399488
10.367839078772777 -147.98179918509138 -6.184528699075848
10.404088364771795 -147.2247817417764 -6.229959679717152
10.331587588315998 -147.27175072808254 -6.231139706638503
9.743247455955897 -148.5105178613489 -6.183509515743402
12.014015640358242 -137.5600359664343 -6.22004926576217
12.083972259850343 -137.4891039057987 -6.208347190280458
13.996943070687013 -129.13852450369214 -6.215271749807162
13.715083927894813 -129.51601610041791 -6.240882560647974
13.55963450724547 -129.612857145519 -6.250508053032284
8.75405839175614 -149.57696857026517 -6.160346216229131
8.786339140596187 -149.29269671732274 -6.177538326509325
8.813044671306793 -148.99475318874138 -6.195912853057238
8.83332852678733 -148.89895032744064 -6.201241679021941
8.851877498252389 -148.7952902529202 -6.207245049095444
8.611080364797784 -149.53651727355634 -6.169150021714946
8.63366923560609 -149.4292960643782 -6.175181401411132
11.24516402693558 -138.0880965376505 -6.192218058280012
8.553720182178765 -148.48435356320778 -6.240668786033404
13.289503828735828 -128.25922299308138 -6.2065228810310575
8.332741853683764 -148.81194838429872 -6.228468888277821
13.018064077287985 -128.5114332911551 -6.226432502160359
8.273781071751012 -148.51688013487353 -6.250278650082002
8.874141991473024 -145.85607267856835 -6.171369422087119
8.787129851354297 -145.76556183534834 -6.185238048958347
8.812205499010524 -145.7284314903621 -6.187506089958209
13.00293003586896 -127.271582232203 -6.176121382334791
13.01399477864732 -127.12999812018205 -6.169447381916135
12.877374657625499 -127.32295252142383 -6.182277142659632
7.132657746748446 -149.17123411408042 -6.250063633871599
6.7620988543579745 -149.69228704741096 -6.228005074339903
11.944560988249965 -127.15114796359788 -6.203314816694256
5.799055836124339 -151.20458074131452 -6.157676505163506
5.527597561871051 -151.36327738569582 -6.154780567094914
7.541280154359238 -136.15102723295746 -6.214426997150386
7.421668132839031 -136.2343680634882 -6.23169934247411
7.486613635352495 -136.18680518836968 -6.221994788328383
7.299796881456173 -136.27531245545813 -6.240248063392487
7.351300214464411 -136.25149511677617 -6.235523237667581
7.229635240976382 -136.27905924872184 -6.241136469191555
7.127598039584561 -136.25769264442988 -6.237609809461667
7.04971687576908 -136.22539689281746 -6.231767913658057
6.178210249006864 -136.62085884319313 -6.1625645670805635
6.181554368594007 -136.58543836543484 -6.155490860680259
6.130542769275926 -136.6262891014262 -6.1604964989894855
6.163050423381815 -136.61454967958815 -6.160304973263392
5.7772741083953445 -137.48599759033957 -6.193065252655085
5.792174034244088 -137.4357072409076 -6.184787817443094
5.715897166871943 -137.50881475466727 -6.188999636742619
5.722319691039005 -137.25254639202126 -6.2455435053964825
4.936501159389138 -140.23842969900517 -6.238789709229239
4.957724308156609 -140.20528918559665 -6.2459241398798175
5.629543064053236 -137.45951196060588 -6.1666198757139075
4.859948455774103 -140.2766638640697 -6.218506814856884
4.906606352829597 -140.14369296283206 -6.237935425526764
4.806285162599538 -140.09251781762873 -6.217385840505428
4.3789389332490405 -140.42566249219124 -6.214880928088056
-3.710299088733774 -171.98736624590845 -6.2292098659799375
4.204994063629707 -137.71111543836176 -6.227938978302294
4.244445641758681 -137.65009964853041 -6.227396204817913
4.285301058430174 -137.5675121736263 -6.224829957733526
4.2820432085024915 -137.46227478892925 -6.213612253049142
4.290859766502052 -137.38695901241672 -6.206831626623764
-9.258081468322757 -177.5224602215476 -6.222059494571085
-9.391712247463598 -177.46775664957423 -6.227669572306748
-12.455578696686413 -183.1058532025257 -6.14742742107111
-12.630721963467646 -183.07825017419916 -6.153405426511668
-1.605888112510132 -134.65545146387888 -6.224938046380999
-1.7889018306746491 -134.72172129947214 -6.2186961735752
-1.9314008339679942 -134.43531175764997 -6.200479211047865
-2.256749087094577 -134.60405162260102 -6.191341833207673
-2.7277364095036036 -135.1469462939179 -6.18726503313952
-2.7160739258914655 -135.11068460327292 -6.186358581083818
-2.576507065437883 -134.65723502469385 -6.177226478842441
-2.714065617025951 -134.63378862414336 -6.1697225600418655
-14.190885432171964 -150.30125900196455 -6.154733988089305
-14.428460639149204 -150.0409801604059 -6.158402947851717
-14.391897752745162 -149.38176820989366 -6.178133877449521
-14.543764254411972 -149.35532745502093 -6.176307154275774
-14.468941244291596 -149.0473464421193 -6.1861182321016
-14.611266508466024 -149.2914994025121 -6.176577445529372
-14.630307159652137 -149.2080207523068 -6.178834022694201
-14.65058424575135 -148.58229268655302 -6.195231478923591
-14.772122847637728 -148.3593181249228 -6.1989778282128665
-14.858059138464956 -148.57585293223815 -6.191604951045776
-14.842797231345788 -148.47944314350153 -6.194153159277164
-14.704846358892894 -147.97843747733583 -6.210040488971115
-15.158100902439308 -146.39764846840058 -6.236950257535325
-15.256355693618385 -146.3410516166837 -6.235678782390092
-15.67284946101238 -145.5959579454757 -6.241169924359967
-15.719951071460738 -145.43576706356896 -6.2430669462045145
-14.249960437219155 -129.10326862701072 -6.228843626047322
-18.228127297423896 -140.2131030141204 -6.23844220569384
-18.421563006157463 -140.04179225118995 -6.234339418243073
-18.41641547053087 -139.9096146722396 -6.235170930509409
-18.4890605970334 -139.68555819165405 -6.233795165059262
-18.351010086895393 -139.50530584713178 -6.2376267724579915
-18.558634425264575 -139.77619373919725 -6.232394204162198
-18.41563930804191 -139.32477186846802 -6.236435399767058
-18.45101029216838 -139.143833803742 -6.235883256593246
-18.431267267943124 -139.0537425315122 -6.237050274091014
-18.40516674376506 -138.9643526883662 -6.237246456821421
-15.563242598830868 -127.15178432243755 -6.161152887276557
-18.599166114241427 -139.59489959151233 -6.231903301959678
-18.482733860184453 -138.87177712760243 -6.236012112397132
-18.579908621246798 -138.77844984201082 -6.2331593265608305
-18.488956563913646 -138.69062984514483 -6.235990403930152
-19.067641073916153 -140.1425644738126 -6.218796072824469
-18.811475887165866 -138.4044691894742 -6.227646777317947
-18.80115132175604 -138.31303269916572 -6.228453906062425
-18.982119318444695 -138.21170137699096 -6.2234407410093615
-18.949030889248426 -138.11864867059418 -6.224781835247514
-18.96964587148934 -137.92804172961013 -6.224150472090093
-18.675181971153386 -136.6599378940082 -6.228141444264318
-19.037338229945128 -138.0189413196387 -6.222004460248397
-19.057230226202606 -137.74010993520352 -6.221765181531073
-19.119120119360396 -137.82433627192245 -6.219826855210873
-19.228309244713646 -137.6389275357367 -6.216858291582337
-19.127601373341477 -137.552988893415 -6.219730690140494
-19.1660750048457 -137.4566093131782 -6.2180208378339765
-19.24589113518778 -137.3539388401896 -6.216472731273315
-19.239705085297647 -137.2592188266898 -6.215824954399217
-19.193739660134106 -137.1717851556368 -6.217286755334717
-19.44342893768723 -136.86688620235842 -6.209753187570669
-19.530482958932524 -136.95336924400644 -6.2085294349159454
-19.65501667118226 -137.03669816824393 -6.205172184797532
-19.54195504430068 -136.6577106752257 -6.206719077892227
-19.691714947414876 -136.74100760406716 -6.203988539663565
-19.792818909147908 -136.4380381654294 -6.19984041899068
-19.819729501295726 -136.24272133546705 -6.198367669133866
-19.721164635790046 -136.16329933510647 -6.200947690652099
-19.709483582658255 -136.07269250885886 -6.200154936756659
-19.760097823842308 -135.96700121946247 -6.199057163244917
-19.441056119283477 -134.8508756954972 -6.199750859025668
-19.94836201149948 -136.3229255993598 -6.196246902577619
-19.94507013707544 -135.8434653864649 -6.193399465438221
-20.078627769207202 -135.72956502307764 -6.190219649408706
-20.132449458165357 -135.6256725907384 -6.1877379350416
-20.141423253661536 -135.5210221087114 -6.187586673793906
-20.13427840001715 -135.41971568165167 -6.186551941068421
-20.15506973207491 -135.31787045961838 -6.18606681938895
-20.163640452582527 -135.2181521139927 -6.184609194098468
-20.25671244833186 -135.1041031201661 -6.182301127700465
-20.365112598991015 -134.98717637252602 -6.178319033101001
-20.41584935456494 -134.87868990697638 -6.17701505862524
-20.4720835654943 -134.76921776738786 -6.174282562876398
-20.661983953906333 -134.53428854483965 -6.1680706365029
-20.636252684330053 -134.43756949341636 -6.168583225012774
-20.263453847310227 -132.99267456773362 -6.16330335850539
-20.657370767461803 -134.3325895942047 -6.166612123031324
-20.78805300580978 -134.20591552374015 -6.163192755841142
-20.788683653225174 -134.10395019226195 -6.161692010622139
-20.85561099350848 -133.9882358521649 -6.159816022367046
-20.865751184576887 -133.6781152572444 -6.156194020685698
-20.980877700437173 -133.86057624317317 -6.1551377196117265
-21.09383249232124 -133.73392820054727 -6.152065656612626
-21.083476214845014 -133.52845894330338 -6.150446899375782
-21.11487946829502 -133.41787540538445 -6.148012680112997
-21.11848807170084 -133.31254794469078 -6.147594146711576
-21.11980170483115 -133.2080286904341 -6.14586999685573
19.72905310288372 -146.37724940064027 -6.100499290061056
19.775250313471563 -146.29305507184353 -6.100160643435707
19.348271640684548 -146.60102080072443 -6.114091168914576
19.276006366475762 -146.7837998559796 -6.1132207920707256
19.44339695415297 -145.84579655626416 -6.127248473753991
18.680561822880502 -147.5924088749852 -6.121851061718206
18.741365343658103 -147.00160602906436 -6.133967283021068
18.7874109485247 -146.86464811378687 -6.1353712129027995
18.880365148481886 -146.48877393727832 -6.140123471951419
18.536734849977908 -147.08894662728343 -6.141682248732356
18.590167531994826 -146.84600533400572 -6.145465666803322
18.381013892662317 -147.20632441661925 -6.146171457571916
18.572059260705682 -140.43363245343866 -6.125012984200497
19.338342562688442 -135.60860063745582 -6.106968230475685
18.974405066522905 -134.8622959688586 -6.122316735792107
19.087435040605992 -134.04007861314588 -6.104415995203124
19.041939375423258 -133.964689074645 -6.105857020909068
15.555186099298313 -142.50455580556164 -6.094197174188157
15.206268931889095 -142.97177154700526 -6.10831986203937
15.160326534791256 -142.88734763210093 -6.115074513394186
15.157552172299674 -142.72886304557719 -6.120593160461522
14.910872521887782 -139.94468884195342 -6.113797187896121
12.137807543745675 -148.09120929579848 -6.073526876584115
11.760203364797233 -148.74894728080167 -6.057231880242712
11.86862780652031 -147.90166562577173 -6.101630913219349
11.696856654247684 -148.22169339136627 -6.092996884017007
11.746926208263368 -147.92058990845902 -6.108071811925071
11.789219820952233 -147.89291211458612 -6.107086051549316
13.398860792782108 -140.96352994391262 -6.106839324745724
11.57856945460437 -148.2061474564419 -6.101097804055515
11.715961280443857 -147.93200433318765 -6.109232742370848
12.82098385481848 -140.65394484744579 -6.110113889102177
10.69509100536165 -148.6189349254697 -6.126596339116064
12.240605908083493 -141.179447900531 -6.0593218086651826
15.459246455323136 -127.45410859582398 -6.09509061306949
13.643723766839608 -133.8742039374233 -6.0981551738252815
9.7566368573809 -149.9024542280311 -6.093101740346194
13.557322507101237 -133.7140901903476 -6.096005123078227
13.323434861637049 -133.90216323076444 -6.123763709412589
14.756274056706332 -126.85267873152142 -6.098748622567198
10.141954166623538 -146.22169891255726 -6.05513210223123
9.945879481376595 -146.33229662045824 -6.058129545700844
9.83609500385046 -146.43014759071747 -6.0561278212497465
9.876302474324865 -146.39055500057177 -6.057258410190726
9.904344854677438 -146.08179606582664 -6.084914371185243
9.727772604410111 -146.23114055512204 -6.082460002534705
9.676588486578332 -146.15200908948324 -6.0934110443201615
8.601104234888718 -150.46714871837244 -6.108383624715263
9.62192085134859 -146.13761455962597 -6.098393693377095
8.607330773623401 -149.82011278138037 -6.150638037174056
9.466616470209205 -146.1628220852086 -6.105870567612396
9.550346067646911 -146.07262199289497 -6.1092789608989015
8.413174823487044 -150.49769503853042 -6.114230388874425
8.57297767429575 -149.83807165539034 -6.150956785420445
9.429842021891869 -146.16471096074793 -6.107973554201059
11.17037957656228 -138.1240129184474 -6.0624881702047215
14.179865931792767 -125.4276558139352 -6.0617023239446945
9.212376899923832 -146.31625729983693 -6.106405868149645
9.246278927863248 -146.21141843185168 -6.114661217019135
9.250033692411254 -146.13826317650864 -6.121644255640121
11.790678959819559 -135.3028649563712 -6.097364437339915
9.115057507156903 -146.1279550258039 -6.130674336279582
8.83955971560874 -146.74558188673797 -6.084965227693301
8.86813296240812 -146.6283525116973 -6.095093553785973
8.886414566103873 -146.59207106605905 -6.0976702971407555
8.997768588078278 -146.19132763711397 -6.131212145357578
9.056857181200206 -146.13342959234313 -6.133548450963748
8.743604355722367 -146.7091354140483 -6.093670325044615
8.803437844025659 -146.68774858352134 -6.092619965888189
13.408977342014765 -126.60681627420698 -6.135481813625174
7.004036035686342 -151.58721991840454 -6.095074020040279
7.81309816967 -147.50563116569893 -6.056618370229391
7.852619028973152 -147.46874565917943 -6.0587233357496215
7.787362984273588 -147.52072618155483 -6.056095002967908
6.677082183798019 -151.50697339572775 -6.111226035224179
5.8700593960981875 -151.61710466386114 -6.128614921425957
6.783811912816228 -147.61758826639252 -6.080706202275845
6.759156761948719 -147.5776247056393 -6.085461925864973
6.573142675251674 -147.74076936911896 -6.074072532805831
6.607305009059167 -147.43520424331027 -6.103954531769496
6.669713845769288 -147.3555447637371 -6.110310485954077
6.489549049921136 -147.839758361998 -6.066298392686807
6.048906179585833 -147.76207806426766 -6.08426834558081
6.070823386124727 -147.64252414096842 -6.095725733939335
6.137801279900074 -147.59519929445133 -6.0990757412772
5.843176944482959 -148.0792337497832 -6.056715360605589
5.902967364022744 -148.00525066299681 -6.062937015596289
6.015014433426053 -147.63900735166894 -6.0972386749966105
5.763324588973127 -148.0253301934466 -6.063583079330184
5.683303812296559 -147.96901948389143 -6.070576645228412
5.757233111718737 -147.90630206565677 -6.075496579474916
5.595969319325085 -147.94759090370317 -6.074169272546378
7.425437782398528 -136.21391143720558 -6.103822152431809
7.4725889252325075 -136.12905485397215 -6.0843016322663495
7.323390126625176 -136.19617213900978 -6.100612150638987
7.370760121311128 -136.17352629117389 -6.095281320743347
7.248073357809952 -136.2303960203509 -6.108350417976892
7.123834371992104 -136.2386942212965 -6.110384343112467
7.17695946799166 -136.22792086506013 -6.1078613088214615
