ply
format ascii 1.0
element vertex 839
property float x
property float y
property float z
end_header
107.90227397899521 -154.0838711167147 1.144992664524767
107.38295325953901 -155.71671640930057 1.1412760591955529
107.61465327802546 -154.90422497769487 1.1434415110627587
107.5986514456208 -154.73688936592748 1.1446806881742713
107.62452407999653 -154.60757873527206 1.1451984731689229
107.64092541271509 -154.4613055070622 1.1458628632632666
107.42398550274058 -154.65187856723742 1.1471559336683657
106.99104438425377 -155.8541256213066 1.1450966830980045
107.30207352329306 -154.63082962862833 1.1485473290619266
107.2185123814249 -154.89598817283513 1.1479793203166824
107.31813224744397 -154.47962521700725 1.1492052768963155
107.34535761878787 -154.36682940201408 1.1496327699815063
106.96607112402026 -155.2862546098017 1.1486494822784326
107.16731206767136 -154.5706466337106 1.1504130572280218
107.16386144843203 -154.54624681655199 1.150526246481735
107.24302724788775 -154.36620611938716 1.1506135304766776
107.01378640213382 -154.54871157075286 1.1520166765344224
107.08874977896404 -154.53128029400287 1.1513393952467017
107.11223535317731 -154.42172448189527 1.1517739296272094
107.10049077916652 -154.31448225561556 1.1524525579328908
107.18007640132443 -154.09246631989532 1.1526959239431802
107.14143583834972 -153.8211849276057 1.15456604197932
107.16252715350771 -153.7026021290263 1.1548428079627677
107.06877463939362 -153.67593595749486 1.1559787329510873
107.13738323649113 -153.60429493889487 1.1555691322960358
106.71628103711018 -154.82881843333433 1.1536628154760744
106.94602274035273 -153.63509123472662 1.1573186654419332
106.33338856644784 -155.71501695112735 1.1529481467161724
106.7822400492761 -153.84895579132655 1.157801679563384
106.88045931816093 -153.70435917904976 1.1574854422980039
107.1443841785817 -152.6806987822161 1.1600047619365554
107.2120236200657 -152.42920141762042 1.160445429213824
107.27983952031052 -151.97451759879345 1.1620407490988363
106.22236994749055 -155.88537804096356 1.1531054888504135
107.1725758039339 -152.33477231622527 1.1612180086849129
106.78350141440092 -153.3642357348923 1.1600316281678718
106.81975171749839 -153.01378760201982 1.161186907565389
107.05645252353787 -152.08455311131206 1.1633724313590847
105.89536511651443 -156.11569224484188 1.1551378011465738
106.21743102686165 -155.0011801483705 1.157493515005028
105.86254372599294 -156.10397585415848 1.1554569499584044
106.08417671869947 -154.72601292298648 1.1598281892245976
106.28281755871427 -153.90401387936666 1.1617797546719026
106.50848810788361 -153.0753516669339 1.1634641501937073
106.6280926587041 -152.6025329957946 1.1645754051026385
106.26452746439915 -153.81899387089658 1.1623330100590337
106.51032034815472 -152.67377511708142 1.1651302390353246
106.57440490925563 -152.59685571869923 1.1650709947812414
106.53393366734576 -152.5017720419272 1.165771597978083
106.6027968701568 -152.19745239468523 1.1663928177664658
106.07751868861692 -153.61563724344717 1.1646057590737287
106.17034450523224 -153.25211925831772 1.1653052132295374
106.56368516846824 -151.86724222583084 1.1680296912253887
106.3169233281763 -152.3861119461113 1.1677178109564186
106.43668125954612 -151.6496477758474 1.1698959821182677
105.35209775272448 -155.51216984452802 1.1622126309475427
105.79030917810998 -153.9120947995022 1.1654730857618765
105.99546946624096 -153.1672198049721 1.1668830265507826
106.18483212158837 -152.33999648457024 1.1688111797836445
105.79107476948133 -153.39913385735633 1.1673585364182133
105.84902801039667 -153.31848649925647 1.1673842076011445
105.89365377193296 -152.94336966929754 1.1683507877038497
105.66398594163552 -153.611667522238 1.16721812068298
105.76882634447202 -153.02563409056577 1.1682530043504715
105.69867857753854 -153.15326396681033 1.167833212237407
106.19083155817324 -151.12282681547575 1.1715010085766022
103.8950959774062 -159.3300333075011 1.1562574865717512
103.96930419925032 -159.29239447514217 1.1565131026691933
105.47589317895425 -153.37635182144723 1.1673475100255462
105.53416343736363 -153.27801752971365 1.1674321615870755
105.6167187611928 -153.09317802669807 1.1679670967953057
103.80773174674489 -159.38309043369628 1.155941857115135
103.8010288031855 -159.3625311160547 1.1559787730354196
103.8962314325803 -159.28695226206736 1.1563652386137857
105.46704570754729 -153.02284733379452 1.167695562932925
103.76254869226251 -159.40718283701133 1.1557410632601681
103.78619469734564 -159.34279059093217 1.155946512869166
103.79697645940232 -159.02515066502886 1.1562616851145209
105.32310268802412 -153.4043363773026 1.1669832501105266
103.35827424172187 -160.20893054073963 1.1529088331504846
103.36965264794621 -160.1828172611924 1.152990935997341
103.73340208045269 -159.05470804974377 1.155937596281194
103.74540212340753 -159.04675570652302 1.1560585604870088
106.06825684980834 -150.1182898792154 1.1729472962634937
103.3434087294932 -160.11513849293092 1.152848049097768
103.57034554609434 -159.23955655877415 1.1549889562605173
103.25701681856661 -160.02325025242214 1.1744054671289725
105.05525838365759 -153.26166215382827 1.1666201954645399
103.06676863728583 -160.233149591936 1.2092662972448895
103.11252774828911 -160.1472258985424 1.1506706783031286
103.22264298305832 -159.80199772847786 1.2261057138483773
103.19981981254475 -159.6656165919785 1.1519814569568012
103.21547905757834 -159.55560291354288 1.1522128347453846
102.9265971247032 -160.29245712540538 1.1482351428528275
105.54206527597086 -150.5703595660111 1.1711562719352784
105.64364959427027 -150.2809160597996 1.171581961876261
102.86560745618333 -160.2728536031778 1.1474422035943581
102.86534129277044 -160.23345307483027 1.1737613944369683
103.03540474429217 -159.487771000854 1.15047430780955
105.0598192928208 -152.04505313801565 1.1678719623284621
105.26644518179022 -151.1478379344801 1.1696898203404749
105.40742621966258 -150.62095645029848 1.1705267107051744
102.75202810108385 -160.25577875037428 1.1685387304593737
102.80094716197233 -160.21375924406195 1.1874879750771927
103.02414973067039 -159.45052082016124 1.1504515988894366
102.61493183142643 -160.33562018269532 1.1781711515662698
102.6590856331719 -160.25986526551702 1.1760309794469435
102.68410443774913 -160.16616061020338 1.1726828378396967
102.84400875177859 -159.6932230289326 1.1480886740353673
102.97259428075891 -159.27415056041997 1.150092510490172
102.96000218169652 -159.23910541889518 1.14992895734059
105.08416074875808 -151.06798353377522 1.1690002101141177
102.50118646492677 -160.39354089826628 1.183195905238529
102.55249728425333 -160.36233250731328 1.1654054498077775
102.62999078995921 -159.92132875720338 1.1447379077046649
105.44596861778689 -149.230850609304 1.1723934115282098
102.43199999940359 -160.39050010620264 1.1687506053969303
105.31092344450344 -149.2179291750753 1.1717242480752752
102.35747180929583 -160.36866824248972 1.1748690103395578
102.29288692668673 -160.31836726031108 1.2023024835105964
105.3301866303357 -148.82998309274842 1.172403245872762
102.28228201647715 -160.31285921390128 1.2024272821452882
103.51241675404839 -155.2724468857388 1.1576484179881947
103.54953412218157 -155.24322033579836 1.1579761584541326
103.59070159729087 -155.14828308689923 1.158374907255158
105.07296192205789 -149.59136582569803 1.1704500824374413
105.04817574454313 -149.46030258214418 1.170692478121123
105.2234577807492 -148.90827495888237 1.171924645112935
105.30054913508896 -148.72191690914428 1.1721772113384779
105.7330449825768 -146.97688704132338 1.1758058327535093
103.44165082279979 -155.31734482966985 1.1572049041273234
105.00487593657581 -149.44790604496635 1.170317040854021
103.32569589247227 -155.28858953802683 1.1563352141372694
105.00248214157844 -149.14661023645726 1.1708150050109956
102.41992608560354 -158.61007185704523 1.1443033958481068
103.27945217693491 -155.2439842733284 1.1561162329268342
102.33437028754592 -158.56745954696459 1.143240418836485
103.23292498416603 -155.1156229153051 1.1557832808858952
104.75937291317777 -149.2639539352646 1.1694298379616317
104.61304373557279 -149.3938439642076 1.1688328963364505
104.52533035655767 -149.39239728534105 1.1684003705122323
105.02586656861914 -147.50542205250684 1.1724839669958695
105.16834531526531 -145.42132474637086 1.1750731621623485
105.10359916314529 -145.48018318341045 1.1744402384727761
104.0074515795818 -149.18052245490344 1.1657679944543882
105.00832900487072 -145.32063184576833 1.1741110702781705
104.86366371679188 -144.9921300716142 1.1739818496056127
104.93119183048037 -144.9143939066023 1.174096716930053
102.27837799117182 -154.80010821703127 1.1474756334197875
102.23794978533472 -154.68848026308257 1.1473192563674375
104.71156109203159 -145.3474415289868 1.172894287486478
104.82066546802275 -144.8051471132479 1.1736349400702069
104.06483858689663 -147.4327634563906 1.1672852537426281
104.62204059787435 -143.43343028523125 1.174061995752843
101.9949884033504 -151.81425117951773 1.147833443409348
101.75519331068095 -152.15518490757432 1.145029535850155
101.69339964280233 -152.1969603910706 1.1443212485244738
101.62546033032802 -151.98693311356735 1.1436290738746369
102.91250890633609 -141.92582870454777 1.1641382418420463
102.9813972575036 -141.84488504050026 1.164359068811019
102.54593173996608 -141.5744104983235 1.161269496828778
102.74334100389791 -140.6487293786763 1.1639006578374786
102.34211052849295 -141.7542628105814 1.1598444355697504
102.41078963863501 -141.70735989905086 1.1600717918398489
102.66675564164058 -140.6305042046495 1.162951231405187
102.58547692382987 -140.46069262079288 1.162851302951752
101.88129275829837 -141.24222315003618 1.1564550350392007
76.4658070569321 -185.14453037867906 1.1662403892334816
76.2731058359791 -185.48041485880643 1.16239756720391
76.44133740745299 -185.00632665866775 1.1677330960398258
76.31114840818933 -184.95616873807418 1.1718165888722678
76.39025707270838 -184.72237029287498 1.17325142183599
75.82683773896936 -184.86743985676472 1.1794814886036498
75.66885373635215 -185.16423271440286 1.1781959779656905
75.70644135151605 -184.48431810618246 1.1889661564517977
75.52419867499408 -184.9543909755228 1.183922243293964
75.56917937244978 -184.75805376755721 1.1853161293130847
75.61536030009663 -184.39828436119737 1.1906141224829705
75.57594680314223 -184.2672717602647 1.19459518423613
75.5366185224253 -184.13567932706638 1.1961837159824795
116.96139525929802 -177.36675439950082 1.3133444533974885
116.63180638692096 -177.1030711710474 1.3079641396147825
116.34706207067346 -177.76878961466957 1.286828733821742
116.47256220994151 -177.2426666940843 1.299673511011338
115.82717461040528 -179.50950818344978 1.2414498573142743
115.83546452565074 -179.26154462964953 1.2457622888318005
116.20959674449765 -177.9386063746877 1.2803468111632574
116.35899869211508 -177.34038969746052 1.2944454803763903
116.53572265012957 -176.78413129889844 1.3102808343343622
116.55014792795967 -176.69851263988323 1.3114691217230563
115.63950584248799 -179.37324537018384 1.2386082012803028
115.65759425219791 -179.1435128730397 1.242936516939246
116.01711801418145 -177.81661959582982 1.2754640126907388
116.11112887636872 -177.70411085801516 1.2803316001985012
116.19912671418747 -177.2558074740756 1.291469961896344
116.21030236270676 -177.051584805144 1.295271047222038
116.30077190668317 -176.83511985955175 1.3010715225297402
115.4609852165389 -179.51148731737044 1.2299198520594912
115.78510198958045 -178.33004991301763 1.2603035010241213
115.80330091559082 -178.2353012290517 1.2616455451666226
115.97284268366838 -177.87269419106687 1.2738866241373201
116.00316267675223 -177.4614399742404 1.2817381182001797
116.12644920182287 -177.27542237052816 1.2880182825983284
116.23407358297001 -176.86159425316728 1.2992092576368977
115.43946662158166 -179.34825853018793 1.2327482438602753
115.47031147601614 -179.2629125356721 1.2342637842935276
115.83658854348309 -177.929997219275 1.2685786426908683
115.87508089172792 -177.86380955155872 1.270115855027313
115.52027558983521 -178.6369651623166 1.2464406459219592
115.58208912164142 -178.53385063785407 1.2504709689882303
115.73711848914202 -178.0334404137937 1.263699926584088
115.51768709909233 -178.3272905316586 1.2510306403875855
115.56529111173883 -178.2185662502713 1.254766028605677
115.56019240261608 -177.69457572019326 1.2629345205596851
116.12527091696033 -175.6372718341751 1.3158963123811842
115.99479193716107 -175.643063901716 1.3119213001880166
115.8798277513362 -175.81048762804443 1.3053297002898092
115.9229046388367 -175.71117014280432 1.3087835491280198
112.92853953504198 -168.8986767258856 1.3298692300268309
112.71643079597995 -169.1557360505618 1.3181238778733237
112.80315222780017 -168.90948598939522 1.3251996017205887
112.69007203654839 -169.08462014504784 1.318126475425623
112.7105750921338 -168.99482927823743 1.3206932960629312
113.98013338854328 -161.2204775341336 1.331200493093005
113.92072954816483 -161.261490784325 1.3293199511632252
113.82936826914451 -161.080747466781 1.332039278458868
113.60658914015517 -161.04466070320169 1.329479133663031
113.70584206335536 -160.8338890128322 1.3356386637374276
113.53426336741168 -160.92499764582624 1.331037258481944
113.42383745346923 -160.98856515693942 1.3280089296299384
109.98872464380891 -167.26981684335533 1.260879013593771
109.82945335843901 -167.57144346971657 1.25057477951952
109.81875046426902 -167.52231810336707 1.2507830296255147
109.84696150173353 -167.38856619876373 1.2540821648431626
109.90396081186005 -167.2801361489129 1.2578954784777685
109.94800822518091 -167.27610306948156 1.2597139877440797
111.46586234009595 -161.329334499246 1.2912223308223316
109.81677588648195 -167.4811432691829 1.251744204073108
109.81794548336687 -167.4236145816843 1.2526544152402403
109.85327510835158 -167.31537349481323 1.2557790215949383
111.54355224205528 -159.5954925703235 1.3330134326971035
111.37249190841843 -159.82777162435045 1.3248145856025115
111.33227724616967 -159.79258604434605 1.3250614133314869
111.43749010682063 -159.51602985102033 1.3334144356034696
109.96688068238204 -164.83970680565128 1.3043939729057212
109.9698848619855 -164.81236932917255 1.3052041482987373
109.99915495917548 -164.71166524187623 1.3080464433744132
111.24935054360019 -159.72372118797313 1.325546369568487
111.33515069128384 -159.51570266661145 1.3320004075784313
111.18167219242667 -159.80223743708842 1.3226874663858241
111.0469297422112 -159.72007749873146 1.3227524841412872
107.70075987264603 -161.5827135487403 1.2837341749238969
107.74419788141842 -161.44378745534883 1.287545304858764
107.79530522167809 -161.30781329954914 1.2370503383813385
107.80028290199145 -161.19347117555003 1.2397043832273211
107.73241746652829 -161.18768982234795 1.2388593583350744
107.5670175298508 -161.30498866581857 1.2840310820584364
107.69144625571055 -158.33510377590758 1.3161325674714195
107.7333382478664 -158.32661746203974 1.3169263236670674
107.6197599964235 -158.32863653397635 1.315606243054443
107.55345372091993 -158.3057865247925 1.315632181793301
107.51419177360188 -158.247907698063 1.3170910535731748
107.53495041071291 -158.07087599777807 1.323078599953112
107.50310772928931 -158.17956529105672 1.3191453044853665
107.50037754738743 -158.14174152621405 1.3203808061748181
105.8454788860889 -162.9508689436114 1.3004570520640217
105.94860047304883 -162.64362070848338 1.3093595597992354
105.81560720572948 -162.91754911374022 1.298601797002739
105.79176221080652 -162.84030074027103 1.2974496804970983
105.81868568721184 -162.74160802369295 1.2998729599273486
105.87570010478971 -162.67254626868402 1.3042026233465898
102.82375556130772 -160.30245206838885 1.263154606591958
102.78848333462942 -160.2602970031612 1.2662033315794106
102.7528113448208 -160.2318549243908 1.268283086582176
102.61346100584252 -160.3344710457755 1.2885263983287238
102.65397764741984 -160.2600764786015 1.293557094091709
102.67860688777577 -160.18207556036913 1.3118478887969234
102.76559351240891 -159.95758056002188 1.2874334827185172
102.90343312397057 -159.210434582901 1.2447247718344387
102.49816091400106 -160.3913487007666 1.2808232291691857
102.54988590902032 -160.3619566334786 1.2955846288637476
102.88927904411406 -159.17378956820974 1.2458725859668793
102.43306472847699 -160.3859420708472 1.2906195045759723
102.35561920719651 -160.3647249876401 1.2942491783958079
102.30044629526442 -160.30537169308607 1.3327185039237803
102.28296331556493 -160.2971464749492 1.3121788514234578
96.21611041834801 -159.17504793235057 1.287796382075949
96.23202844104128 -159.10980618818735 1.2888736152203606
96.09673809987208 -159.18588995880845 1.2891574133638484
96.16294567126121 -159.04080796669413 1.2911428362578186
95.50743596192054 -160.3550364208689 1.2777217934383844
95.44618399235605 -160.2710543723848 1.2798040216659843
95.60950360917185 -159.52213441002226 1.2894663382831513
95.62359145943799 -159.46821984742508 1.290216807249273
95.53481247327824 -159.54310811949577 1.290104861599958
95.59074643173534 -159.41420709494597 1.2916354351295365
89.32779068992826 -163.02566687135635 1.3311456403366715
89.30984275172588 -162.97518720949873 1.3323126269714618
89.30541116565045 -162.85747210579848 1.3340402702752021
89.2517453818261 -162.73792842880857 1.336500325278559
89.04910502459701 -162.9479822145708 1.336407761522894
89.10702446932714 -162.79595604220015 1.3379458969418052
89.07124556384962 -162.69826140003548 1.3398968478698206
88.83612345879922 -163.1698615979917 1.336292387357616
88.8317908502718 -163.1186754258246 1.3372840618989699
73.96021413176811 -182.65224697451853 1.2463939046483543
73.92065306616111 -182.52698087974682 1.2479683310556693
74.31916494008276 -178.40916644708517 1.3115096147856602
73.59802771569618 -178.1443782073072 1.3260687289518107
70.94711236034786 -183.6285237604097 1.2755487466133204
70.74486392280349 -183.92573434250477 1.2748878116424263
118.27618461402808 -175.115754059715 1.3960198971520592
118.35849215685715 -174.95830587391873 1.401217198810244
118.06243516497817 -175.53315177250963 1.3819024953720789
118.0922121827693 -175.4649562023728 1.3833527978569657
118.13512225305492 -175.36672251326755 1.386910179378069
118.19307039169354 -175.27796743478763 1.3907749963525138
118.2322176152664 -175.2188447199308 1.3923891397007133
118.26709995380281 -174.969278354598 1.3986954362165105
117.8931730616625 -175.8587547701142 1.3698488109428282
117.94062951757107 -175.75586049379572 1.3735722102816017
117.9848672706656 -175.6527376438247 1.3772248232236897
118.01985972846815 -175.59141468601968 1.3787378195732256
118.45220382531022 -173.69724135237834 1.427618005902183
117.68930702459323 -176.20919501945846 1.3574267439222858
117.74230913234081 -176.11091675257117 1.3605003595629896
117.79145934942088 -176.0084506926675 1.3642632415912952
117.84288619442336 -175.9086484619222 1.3680674306732934
117.47712664806953 -176.5516833185951 1.3449097235699627
117.53863364829319 -176.46045328658846 1.3481148819657778
117.59824394130777 -176.36758204016715 1.35129254534701
117.63131948420347 -176.3004489121045 1.3543018697055484
117.40324818004096 -176.73177590437257 1.3389895156118554
117.44453958468986 -176.62253333582677 1.3418576742346784
117.10956636260293 -176.57806913603807 1.3324569374150825
115.5782573340762 -161.0274063831205 1.3593023472490602
115.6040570646023 -157.81696691820989 1.4361080562592616
113.35571215148477 -163.95969832891404 1.4338657144311666
114.31806019350445 -159.57460719280218 1.3739994814207304
113.07242542031403 -163.93797547130413 1.4249200094575236
113.91454788145651 -160.8496933060213 1.3384765583081406
113.83256434592963 -160.70726965467102 1.3404727660347457
113.68588931870413 -160.78012395328963 1.336599515951741
113.7686357074421 -160.67736035270704 1.3401140100625055
113.6543303720396 -160.61663790835064 1.33980022499654
113.66388129515664 -160.39323475948368 1.3450737199452982
113.56757349123122 -160.66424581931142 1.3375107858589597
113.5497543712694 -160.48404365048262 1.341289754105961
113.64072526015015 -160.17172597055114 1.3498804340132002
113.66968738764722 -160.0930801580812 1.352155517482942
113.70348690867873 -159.82106730219724 1.3591668289464336
112.64187220054971 -163.74652094591698 1.4134968034558322
113.44790095712389 -160.58787241328884 1.3374327634412746
113.50479242094168 -160.3446575629206 1.3438469808853513
113.5951124996891 -160.14258658241235 1.3499723178653755
113.61326450918513 -160.04506596698664 1.3524895018605037
113.69032332097792 -159.76692043066944 1.3602255725192707
112.50183470798962 -163.85421562944418 1.4072498081248042
113.37912317362222 -160.36346209925208 1.3416316145370992
112.45705034814193 -163.17531123059868 1.4161375551209852
111.80324758907352 -162.4129158738795 1.4065364010779726
111.7910062328658 -162.3813540333148 1.4066917141702868
111.85553625727917 -162.2933056058476 1.410215331526322
111.90301437673652 -162.20581267272146 1.4132779135942468
111.74746006903443 -162.44030135087615 1.4042937175617207
111.78220262818463 -162.31998116252655 1.4073940145236508
112.40628875296028 -158.37187805079395 1.37636427149381
112.28181876214666 -158.3503160359734 1.3751729252970297
111.78854514036394 -159.3157707770384 1.343543501900169
111.8137309425803 -159.27526255005486 1.3448609114170815
111.66336464246803 -159.43419767113218 1.33875069397976
111.7218000816884 -159.22169669900606 1.3449121403574855
105.84459032825083 -162.96478317279573 1.4011373723114173
105.9504014087357 -162.66338226626075 1.4103496259144968
107.9617512623438 -155.01409621767928 1.4312122073402653
105.8147981886802 -162.9204812555427 1.3978877654835884
105.79769571194021 -162.84035401292562 1.395638680956616
105.82967985355486 -162.74808266299763 1.3983986158046378
105.89111647976351 -162.69038625913055 1.4044085817112149
107.85849471768356 -155.0362432395252 1.4296981982577175
107.72455368752237 -155.0322159874531 1.4288237811345503
107.77785887452492 -155.03015173536414 1.4293262293220803
107.69681708562989 -155.02133571375305 1.4291176287476468
107.65108431749263 -154.98565024519687 1.4299990972242305
107.6044356918283 -154.92346211752792 1.431907714395383
107.59155724011362 -154.83549185626958 1.43496158730297
107.59019378115676 -154.75378890881564 1.4379225698257492
102.60738988092156 -160.34178696179964 1.3807544506198346
102.65284548803707 -160.27138531551182 1.3888932779395018
102.67908203797163 -160.18090780679577 1.4005295201195824
102.49855549793132 -160.39295154878903 1.3899676415433377
102.5512164322913 -160.36978933283908 1.3789741064155212
102.43077549587878 -160.39490298480234 1.3806182593500165
102.34546705110732 -160.3533609956768 1.3899460206572205
102.28796533890964 -160.30398677597526 1.3990698821829137
103.54868090804162 -155.23855572981398 1.3917516018411886
103.45185450266801 -155.32117710777408 1.3879740592349905
103.35082044373125 -155.331405125446 1.386791772384211
103.27772078096865 -155.29321737599378 1.3876029526032228
101.97462896905685 -154.4330820940131 1.4099007798954928
101.94415076693613 -154.4218928021313 1.4099941421502857
89.1395836487236 -162.4452521142006 1.3424017730078135
89.18357795395842 -162.24705054318542 1.3446110438477503
89.0456796313286 -162.49960846604316 1.3431493991549406
89.07226684348024 -162.34821291757254 1.3447950869119432
89.06689563557562 -162.29927847420853 1.3457164104244839
89.0985576028441 -162.19898771260227 1.3466850471557457
89.19363415191218 -162.14929995126104 1.345867452921048
89.24909594520801 -161.82544322851066 1.3497023103328076
89.28305708292159 -161.73059753835435 1.3505460188970482
89.26838699590239 -161.5598011081947 1.3531072559330473
89.29577293632103 -161.5109961084614 1.35348739892152
88.93427415165189 -162.60509196495627 1.3432677034333
89.05668674136126 -162.0778103989874 1.3489705891604864
89.05804073364129 -162.00275769070828 1.350079932229609
89.23725334724857 -161.6078373134846 1.352998114043688
88.81894922001199 -162.66197449066092 1.3439931606643603
88.83804236753504 -162.55949376198802 1.3451980787049211
88.89196371455674 -162.40261875739233 1.3468077800977925
88.9738112358038 -161.92647766311347 1.3523345876748425
88.9580478359999 -160.79632899743558 1.3682748026426432
88.81929522429967 -160.9375278926344 1.3683189232487933
88.93129318112989 -160.7185324721621 1.3696850719741764
87.38272813232912 -160.2802575871434 1.3983582271220751
87.15342300392874 -160.7664115148104 1.3952584431052293
87.16796810773482 -160.20051430481473 1.4026470971837912
87.22379464439199 -159.86385760702058 1.4062727449804207
86.93796330673709 -160.86899003155082 1.397043575710809
87.06922316101016 -160.07486700594265 1.405770800897845
87.16536684797171 -159.74135414556514 1.408740798094753
87.1751872398645 -159.6275154410714 1.4100813582145728
86.98123433083843 -160.12328105205535 1.4063680637922962
87.02755435188328 -159.9837288460645 1.4075629202592919
87.03199668958567 -159.89773409049852 1.4086085199711367
87.085892444062 -159.6732526824873 1.410766832515318
87.16995614590599 -159.51155464141317 1.411600569836306
87.24994680506838 -159.06265725579067 1.416162406616467
87.09146333328115 -159.44225125136836 1.4136354306678758
87.07374644033565 -159.32331822893252 1.4153922258525984
87.12368262955411 -159.09881645200105 1.4175456581665324
87.17999582036667 -158.93375834108122 1.418908464107401
86.93789709126666 -159.53573208412683 1.4147463812013075
87.02133773715224 -159.3728694483641 1.4155368935947563
87.11637645130527 -158.9808053575049 1.419211123288485
87.12958940072437 -158.8662706051984 1.420554055123169
86.90940854737568 -159.2377965846818 1.4189068416904034
86.92770344681195 -159.1527656404664 1.4197335617742282
86.50165561325531 -160.30846176918357 1.410961624104
86.4404001893121 -160.36167317302002 1.4112220173871317
86.94783181145569 -158.23853647403092 1.4320235195857611
86.31052160337128 -160.22949967597592 1.4149036280058733
86.8405814694634 -158.33364878904402 1.4321939899098388
85.91453339918148 -161.16719741022908 1.4080310112164034
85.74757798397931 -161.31741793844338 1.4083644885552502
86.12931628466814 -158.61434810693243 1.4386249753480207
85.31240518250766 -161.20665878115196 1.4162407690201884
84.84459554966695 -161.05544475260527 1.4252065823477564
84.87102226582522 -160.92892176439307 1.4265584772942088
84.6182916143679 -160.26014200031923 1.439356716438145
74.47368950682076 -172.99968637602825 1.397151536106782
74.389709885173 -172.9147255102088 1.4004893660630318
74.59777637844606 -171.1448094485732 1.4250833632313809
74.55066490412689 -171.0501953660405 1.4279366867460448
74.6104610999179 -170.5891761485797 1.4343344517377208
74.42657933418798 -170.97642866094296 1.4303419117429774
74.49733909103102 -170.73247764942192 1.433144718184057
74.54776429418563 -170.4990412271174 1.436103974253625
74.532840343622 -170.39266397904697 1.438607187210843
74.23728288576231 -170.92048992692182 1.4346723968128938
73.4636075768639 -172.09473175809129 1.427701210119289
73.32594085306371 -172.02546501292215 1.4302123806765146
73.31104972952738 -171.91207662318024 1.432917013055283
73.22797222589196 -171.82071158794207 1.434945041959303
73.16558934868057 -171.72039053182291 1.4381197626231819
70.23436362392975 -176.5365812888572 1.4040124176408457
70.26921684081088 -176.38762806040913 1.4068397397123622
70.21760703615087 -176.26964765601096 1.4086445229235793
70.10323306619378 -176.1765645713166 1.412759126604501
69.84646610021196 -175.87897596142665 1.4206584220693144
69.65117621028047 -175.8209537546985 1.4254325485697166
68.8704000057381 -176.56967791617797 1.424245235350283
68.82344538070686 -176.4488476209987 1.427827840671395
61.799728224191924 -183.3032416530009 1.4228367948497522
61.78223305484593 -183.12933806486 1.4247246842636683
61.036650109124864 -183.32249803417506 1.434173980408944
124.2899790102288 -160.83543607100646 1.4935081734785496
124.19992362313198 -160.91428709655966 1.490246727252408
123.52127587594325 -160.80446106626434 1.4825348689735056
120.27263972697885 -171.48794005537414 1.529451865456946
120.13491149921614 -171.68584350189028 1.5208084450865096
120.19957149802102 -171.60514089731686 1.5248057202997858
120.15249367228719 -171.50180265174743 1.5245308675864109
120.20029983734315 -171.3673417659907 1.5286195217238454
120.04324889981828 -171.75236351762783 1.5161659623873986
119.77246342846637 -172.38356698059297 1.4952873568430163
119.85026194507498 -171.71381431926574 1.5109625724372409
119.6802905539437 -171.85100053336453 1.5020801769871541
119.71896706474259 -171.71215182162314 1.5059266385941414
119.23122160034112 -173.2617913148024 1.4616274027265477
119.55074074103635 -172.00969656159066 1.4954057779899936
118.84274208932196 -174.17888372467425 1.4319863090928187
119.26735220640224 -172.46641049998658 1.477439513141775
119.40480248358423 -172.0740673905284 1.4892824568087417
119.48539175631107 -171.89077263959786 1.4947762623846688
119.48999753013467 -171.81394652654748 1.4969719042674443
118.80141189063454 -174.05638807555118 1.4321046391039827
119.19563084486147 -172.49907638290617 1.4737741887196378
119.37059626698961 -171.97788041681645 1.4893108061939735
119.47444047621029 -171.64593865312256 1.4995378541894002
119.16831508671599 -172.08163748252676 1.4811667761792708
119.01752897072598 -172.10583096071664 1.4753629882637063
118.81865378183033 -172.4085699586888 1.4627856411582452
118.87792837176305 -172.13393412255215 1.4698412131328809
118.59859599632867 -172.73279340043402 1.4494197778823708
118.73443623762049 -172.27178264467224 1.463080486610219
118.54660981143809 -172.46036618877886 1.453319813044919
118.66598852889385 -172.3845630878828 1.4587280074031068
118.48696277290209 -172.49770302434294 1.4500037002765118
118.49662499056896 -172.3493339195301 1.4530622433657139
118.38191709540362 -172.501666154172 1.4470215684931937
117.85795178305926 -172.3671084326097 1.4312950613305144
118.30463289398519 -155.65629106235505 1.5303490106160453
118.24285283974606 -155.5610889593241 1.531998395217344
118.16572995363231 -155.65586906674153 1.5283192075666672
118.22784835372556 -155.50555966897375 1.5331525476618326
116.91540464287658 -157.43266082576014 1.4647347107251805
114.18627237807294 -163.92825616545687 1.4618868270566496
114.23554746691997 -163.85773364313042 1.4645946397559888
114.33961618318517 -162.4890589371337 1.4896076380565724
115.98426304193254 -156.3078570631189 1.4807679767539488
114.19301555251377 -162.71700544739173 1.4810391663239162
113.8886229248392 -163.5075842937427 1.45845383189739
115.78319031890055 -156.34273114316238 1.4769627134547019
113.86534460271686 -162.80300432596337 1.4688356125887871
114.37769043365233 -160.96218822003962 1.5166954393149314
113.77644216569847 -163.02062126575015 1.462414395615057
113.64535327636322 -163.06153977473076 1.4573755131602066
113.6483851334787 -162.89547738314332 1.460078718151751
114.16770808288675 -161.01793752437837 1.5086937072805937
115.20352505430935 -156.99420117261286 1.451672214596289
114.05109874771219 -161.0653482290393 1.5040351703733212
114.0896828938989 -160.9484717464246 1.5073086448423394
113.93241685482786 -161.1127203072733 1.4992207002183298
113.93486496381239 -160.71307396149652 1.5063007830188069
113.75770276645763 -160.9390051286054 1.4964685330524259
113.76991316967359 -160.8061155150625 1.499179444047181
113.61500271691736 -160.91499136930503 1.492099736742581
113.50244121626379 -160.68731620717526 1.4923717034735007
113.59421430948959 -160.47376433208603 1.4991920690125538
112.86751083248183 -162.78612060149473 1.435961673895129
113.46998689869949 -160.63465928996095 1.4922027764220722
113.32544717975523 -160.59875910592788 1.4880492372283767
112.74504300762702 -162.13576457389036 1.4423839741317446
114.46235116590029 -155.5217822906892 1.4812356105441407
114.39132692865896 -155.43072027013702 1.4830320817937648
114.34324582722635 -155.40792194346253 1.4829625283612278
114.36462577085126 -155.28712063079826 1.4868288586176697
114.29198844614125 -155.3840386394775 1.4832288518061714
114.34096363865763 -155.24771537007916 1.487906475928225
114.56108265117282 -154.16065905286226 1.5235213818136901
114.51434816089565 -154.13514579742525 1.5239753035582813
114.35160555359695 -154.42134266938368 1.513073770799132
114.33095481441632 -154.37668524730248 1.5143952140908263
114.18157470192259 -154.25205922596246 1.5165776571769687
113.48817577901954 -154.79199054166872 1.491756892772644
113.2534388553112 -154.7955498562158 1.4891642935213758
113.31899371957834 -154.64004473152863 1.4947629996617646
113.36782459524802 -154.55074550187862 1.4979395557845199
113.34321381549722 -154.51371802570654 1.4989991944364993
113.47970781372065 -154.30488255888898 1.5070972793172337
113.31562953440978 -154.4796266051823 1.4995966299063448
113.22092413094067 -154.3301148368862 1.5032847107146412
113.23205025782278 -154.10248779754394 1.5106625025473706
112.53542714239423 -153.05324830410004 1.5377443164073719
112.21260250175669 -153.26976310349778 1.5275240203473728
112.2755309449362 -153.11495842479684 1.5333614015815709
112.20220100210702 -153.09300435167876 1.5333074110422862
112.11911276033258 -153.08435321256195 1.5327320343039377
111.97686352940626 -153.1021255173112 1.5309689009322347
111.87790748712743 -153.20235204725603 1.5265148536058186
111.91335303788746 -153.01166076088347 1.5333309209728103
111.84007142039727 -152.963069543369 1.5342944032391856
111.71793096426823 -152.99428266610911 1.532034832559976
110.35849716789696 -154.3720214547544 1.4732825655907607
110.35732082835317 -154.3215278280292 1.474842624527549
110.35781112187244 -154.24004233793366 1.4776753278651815
110.2764344034159 -154.24656515309508 1.4767926970459309
110.22747624963938 -154.21949934189252 1.4772067345751472
110.16325758225001 -154.1559405575577 1.4787840181140128
110.08350692676929 -154.10586639619845 1.4798115328890873
110.04849817391143 -154.0356785799316 1.4819146535537508
108.0053175083988 -161.52449971657393 1.4643211652089032
110.04212557058784 -153.95901210993222 1.4845579323378415
107.96062598543311 -161.42654251506005 1.4632443455095565
109.90771846208267 -154.0323677860017 1.4808268088796277
109.792236825821 -154.08540682595708 1.4779594717351403
109.68336874021404 -154.13394692465616 1.4754474520020489
109.6511495642126 -154.05960045814277 1.477738642975335
109.57773314486506 -154.00966511289187 1.4788858297381378
109.83558140593024 -153.00560140242956 1.5159478344476858
109.50824164717557 -153.9832594754339 1.4791485747693718
109.52885880900035 -153.90026536949495 1.4823313941767307
109.52087227585976 -153.7935758294963 1.4858881057216942
109.79095681739204 -152.99752709895452 1.515737736450373
109.81846481505808 -152.89626684863734 1.5196468800617922
109.8437344762045 -152.55399543523504 1.5317940322154957
109.46373201874907 -153.74880476579423 1.4870820306587895
109.42546408451483 -153.68223514146305 1.4891118175331277
109.69339293328552 -152.59397053419295 1.5292058830189927
109.3482901089957 -153.72683281833395 1.4868244695410011
109.51267832376215 -153.2547150651115 1.5046160047457033
109.54428926177886 -153.14441190271572 1.5088647524806205
109.54996816462211 -153.06979148161722 1.5113872705057594
109.60120917636394 -152.79524376082458 1.5215745148801765
107.69802982168983 -158.33561790545807 1.5169080095509728
107.73210258664892 -158.3334427380865 1.5183931223428455
107.6121937360773 -158.32771325004256 1.5141318051814996
107.54801451208803 -158.2902222972455 1.5137582191643606
107.51418269792998 -158.24064350928043 1.5152295595210425
107.5457496011931 -158.0671874470406 1.526057912678463
107.49754344465921 -158.1902711304708 1.5173679316902315
107.49933358364093 -158.14857709468384 1.5197895386491356
108.74634715529001 -152.4044165534772 1.529651084291058
108.82170584843486 -152.1963509168698 1.5374692431430494
105.94875760904793 -162.68419724399283 1.5120848316721847
105.80292134218209 -162.92977995486933 1.4965105968931893
105.78464697064734 -162.83347619332582 1.4922430572298868
105.83321873918834 -162.74716954428413 1.4973524652873662
105.90145938881867 -162.69820558270106 1.5058949491311493
108.44061404411062 -152.3221974194534 1.5307352784229853
107.59714421905743 -154.68555007581685 1.4403047845700976
108.13201045542735 -152.7757342163094 1.5124286686389514
108.33293452883744 -152.11326520685645 1.5375318500877655
108.0949528225657 -152.72878832100648 1.513847150817317
107.96620824072816 -152.2504157258541 1.530630721280813
107.61427762568401 -152.6355606193263 1.5146771437355937
107.68717259322084 -152.61050390098572 1.515921452901078
107.54917781369112 -152.64917973384095 1.5137774989245423
107.46746950432431 -152.61374484613364 1.5146313328504446
107.39513061366745 -152.59417214022307 1.5150510446727845
107.36927649052467 -152.52038950339676 1.517567608113104
107.35480840829479 -152.4213157505968 1.5210728708614671
102.61327493012168 -160.3361731000386 1.480482268750759
102.65363896894958 -160.26515097356702 1.478098644479907
102.67920637974282 -160.19449699368906 1.5040956073494778
102.50161445094798 -160.39978891812515 1.4812545570049207
102.55407817247143 -160.3667848711475 1.463828903106829
102.43179309865202 -160.39345133456433 1.4688344962925182
102.34576018498427 -160.35505165887815 1.488376817303292
102.3189935954613 -160.3265035688058 1.5258541616773724
102.28938168372655 -160.31344407166134 1.4639697669691336
86.52763072793904 -157.83384048268164 1.44409021506355
86.45259941656464 -157.94013352768815 1.4435680525378491
86.5031622537851 -157.765980892026 1.4454433088206766
85.95457700053946 -158.20155947797383 1.4469314423698296
85.79744434952963 -157.33006313660414 1.4621968574888027
85.81228561454324 -157.1367938493497 1.465076957480513
85.70564182694744 -157.2396132685108 1.4649492912529423
85.68733118448452 -157.16910821364826 1.4662860007397955
85.21840134204787 -157.58128290861134 1.4665996414630456
85.3035855618705 -156.86170897622125 1.4766363462816707
84.70772457094608 -157.80057270870694 1.4707390793976916
84.61994653874528 -157.6095064348718 1.4747847763770894
74.23853344753205 -169.93108780370116 1.4497182343833463
74.10159302096426 -169.85524678619623 1.4535137396738214
73.87066404310258 -170.4801402026628 1.4465900925903965
73.89495423412889 -170.36272683627294 1.4486795738340723
74.06078332889885 -169.53976610108 1.4585159855593186
74.06622620557516 -169.42528667881214 1.4607588971895424
74.1338400503224 -169.30237188440105 1.4611285954512352
74.18212660200281 -169.18291028950577 1.462828512235727
74.12196050764447 -169.09014232203685 1.4646319730606152
73.81981935757648 -169.82479808794827 1.4576558789610503
73.75776445615423 -169.73186837901184 1.4606261943265872
74.19273579500039 -166.8362527069604 1.4986685962264237
73.76030265260172 -167.1285432525433 1.5006991324340635
73.8363967047878 -167.00669204361282 1.500951200766284
73.14876883361976 -167.45584389854767 1.5048238266473817
73.14927354425879 -167.3472861517335 1.5059933728195656
72.86546873411842 -167.6171094223469 1.5060970328038086
69.38397875153993 -171.5363755157244 1.497252613268113
69.31148746133303 -171.42676437619414 1.5007415363096888
61.961124570964735 -181.77672165746938 1.445427956191295
61.743935153424786 -181.70773725830435 1.4487257487743663
61.71164868736088 -181.54655487441346 1.453057542415958
61.579966371323806 -181.43128181335857 1.4557854128903707
61.03725287028772 -182.58900878495692 1.446257616768601
60.197608519625945 -183.56009790310048 1.441838198240437
60.713254028888926 -179.01362602676238 1.508422635869192
60.50402967995734 -179.44436548816142 1.5046116059266748
60.604411205947514 -178.881544534361 1.5132708327278332
60.48067939710417 -178.75389242986827 1.5161203774897793
60.8899484087298 -177.06330789430444 1.538120548755423
60.304201684019496 -178.64336821228432 1.521607143448646
60.51340735521186 -178.04991236826316 1.5269666249581269
60.4463896012305 -177.90562219437413 1.5313483963804624
60.483194988623005 -177.71776128059344 1.5327671744496336
60.51810631993332 -177.52869353226708 1.5362410371520199
60.45202238653947 -177.38803914362867 1.538518231552584
59.69872703961419 -179.59887849930973 1.5154273093931812
126.00167645887764 -156.84271748367675 1.6111696171154581
126.04522557195226 -156.74506931700975 1.6139789318174034
121.3951887942091 -169.50897098532135 1.6040000425239263
121.45755303253912 -169.38409111982966 1.6084696037317099
121.48890348328945 -169.3227601248675 1.6112518034957892
121.52892306122395 -169.26634263170914 1.613128794001231
121.23448802549191 -169.81379595196515 1.5933609654097323
121.35300026940266 -169.60410490567068 1.6010646783692724
124.65791626751464 -156.75061965701872 1.5936115180770676
121.13404367967532 -169.91751249300106 1.5879787878184253
124.54618950049121 -156.69786833347084 1.5934434903959687
120.9520285613211 -170.29525000259258 1.5747707449496366
124.47731077463504 -156.6360453641677 1.5937850878070972
120.66170299796943 -170.7618817568947 1.556155188406094
120.70837534326029 -170.7049046491046 1.5581730633996433
120.78684135611606 -170.29379123206232 1.568614787826367
120.45708023066214 -171.19757862196178 1.5404811396021432
120.51838175606842 -170.99656336799356 1.5469174647126702
120.54845555822577 -170.8605629153131 1.5505032083570818
120.65770380678532 -170.53286807653194 1.5597383608315214
120.68741309003896 -170.3946506787448 1.5633375581138345
120.7915136219585 -169.9137516432044 1.576444200366158
120.85483388811679 -169.71867510813706 1.581680700852945
120.4408365371768 -171.03243539889226 1.5430145319045878
120.55559709082802 -170.55421168524623 1.5564420343326368
120.58761602697574 -170.42141028912698 1.5600412698699841
120.20852565456863 -171.29451644291467 1.5308689635716513
120.2382666874174 -171.15665409243113 1.5344555909203936
120.35592438055176 -171.06438914063605 1.5401524722580584
120.39558033427825 -170.70746172893368 1.5476087958698026
120.85085758725523 -168.9207732803243 1.5971735449745816
120.17554058761279 -171.20092091404393 1.5309025847524436
120.25312835205162 -170.78316503191428 1.5413444934855811
120.38526186570884 -170.1740829434171 1.5578185164733276
120.49252206505774 -169.88962425662663 1.5664853690734761
120.37112148006963 -169.6497576800103 1.5665908623928915
119.97830400347466 -169.7628817244914 1.5511930965126561
122.8745379904646 -157.68599089675266 1.5450039588644966
122.82906860518062 -157.62769931824812 1.545593640648013
120.2034348661135 -166.16411798477824 1.6270913373235856
120.24504280141552 -166.11284882377947 1.6290582890315162
119.64502431575814 -153.96408403550345 1.5939677199175604
119.36895766087314 -153.5638055100437 1.6011033512797859
118.70190179028904 -154.91609529228612 1.5553895628444878
118.46613316758678 -155.34116958700335 1.540925540914063
118.46845549482309 -154.3691442431675 1.5668776610966972
117.57533301931976 -154.23901332520538 1.5583852905253943
115.66358603742758 -161.11648656667901 1.5568120441943667
117.48652764236019 -154.3527686753856 1.5539852596467167
117.45622824574698 -154.23715511978452 1.556739966859868
117.36282642158773 -154.2244527517244 1.5559196272744036
117.23660490582276 -154.23125911190294 1.553951709817483
117.26106885864235 -154.08583022454977 1.5582808741635343
117.23312463755873 -154.16713259678338 1.5557536236667073
117.26346267555033 -154.02075231491384 1.5601953945577711
117.29821734253761 -153.80346516802035 1.5665861894906228
116.82516082446777 -151.66828516714438 1.6271473459697492
116.2190741336956 -152.75634380324774 1.5859685477062482
110.038409853852 -173.47039453316614 1.6294324558966293
109.97670999430893 -173.54780431866294 1.6279288666273781
115.15051597992172 -152.7298381983851 1.575033191616739
114.9181765459716 -152.65048740977878 1.5750970662632653
107.9603991356005 -177.307415055074 1.606762107936276
107.84151659840035 -177.20070718902969 1.6006286436579806
107.73916643614999 -177.1450092904334 1.5961015672627954
107.64530987241844 -177.122840793111 1.591945548440032
107.56120604033619 -177.14113333265888 1.588990923215755
110.07897914745709 -167.3134823803553 1.5700984721083664
107.3067088553926 -177.48747418011325 1.5868402188309798
107.36817610693018 -177.27215236436862 1.5846861607492886
107.40522381202868 -177.1976277837479 1.58515911833546
107.47396274661266 -177.13895651737582 1.5861448814791
107.32868405116925 -177.34495573399758 1.585389424633735
109.79258415602395 -167.59392252811304 1.553834938095279
109.83648076161126 -167.51124821568425 1.5561428259597485
109.8443806665419 -167.4190210450436 1.5562348080677397
109.88260919472594 -167.3135818155299 1.558020540888181
109.94980572325892 -167.27097570769274 1.5619609924101545
109.71436036180393 -167.5652898125333 1.5493340503249282
109.79596069424512 -167.5560585592731 1.5541469205500242
109.85109562411867 -167.3651538458208 1.556536706741087
109.65303550081332 -167.63258341719637 1.5457661723317448
109.66973817083571 -167.58623947853138 1.546643481974602
112.93603033567646 -153.1138210398694 1.5398417758602916
112.92582640077235 -153.06108842315086 1.541296960259964
112.81307164154695 -153.07290638359967 1.5398914503687677
112.76113724957234 -152.996610503229 1.5419026058067047
112.63461709408239 -153.02121870313925 1.5399433671650105
103.36488161689972 -178.72949098297266 1.5577839841125412
103.3050105403712 -178.65605122351883 1.5562498839402648
103.24923744955757 -178.58836276697977 1.554038174222229
103.16358519103548 -178.51547868908426 1.5523147753738638
103.04796463204056 -178.4599394350716 1.5507869832603691
102.96211563965119 -178.46903711540477 1.5511801774595875
102.78545997101065 -178.5556862859413 1.5528646180169723
102.87438298849838 -178.492579250873 1.5515152332237037
102.72307059494302 -178.67009667157407 1.5561786149620382
109.50852862692521 -151.26630471560333 1.5753952235211095
109.17328419993761 -151.9971196078667 1.5470188983170916
109.18776208113994 -151.7269857585992 1.5566494928461658
109.28568219024945 -151.22068916117928 1.5754846619629064
108.96043280856225 -151.87499490776216 1.5500446006738353
109.09113451419782 -151.47813990241977 1.5651591594609688
109.19272268884876 -151.20975998590674 1.5753100281621863
109.08643076248998 -151.22413117325723 1.5741471268234393
105.85287346614186 -162.9964093761274 1.607610776300978
105.93648824048013 -162.6966750019801 1.6131554298458564
108.81835222862233 -151.7975295573589 1.5519669607020616
105.79094692833368 -162.9282479055169 1.595118048204101
105.77872567979972 -162.83435823655051 1.5901253003003282
105.84358157251235 -162.74832951659255 1.5986471207720503
102.60932632884123 -160.3316950395363 1.596283002065056
102.64943504289901 -160.27136236754976 1.5896930208711613
102.68169087825427 -160.17793417139322 1.598827779116788
102.50513547479706 -160.390878144014 1.5923244463465531
102.55962933323066 -160.36738055945617 1.5933698033071906
102.43213129621991 -160.3985729010935 1.5996868414615801
102.34327108998545 -160.36144183799271 1.593431430791873
102.31822018485505 -160.32551338229783 1.5931164334007588
103.53964392973326 -155.21062634974749 1.6278790256466655
103.40601668615822 -155.3510184690345 1.6166156322559944
103.46556864329581 -155.3072368789086 1.6203293405751018
103.33694929374181 -155.33347909380754 1.6173789845655882
103.33706671573097 -155.31841403455223 1.618313320382308
103.24435232119751 -155.2623729809271 1.6215558162092325
94.8924052421899 -148.0967822481477 1.6180988485023327
94.80797008205117 -148.12321478514073 1.6171330411276772
94.70278288079334 -148.11611671320543 1.617635593491802
94.57208396335747 -148.11833415354337 1.6176924025613926
94.47176577603372 -148.1199729141299 1.617919300681937
94.36266603470348 -148.05655315023316 1.6198457517089333
94.2136832099053 -147.93118859352367 1.624532766745592
73.29775713604238 -160.40986567717005 1.6042210513012587
60.38542647085456 -177.07132439213848 1.5446002521932363
58.725719985958705 -172.72521822698536 1.6389131309333824
58.680459212546296 -172.57169023079365 1.6411598566201178
127.88333676872799 -153.63753392378075 1.718203979999338
127.75575972877769 -153.5849987447842 1.7175414667228728
127.60883484930514 -153.5388047047163 1.7168108179674682
