ply
format ascii 1.0
element vertex 843
property float x
property float y
property float z
end_header
116.55376279200159 -177.29173025873885 2.3206979040092945
116.13473886270192 -178.15459761561436 2.3254951301640294
116.6286114749461 -176.11778440781532 2.2899041567157403
115.79110451626225 -178.67273797695003 2.3245899893082536
115.81597658500144 -178.5873953466688 2.3229796323825678
115.90806631507948 -178.34894390774323 2.32003888039698
115.93023677756572 -178.25681314052557 2.318125902048063
115.6135838793789 -179.05717278237614 2.3282300273433236
115.81996152715236 -178.47761809690815 2.319696190333443
115.81155091826096 -178.34670494444478 2.314942397423932
116.5065133186163 -175.893631518991 2.276629630715784
115.61236458828216 -178.74245040092376 2.317807913254631
115.64443716150762 -178.6019711222102 2.314767924088371
115.31469076914101 -178.5348848414222 2.2960421006936955
116.11965984361504 -175.6935869165427 2.249578465538382
115.89445369679028 -175.9491821382507 2.244893177534561
115.94743976480389 -175.70958548456247 2.2406253143887427
116.02255574213792 -175.69299118611627 2.244323106204291
115.87749835861905 -175.83090379739724 2.2403895559387865
115.8937352447252 -175.7497106166094 2.2389595273199396
112.89257553092642 -182.14239152871613 2.312833011836381
112.74846726002195 -182.1150594469875 2.3056699261042217
112.62528401352047 -182.30811994491876 2.307898428129606
112.64964671449107 -182.17836608009242 2.3038885766254262
118.17319198557584 -155.86288639815896 2.316957576375376
118.09503549751366 -155.8314165883984 2.312659148845521
118.1344263087801 -155.7558043666347 2.3174520588527
117.77095742725133 -154.90218152204795 2.3191715560195387
117.65505050086536 -154.89300553104835 2.3118599733673344
117.54887434128779 -154.88135553528616 2.3052141670767705
117.5590760466952 -154.55620921744475 2.316408972408214
117.43481578243744 -154.83919947353647 2.2990844723473955
117.45618825708839 -154.54487709332318 2.310027368605987
117.37240865846238 -154.77189484527827 2.297172537023965
117.45233512805423 -154.48240453965357 2.3118600140995595
117.30034649622687 -154.36434989264038 2.305852963654288
117.53562112501442 -153.5219522720563 2.2522480698894456
117.27597482112279 -154.31169845669103 2.3060617535914507
117.25675561463947 -154.13001841105813 2.3109362978510917
117.29878065478958 -154.04250878309796 2.3166693288855313
117.31417326573101 -153.96890381518443 2.3201610805158235
117.39403113735976 -153.85992709849552 2.329090800361544
117.09217897463922 -154.56377722228774 2.285674377048401
117.18373901694844 -154.26257918574117 2.301721444917471
112.79853671611656 -169.2977971021736 2.335356902094875
112.81745999884899 -169.20157265081403 2.332858012188225
112.89611490855769 -169.0446719610619 2.3331785645974246
112.87763254552027 -168.9776453893031 2.328644793129171
112.70877037740033 -169.311568369538 2.3279967537535966
112.73911709154561 -169.08927284573969 2.3209931716163608
112.74316158361142 -169.01221869061436 2.3180877301273832
112.62478222642567 -169.33040363792333 2.321395000848214
113.89885851674077 -161.6771447418189 2.2972560702962315
113.90639535871529 -161.50195505468997 2.2997769260910026
114.13757028095571 -160.67351679250112 2.335410055500923
113.81594583765553 -161.46435202544208 2.2905618210994234
114.0567151876037 -160.62156627133905 2.327792562958604
113.69823182068181 -161.60153241956908 2.276743587371755
113.71223596082748 -161.54355024812133 2.2787736495941284
113.76401290408458 -161.38796075641196 2.2859134554575125
113.49881764921155 -161.43364479088112 2.2574145702507016
113.45989888221794 -161.34108859919883 2.2543342576017062
113.48570686751033 -161.24474624867747 2.2582625549558526
113.51371116700417 -161.16661471775845 2.2621779260286874
113.39340962502504 -161.11672407564512 2.2501659126151226
113.3954915625464 -161.02298110869958 2.2516748462141782
113.35045183497623 -161.06506833238592 2.246363286792736
113.35511554756982 -160.98604865471484 2.247999983215238
113.73116719377937 -159.42760846952734 2.3222574334876054
113.6825885739097 -159.39932335672853 2.3179951622481885
113.56476754782297 -159.26141055789773 2.3098375887662344
113.1201041892084 -160.13698974421132 2.239969941054427
113.21291355769922 -159.80181172279802 2.2580843468028338
113.18456392367955 -159.76915926490523 2.256037760851476
113.18636817541339 -159.59678230420707 2.260929550552155
111.75961974277067 -153.41630499874944 2.269134929209931
111.72977227307899 -153.38672247787608 2.267549863365841
111.7133971159529 -153.3425779846883 2.2672698694844113
111.71739797295581 -153.27965605518025 2.2701872528852483
111.60581705024353 -153.26850517050494 2.2597715327361736
111.67798353626007 -153.2579615013442 2.266876688569221
111.54099272516474 -153.24083717253382 2.2543727419752115
111.20138308923617 -151.55678432114883 2.2861070145161118
110.94523955667579 -152.00279013790845 2.244611834972195
114.96845968748826 -135.3359619804608 2.297221420597161
114.94211886342583 -135.14738319579456 2.29729959561443
114.44216894054372 -135.76669992194934 2.2547935823235044
114.391141180397 -135.6493298559472 2.253875110061595
107.68745095289583 -158.42065752267482 2.3398142287742627
107.58941350907568 -158.42459893317977 2.32071829202737
107.51975197668713 -158.3961499823213 2.310096765935196
107.48850611018517 -158.3377136425942 2.309588597290414
107.46129386088636 -158.3010688341029 2.307987904295866
107.48284080733369 -158.22053011577572 2.319606474409427
107.50277435640689 -158.1665808415313 2.328436145708631
107.62313540018154 -152.63549332702715 2.283423329768201
107.55559361468285 -152.64625562984028 2.275559869569566
107.4568897213057 -152.6392916068161 2.266023635037477
107.38249719129628 -152.58721426487446 2.2625512981748814
107.35649419498974 -152.52129549947009 2.265136068299452
107.33654423286382 -152.47987431004202 2.266022055707964
107.33420196698364 -152.40302687125805 2.2720080174391093
90.02799550657774 -159.5455771855548 2.2713563214655634
90.02949602726353 -159.45722608950723 2.2722185042319403
89.23574444474025 -162.15342503731728 2.3433643346260555
89.29185441645447 -162.01028373908633 2.336279533723093
89.32484135652537 -161.96309475375222 2.333325576106062
89.5139961240737 -160.94947864501546 2.310966719853925
90.00406864302025 -159.40795809727743 2.2745404402748113
89.99074400910114 -159.35981111728472 2.276912705958977
89.33805501714527 -161.45050864979922 2.3280608080113883
89.3960482223135 -161.36240764118187 2.3222816790803735
89.42523196148598 -161.0374983752787 2.319235992291491
89.50415848158198 -160.94853339714467 2.3113450051619973
89.46025810246572 -160.8531288325616 2.315872539897367
89.58816204030144 -160.30988127215315 2.305363277754844
89.80820832303974 -159.4613229676212 2.2916469686817917
89.19573502865515 -161.4028544901422 2.3414461213905096
89.33931535828214 -161.0795495479454 2.3266714395155903
89.48743891620734 -160.3910291653634 2.3142521677116004
89.53781742243612 -160.34953280388717 2.309260673161295
89.55560719914041 -160.26018899291452 2.308012164531309
89.59592142077912 -159.93869416895154 2.3069098566826867
89.64971429881987 -159.8991099727084 2.30175576753751
89.20216935106342 -161.28617193260425 2.3401058857239
89.36904118918258 -160.4966963282 2.3244752876431476
89.40352855714629 -160.42917330996877 2.321246408605815
89.51851791681194 -160.11592696410946 2.312755510727908
89.49273688527994 -160.06539886837922 2.314863440545794
89.55220820432073 -159.97924708698994 2.3100339768201374
89.67283225496811 -159.53074858767081 2.303122308416328
89.72344909862665 -159.26201250934807 2.301746541592906
89.53148233096981 -159.60361719063212 2.3151296601914897
89.34638088495036 -159.71646163337974 2.331433276168933
89.30613290355376 -159.66366500718183 2.3349901333638146
62.172772432290145 -182.72609804673664 2.286090490227685
62.18768393854252 -182.53700900271832 2.2812065695794796
61.95856011031986 -182.47550089943456 2.2848261306817377
61.65166453611078 -182.44942061224282 2.2893104662177253
61.47412675691257 -182.3589832899156 2.2914338925301108
61.130897971803336 -181.81075343350042 2.2867944943647047
60.32868825120495 -181.46814507157964 2.2952874264095735
60.345743903254885 -179.69211065674276 2.2615168674348354
60.23458485066133 -179.56240537615858 2.260623214057811
60.06370263505605 -179.45953115637388 2.2628983716725815
60.23039797182189 -178.87510209027005 2.2484480727270904
136.06591430591808 -140.53818717387927 2.3475995656050856
132.95716552251324 -145.16504951819167 2.422591408431194
133.0898195671136 -144.94985953881385 2.430994151808289
120.67711359264788 -170.02982243907996 2.404525221042727
120.26605016080336 -171.05873385253503 2.3929842501829555
120.59890297670432 -169.84493496025908 2.396899777709776
120.45420420051863 -170.07910827309834 2.390545800139325
120.44353710248677 -169.99778910650818 2.388630549162037
120.53124973985891 -169.88787218749627 2.3929164508224634
120.57760673841285 -169.53759586018623 2.3915370316428266
120.04636652146606 -171.1818123483568 2.380746590057882
120.44596861781805 -169.62929661301544 2.3839877578599515
120.47718366743443 -169.5681270257826 2.385177160036883
119.72435420705492 -172.10915615820394 2.3766615193886302
119.86887851792305 -171.71187257641301 2.3785329677393063
119.88543808363859 -171.64313871798205 2.3784584682883616
120.00193701601115 -171.07923897089944 2.3762898388003
120.1836073414985 -170.1749070127593 2.374067831332687
119.72079971652117 -171.86252689577123 2.371960620836714
120.14813324953946 -170.08255959780288 2.3705231789600525
119.484491017121 -172.3685352750744 2.366661989451649
119.39893450338194 -172.2306148823834 2.3585308312643423
119.42908221241191 -172.08724976072895 2.3576669024583974
119.40326994403866 -171.83390377631522 2.3513571343603785
119.06035112381052 -172.6262638351558 2.345378060305536
119.12802261593623 -172.4666260352484 2.346377358275513
119.34792973692791 -171.72027497611452 2.3456629576394508
118.96289209515938 -172.76325806017604 2.3421470033918146
118.8687164903653 -172.61711601282627 2.3333851603458067
120.20727177466055 -166.68398854966563 2.3399148637030156
120.37914969395618 -166.20809599047772 2.3492840263607166
120.15332760323173 -166.60271664283326 2.335832688785411
120.18415523849023 -166.28652875518839 2.3362054868034026
120.26293923057472 -166.24458546307096 2.3415220263709373
116.66921022195682 -178.09628647005601 2.3515609046375263
116.55508718390246 -178.0783028725241 2.3449164962020927
116.46798586880254 -178.09213397692108 2.340871542351447
116.22113966764897 -178.37811771499582 2.33699339638213
116.13856594287796 -178.39652025842105 2.333408022380909
115.44070152219462 -180.12868783510137 2.3558498406113833
115.45628232746894 -180.01788057601664 2.3529037859140693
115.19912148054843 -180.19104074890612 2.346399743123254
115.23380117618156 -180.1019196562037 2.3449147754621302
115.28083678255581 -180.03312789192984 2.3449080972072975
115.00663564551897 -180.32801664546878 2.341844663925218
109.66695718736067 -187.73500454384194 2.4142340367858917
109.48255201274398 -187.74297449734317 2.4084033963313503
109.56733350048027 -187.70801209082927 2.4097656969082726
109.40171616046369 -187.80542521250325 2.4082914053007145
113.8579919754679 -169.1033307950482 2.4226558706104186
113.83602203280923 -168.75707778810803 2.4072210367680174
113.71532251137222 -168.95412247904295 2.403774923517586
113.73172422645881 -168.8530808525392 2.4012909855234077
113.7656396004023 -168.76824714992532 2.401201485813648
113.68135221834542 -168.81939612507384 2.3954053183218584
117.61951961156754 -153.67246894701 2.3500768368655485
113.47395049646258 -169.20268666704246 2.3917623028723525
113.50737010925411 -169.00582046339113 2.386797738137548
113.48059920234755 -168.90936373583511 2.3805283069789347
117.53483792369092 -153.62082665409207 2.346442549806735
113.14751613421078 -169.78752193694322 2.3877752452791268
113.43991796911865 -169.04212135784098 2.3820952399014503
117.45189230948883 -153.56486767977364 2.3430892793038325
117.48884311046217 -153.47500259371986 2.3485944597585187
113.23331695767874 -169.11855229298553 2.366531020617065
113.3206076447785 -169.01608807211096 2.3702665059397137
117.4229052777503 -153.44287943409262 2.3455344209078155
113.05751590503242 -169.05059814176133 2.3479249626826375
112.90011870443371 -169.31767705352644 2.345176095442176
114.8051623154515 -159.38190878222608 2.435060944058636
110.88576797825536 -173.68964363025782 2.4242025852675977
110.95040311270705 -173.60814301481474 2.423503329656772
110.76739308716533 -173.78993291319887 2.4224565714023645
110.87248397491439 -173.58241351256058 2.4164738720146386
110.5674821235668 -173.80488853815936 2.410003088252616
110.6092642451736 -173.64674545048257 2.4026951742203098
110.49463059374354 -173.8727910648418 2.4095322702548145
110.54887011303664 -173.64397057278833 2.398404442238734
110.05128243823431 -174.16108396959274 2.399554849199019
110.2400432148297 -173.61518176387494 2.376049222313693
109.88665575853825 -174.37785289670543 2.403670620257494
110.00430513020807 -174.17985572948604 2.39786417325693
110.12387027021094 -173.52156612251548 2.362280185241498
109.82379739159852 -174.37021286940737 2.3991965469395087
109.87253421057267 -174.2525390972835 2.3943541598078286
109.90279880255314 -174.15646260281736 2.3898690203803534
109.96764724550705 -173.64543391243816 2.3601831490505445
110.03488871023062 -173.56286574872132 2.3591843104968313
109.88656650723323 -173.7906507618723 2.364585984063071
109.90956465483508 -173.737090738125 2.362472323243681
109.93275041511413 -173.6856456574114 2.3606200081298656
108.90476465621458 -175.01969812026618 2.389381088823311
108.95122607785372 -174.9379543466011 2.3863063264557063
117.38980601976681 -137.39984838385004 2.434034686345309
117.05856934785756 -137.7553012903684 2.4072084118393766
117.11044003022721 -137.48358343377652 2.4134857853489504
117.09893449543101 -137.31871299130134 2.4156956429996255
116.98263608387775 -137.3103802970282 2.4068875200424573
116.93712231506642 -137.18195387209522 2.4063587848618826
116.98382004940885 -136.90873001799548 2.4123041482801004
116.89550169651308 -136.87174303825705 2.407527750589204
116.7174136947105 -136.98165828512916 2.392871943316576
116.58794103173506 -137.00937935379514 2.384433823867308
116.41515342926533 -137.113915971459 2.3702313012933285
116.34268944808537 -137.04153821795762 2.3670839081213306
107.94553376785078 -155.113318548533 2.442267587443228
107.7922972374194 -155.16569869733158 2.4160619032278463
107.8579330251387 -155.15335783204617 2.426390871992241
107.73006631779815 -155.1498456919087 2.4092451947283835
107.65142971658938 -155.13434620835616 2.3999886198378326
107.61521873305473 -155.08724360040512 2.399635055810421
107.57316803473422 -155.02081844664335 2.4004104839723412
107.56805853123574 -154.9274020067959 2.4090448390150736
107.58663527703105 -154.85061937672893 2.418799055124651
103.41813952327679 -155.36293722467244 2.381443917466889
103.29997584299356 -155.44601685870157 2.3561064021430145
103.3576901248567 -155.41755317374881 2.3660881666537685
103.21214997786875 -155.4328749639664 2.3521189410650956
103.14898095256251 -155.39299245827513 2.355161193321514
103.10726482952525 -155.35430044742208 2.3597042212011146
87.1877505703211 -195.79902450106533 2.4042882804831582
86.76698068576647 -196.0811744477992 2.4152550850087984
86.63656864939087 -196.04045221413313 2.4137384066531395
86.54031655540885 -195.92467013018452 2.409548399230026
86.46181294186687 -195.79025396174868 2.404492753401776
86.3496920295941 -195.72121608141526 2.4021106725026646
85.71949398796883 -195.4968230852764 2.3946299140169707
85.6135432214352 -195.41660667275528 2.391901178889478
89.07622617408566 -164.22296244746602 2.395310423144609
89.08311005901956 -164.17159183534153 2.393838247765125
88.76149292829265 -164.1536826251144 2.4222605108870496
88.77958101129431 -164.07650691150812 2.4184718288260623
88.64859062579686 -164.02285338026672 2.4292899882935237
89.08582861062658 -162.394220769141 2.3593856032887834
89.18154076256269 -162.20216110139233 2.3483573508986315
89.17343803988886 -162.06050863841898 2.3481703668611167
88.85311806041983 -162.8419526296163 2.387487742908542
89.02592988859195 -162.34949388980456 2.364867823683966
89.02494328703456 -162.27829152054892 2.3638693353077853
89.10992194217975 -161.7762986361961 2.3516084361377723
88.73061511223216 -162.99928540860253 2.400731941531972
88.71813288077865 -162.90170130955408 2.400300313920659
88.98153574871625 -162.1128680783338 2.3658315957368354
89.00551571488525 -161.92020882733374 2.3618447123014557
89.03863089851008 -161.8481935305962 2.358466479622622
89.15988958595605 -161.49467649598972 2.3452047288433855
88.47317304004808 -163.7223901238504 2.4381360005593646
88.47142499454097 -163.62107998218957 2.436150040755671
88.6407784740221 -162.80866713091135 2.4059564874631794
88.97555933701919 -161.63508320103128 2.362823121959301
88.41920227324333 -163.47911361387096 2.438495221713625
88.54378353035517 -162.96662647576687 2.4178321830420892
88.34798855770107 -163.38600018079188 2.4431974603772604
88.35452119581247 -163.13292826694754 2.43781614442331
88.3857231248753 -162.5786228829664 2.4266239001586025
88.34973495015224 -162.50582865811066 2.428709264906908
88.56312039102133 -161.09147931835017 2.398631565548112
88.5987782162255 -160.49995067480208 2.395366731393748
88.3659388550875 -161.13243098530845 2.4163006504248656
88.56467774600827 -160.59584193304943 2.3983107059220323
88.56873671938826 -160.54681464374207 2.397440921309447
88.24845371750715 -161.17860925083497 2.427814402289297
89.92175997785505 -127.96921636810609 2.398630129856615
89.80124179373938 -127.9977426036906 2.3940893199470095
86.3472850968383 -125.197681795203 2.458291681139293
85.78254188410847 -125.65759943820105 2.42991797439966
85.60978463056566 -125.92907246295286 2.4154479399537987
85.6855231580576 -125.76935961723606 2.4225690623783747
85.48112005416958 -125.97280707391369 2.410676380882469
85.25562095971651 -125.82851784117909 2.414718466611231
84.9622330385578 -125.86058557729481 2.4092217113363286
84.25047762974323 -126.31020669635477 2.3805063735380987
77.45191603959834 -123.56588488026489 2.4309856316119434
76.00432142016696 -124.00711441517751 2.4052768252759824
72.81555731164603 -122.17657992617336 2.4640114850649324
72.64964611370034 -122.23690299053023 2.4598933265074554
72.39873938101533 -122.19685946975528 2.462342065238445
134.81441086636616 -142.05495155777868 2.5419625634293896
134.55950961204482 -142.661090936204 2.52220097804344
134.6060643048977 -142.33539700391594 2.529836812973539
134.2413756359653 -143.44500735482774 2.4970636649133042
134.35355621834967 -143.22821497506504 2.504763919761842
134.3586285112909 -143.07481013572675 2.507822589135437
134.52003623292984 -142.54076218099664 2.523095147761367
134.15105972956283 -143.64849263688438 2.4902514080336613
134.31735253196106 -142.94977404417614 2.508729659330941
133.9034120757797 -143.92816603972108 2.4768850517601453
133.71769271643905 -144.17184796905812 2.466160444759428
133.30037756908885 -144.6904767199599 2.442720436214622
133.37425679170383 -144.50711131170243 2.4485884464285306
122.6592516886083 -167.5306694801122 2.5131410532969114
122.691373560143 -167.4621813631352 2.5150286452394295
122.53545213762598 -165.09100403375783 2.4965441180213244
122.83895266596694 -163.92239496853796 2.519131151200855
122.04819683264958 -166.55790915599925 2.4660898394501314
122.05040590695911 -166.34490780231255 2.4652882442462887
122.25380399898745 -165.67430397162283 2.477488427345782
122.35771596838224 -165.34297022256942 2.484317920938731
122.39611860377678 -165.13673326728298 2.4867366869498135
121.93286617675831 -166.45842751116916 2.4576092392743325
122.01975392067963 -166.2660805322937 2.4629766071692685
121.97297214565137 -166.18468197944762 2.4593572934206627
122.0752607522297 -166.06665304531518 2.466062096304593
122.05869200507243 -165.95576501212733 2.4646432188379923
122.11180570032373 -165.86015799351517 2.4681275031088163
122.28213243238713 -164.90978731949346 2.4788097020672923
121.8615539776224 -166.37152318434394 2.452427825563082
122.12693917561435 -165.15964034921396 2.4680597201055336
122.17278818135489 -164.96042638863318 2.471076597094727
122.27337797154816 -164.83743278636345 2.4781099801293087
122.30182904899597 -164.7715161285413 2.480216586540606
122.31084997054447 -164.5604816662191 2.480894664559347
121.82455840361169 -166.08161734235028 2.448831205114459
121.91910713869386 -165.74808929956197 2.454376108516126
122.22775978299869 -164.3448589131066 2.4754186214616807
122.34533455240134 -164.01090648850385 2.4842222711732003
121.81376759427275 -165.65619520992124 2.446947824925992
121.86589138904417 -165.49103361008255 2.450215917024803
121.91415801594984 -165.32776364928483 2.4532884256386494
122.0875540830061 -164.63326344734278 2.465247953392023
122.11028144462031 -164.3949986317347 2.467021758681455
122.31271394140497 -163.79552878219448 2.482604294792841
122.04793302987703 -164.45332491939033 2.462680774985799
122.0942453803512 -164.25748987140904 2.4660986337563324
122.22732004425103 -163.647390604442 2.4770637985328654
122.02771740749878 -164.17991583021492 2.461661737402126
122.08554868269627 -163.7021427851032 2.4668229928289382
121.96864786019432 -164.037698906473 2.457800103124974
121.84782672098976 -164.0896836120655 2.4491162222618197
121.92509054665692 -163.89209383187315 2.455095356503416
111.38428898621777 -173.51545043173485 2.4480593683669785
111.33500181460207 -173.53710208603735 2.4458512673987842
111.13243114370259 -173.64995791940902 2.4386906616244004
110.971447485581 -173.99810367741134 2.449583733445332
110.9563556608978 -173.88287627557798 2.4411950609874835
112.46452588131689 -161.15800238719638 2.5004835585849103
112.49418092898023 -161.12339053201387 2.5052593272083854
107.88849740912391 -177.43437184134723 2.5111584031099143
107.79724169600355 -177.34511788716713 2.500267812820882
107.71792790553943 -177.29151252535604 2.4925610699855127
107.62847718393125 -177.29228356046826 2.4884497716339116
107.49452496084233 -177.33168067501566 2.4851793370949715
107.54237067764521 -177.2936701512404 2.484571014550293
107.31274943157875 -177.72417080837934 2.5062176259557574
107.32742112938561 -177.56602072367755 2.495056929363689
107.35754322666126 -177.46549775688086 2.4889247660744127
107.39002059340993 -177.37648376708435 2.4837505281862255
107.43097109346601 -177.32015851586618 2.4814319955558397
117.81132082635791 -137.28352050229498 2.465878135012813
117.74993848239465 -137.1938484008677 2.4618421251375615
117.76184817811716 -136.98555229317026 2.46626441617563
113.45931808475338 -152.4592198391122 2.469260093825278
113.49578393621559 -152.2944131985906 2.4785595936371796
113.53025741562715 -152.19769225077766 2.4849991041039083
113.60039904760936 -152.06946630898253 2.496658004462802
113.41005385906159 -152.43556598827783 2.464935963388124
113.45798773099646 -152.127842076028 2.4803656767280895
113.24245653111065 -152.25409391000466 2.455173975921895
113.307839041502 -152.05902479588752 2.468461661633144
113.1853049542958 -152.23812147393204 2.4498573486563395
117.70003754795582 -130.87437416380396 2.5441774356735833
117.36783526037586 -131.29500512243453 2.5167446761923933
117.28634551596146 -131.18912351902256 2.511718577043582
117.33260431314247 -130.8148553185806 2.521186064656112
117.32269276670493 -130.5514352513838 2.523243801059577
117.41544402390936 -129.47513414692986 2.5459763293307778
110.13509481875323 -153.71079027307255 2.4891656392352353
110.22154128172951 -153.49877419242827 2.5130521768218888
110.10612055019205 -153.68381828661342 2.487209200522354
110.02140835640972 -153.60612457492948 2.4824397078624836
109.89446946636602 -153.63592607920538 2.465537259964522
110.08494130498667 -153.00133392839888 2.5292691762209603
109.83140563385463 -153.42193512656493 2.472175517096927
109.75907515382585 -153.50616884927317 2.4579208174203995
107.57193809252853 -158.4322671840163 2.5325681227723225
107.52740120474914 -158.4115548112102 2.525069668137588
107.48589840731994 -158.35335589811243 2.5225722974973617
107.4651375255728 -158.28032522294453 2.526416887756579
107.47028218675584 -158.22447959814306 2.5340383453969975
95.4191880934513 -197.53674340635848 2.5249993141428897
95.30111893282704 -197.4842048898295 2.5213241117160994
95.15381838506782 -197.56597896374404 2.523192227064314
88.24624169915545 -164.47560559743448 2.476904329538432
88.34860352749848 -163.9688814086789 2.455250026362847
88.01719911616182 -164.57117229092603 2.5006206326265694
88.13677908072977 -163.87364367976716 2.472069431231543
88.10688232161034 -163.92979833516216 2.476554271458529
88.13139279630627 -163.82271759650982 2.471936805643151
88.15656698519356 -163.71517983844382 2.4673240837605586
88.12130463671035 -163.61603571121327 2.4684791904287935
88.22740828936571 -163.45218133834447 2.4549675873998025
88.22142076703929 -163.34789924167413 2.4535444911806534
88.00616756257115 -163.57894240616795 2.4777094158120083
88.11419452996209 -163.28275829157215 2.462407275361404
87.84478134608813 -161.5243235521053 2.4658911683522775
87.06162585359328 -160.52795960544336 2.535740900224274
86.99788803271811 -160.57840150180917 2.5421886120021546
70.5417182438099 -196.1688162146063 2.518707711281378
83.1127642490255 -148.14877939825382 2.45775237959072
70.49935345777727 -195.97583714266833 2.5128403696406996
82.96807668169332 -148.1507354284744 2.464531028583336
70.40888003483016 -195.83292130359374 2.5096429285164814
70.211572801285 -195.80000442966553 2.5104482798466745
82.65017861429678 -147.72659497645608 2.4949818878806416
82.53343682909144 -147.95460732557248 2.48944562234715
82.30417020253819 -148.3169780918834 2.4855016934367433
82.43030116967587 -147.98881740016594 2.4932948271393154
82.24910197632747 -148.38256015111415 2.4842898059629546
82.0583752892536 -148.46351442027037 2.4892766575453567
82.14838956263067 -148.42001540027883 2.488095996837999
82.17756652694368 -148.0780896549444 2.4997717283798355
82.25326771606046 -147.9724130522381 2.5003267433423995
81.48066041336837 -148.19539998479615 2.5252658917785498
81.35879737616222 -148.21937786620828 2.5286075527783654
79.7324838919745 -149.74989296745133 2.549679115398691
85.64181120539526 -124.35788145653984 2.484168080461307
85.49004358279126 -124.37006977783223 2.482254034634626
72.91423395112979 -122.0224357967372 2.4682919132967407
135.7623387978127 -140.83110377826364 2.596421086684822
135.62164838537115 -141.08058511684285 2.587089987462382
135.27318964767227 -141.45845397373185 2.5683840955668193
134.9302706457552 -141.8273415231892 2.5501233239035774
123.73269815650171 -165.74166277856762 2.5806472996972225
123.85474439032672 -165.54083122827126 2.588811570351784
124.21584147776616 -163.7691181242784 2.616419519793142
124.36592052904292 -163.10017520585598 2.6299762136067786
124.19472022252552 -163.2413060146848 2.6172102651485787
123.99596511579196 -163.67671156250242 2.6013791315645216
124.00055854204756 -163.60151440848253 2.6018821609824885
124.02482911808204 -163.52831124773118 2.603983265066472
124.21317584845531 -163.0139574955934 2.619557394070472
123.915585719383 -163.4433992469471 2.5965423740506868
123.95721873660065 -163.3717569279057 2.599886442559816
123.97060676397375 -163.2986200244761 2.6010533693079845
124.01266531884845 -163.15283325830933 2.6047120348487787
123.00047717965714 -157.87001996427804 2.5987846521226174
122.90529458464246 -157.9957941013233 2.5896547117490156
122.93181839491746 -157.80895547176303 2.5953273703993602
122.92580461886399 -157.73646803013946 2.5963465339299674
113.46408073830196 -161.44131567759888 2.6376049357497284
113.43993214960351 -161.36741857621982 2.6351143519700777
113.39099095558741 -161.33118236684214 2.628637204198177
113.30046549806521 -161.29708396467353 2.616368836525614
113.316807160751 -161.18318088641414 2.6202714456212473
113.38092497296144 -160.91749134286457 2.633743824302158
113.18117756332327 -161.24591919138027 2.6002392828700693
113.0708252925569 -161.05050965162263 2.5876985619660955
113.14431698760541 -160.73362217580114 2.6039535809176275
113.17434555266411 -160.675274062827 2.6094135810624213
112.92922478732963 -161.16660001993912 2.5659103198740545
113.04617051817435 -160.9955034403001 2.585189508148804
113.06859779985439 -160.7953192476707 2.5920837504489644
113.1233010108819 -160.6432425032146 2.6029618130163317
112.94751972513002 -160.84246173161398 2.574084523222854
112.99462897166697 -160.50914014620994 2.5882122523033195
113.07730103364592 -160.2429831732676 2.606965184812351
112.830286025915 -160.88854546962185 2.556743858454226
112.86336643232845 -160.63404415806707 2.5667594174919217
113.06923525658625 -160.18796361338534 2.6073928329082476
113.0647327691968 -160.07482082503907 2.6101026183633067
112.92780026150689 -159.1089306811441 2.6255155801756143
112.81712784380387 -159.06082895462802 2.6123325688169734
112.79985183933455 -158.9137299440253 2.6162353860691887
112.73688161605163 -159.044229119626 2.6020734907174754
112.71038319769126 -158.99538889314104 2.6005092411002177
112.76977421323741 -158.86540276368103 2.614262638140798
111.15820778351228 -153.3904795716893 2.632077486278576
110.97304905767449 -153.4597640620834 2.6053365059462648
110.97239739787598 -153.3763084415148 2.6105495577176607
110.98070223953376 -153.22130829037332 2.6210774309615736
110.91518177228946 -153.168613770075 2.6165229720713175
111.02730717024885 -152.99019926949362 2.6414950838793025
110.84217423668773 -153.30507817202997 2.59943286578738
110.85460889307508 -153.1132178590278 2.61276213406537
110.62737987719632 -152.8700810486236 2.601383735907603
110.43748657785427 -152.18151953065157 2.6248585193786265
110.43100082766726 -152.12250601296148 2.628385934168953
110.30201270483671 -152.21726327272776 2.6068938500027103
109.88987390577526 -151.4728827439182 2.6107498043720425
109.81639805931779 -151.50370763464386 2.600788626973875
109.85928675482364 -151.3640183088312 2.614946471241006
109.76425164747427 -151.38633682063332 2.60303751641851
107.6574560071776 -158.436244356184 2.551106414678258
107.62331765713752 -158.4339522259083 2.543687550988848
107.51401562182953 -158.15265996960298 2.551872172831008
107.5277741799252 -152.63137064944388 2.640608319683635
107.4523217206998 -152.61871699071133 2.6328451164829834
107.39497142337346 -152.57216319209476 2.631329445262031
107.36489534034607 -152.51313515825623 2.6340351827283395
107.35522491695814 -152.41150472691416 2.6437679588461847
93.45473062395774 -200.3111985688909 2.6199741585478367
93.35234305739952 -200.14074203716075 2.6117364363072264
93.21928145050357 -200.11864929042432 2.609646013263058
103.38315841623933 -155.39089089265858 2.607235394041809
103.41308685815552 -155.31805697761718 2.6263008766510842
103.3001286171541 -155.4597146575271 2.5845360681295024
103.3571546986245 -155.43085053296048 2.5957503588677957
103.20043742014597 -155.45907827572117 2.5768427559598917
103.12700611177341 -155.41100251498233 2.5823244511980397
103.07848258355583 -155.31648946030825 2.6005922657613754
87.11365662798494 -162.8138058127189 2.546223701008773
86.95817052156336 -160.6304911121276 2.5451629524379045
87.04540069264841 -158.63472796512042 2.5515687078913905
87.07914081796318 -158.52830049076596 2.550067473045639
87.01923437420874 -158.57283693073765 2.555500371027252
87.02823823471832 -158.43599895361183 2.556331892381681
86.76647918075005 -158.63889851674398 2.577323108808752
86.4627475600904 -159.39263726417263 2.5966043007084445
86.44737930528458 -159.33262056626953 2.597807049189465
88.01003190919684 -153.61883140051924 2.6305298255499405
86.20933035781836 -159.8262327246697 2.6167345036809246
86.13708226979941 -159.75856079134962 2.623024542884565
86.73499647809614 -157.406798656097 2.6009813158151336
86.88976966879187 -157.0872497287365 2.594675041612375
86.46336720135017 -158.16890702360328 2.6108296379891245
86.50235181279776 -158.05870348513707 2.6091686409448176
86.73542236595829 -157.1327050728483 2.6075103148831746
86.81788506809207 -157.00752009756278 2.603615642790651
86.40205854350478 -158.09597064009807 2.6182515839278064
86.42257995086426 -157.95267033141354 2.6184720741076166
86.6324427886298 -157.19560203811065 2.6154747297695877
86.72359404805337 -156.85832700224904 2.615515432685051
86.28731106424381 -158.19092076174286 2.6269717119856666
86.4970209959108 -157.25066864608598 2.6257602399172013
86.2675316624204 -157.45928650415826 2.6420403746423013
88.43886439792402 -123.65204473255753 2.567274006391412
88.1678128707241 -122.51194248099176 2.615448550287761
81.34438076184124 -146.59187867656098 2.595192957920013
81.32819806572162 -146.46675562878931 2.600106674822382
81.22308075481632 -146.61799135777616 2.597960315125252
81.28277909682998 -146.32132145473327 2.6091304641482798
81.3309464444099 -146.24120095252167 2.60960433550791
79.7726949188647 -149.669099101337 2.5513651465053946
80.37153931442826 -147.70334167423763 2.5917186598508795
79.50572559859015 -149.94092409831498 2.5557018049439995
79.57599960105148 -149.8737573366125 2.5532976108379963
79.617542987961 -149.79335172373456 2.554853492364667
79.6351167012143 -147.4649461905754 2.632610465810621
79.68232205693495 -147.38157614873137 2.6325479483855947
79.50302766874395 -147.60716669208463 2.6331727417982043
79.57693896926027 -147.54006893533835 2.6312932233141817
122.52558591180775 -179.40777800990537 2.7126383178061326
122.56770649753838 -179.32096228591755 2.7129092559738397
122.61902100832188 -179.2412172949058 2.7136721990347357
122.3364265530373 -179.73758190333044 2.7105524528928053
122.38724629791538 -179.66093950611398 2.7115220046274655
122.42486906916272 -179.56853560612333 2.711099167234421
122.47808007355846 -179.49125983687236 2.7122258013204927
122.12384775733625 -180.16640456331797 2.7102490813931537
122.1842938370543 -180.09333395196919 2.711545093028086
122.2044832553405 -179.98401878726906 2.7098304670345223
122.23951399926786 -179.89333294663606 2.7092377662366616
122.28787949762948 -179.81731860273496 2.7100502675254994
121.92897918469377 -180.5085359976588 2.7087686564330338
121.99335500833885 -180.43620500992247 2.7102370427578566
122.02990503278212 -180.33769104233266 2.709675890308715
122.07239706372926 -180.24680849341092 2.709440203421204
121.71180868639377 -180.94988123036538 2.709053338250479
121.75453295422737 -180.86215002243202 2.7090317426321837
121.83686037076161 -180.6770125902014 2.7083631892411226
121.8735194599617 -180.58256645015433 2.7076286616981866
121.01172704033301 -182.43071774822442 2.7148529729136124
120.8773898939009 -182.7166347548218 2.7166239904895555
120.92572258865209 -182.6265941396853 2.716286553162791
120.95977634749269 -182.5221816349046 2.7150007868565975
125.19333185485394 -162.75632763986908 2.690133804694564
125.58108378803958 -161.33759060417728 2.7284654663793297
124.83787305337444 -162.66420249977105 2.6657366157784628
124.7393932853145 -162.96791147229305 2.6570065453385583
124.77529662934379 -162.81387102615773 2.6604173608195327
124.80502527634034 -162.58458720381537 2.663817724220439
124.80225461607468 -162.4318551083355 2.6646319562568124
125.31679450033018 -160.23431950614082 2.7216169725588886
124.54826038281861 -162.87949673526447 2.6439228479720795
125.05648815344892 -160.72134978725384 2.697698710189287
125.13610029434624 -160.48033568071247 2.7061104373145786
124.95151802384015 -160.88320591127925 2.6885640369379527
125.00022145745187 -160.80305386107577 2.6929535296648917
124.79706026830999 -160.42386467285016 2.6827558973141623
124.70496898534253 -160.35568098113467 2.6771629377968984
124.34846918629113 -160.14349616642943 2.6545182321281255
124.33510275835476 -160.07198331156584 2.654563973653918
124.25957588976765 -160.00296699117038 2.6500158022148326
124.14542099165318 -158.49716281100106 2.6663677379237494
124.05904531115456 -158.43346596884805 2.6614600833802755
124.2194363133203 -156.54060387293535 2.7118518431782483
123.93315221427204 -155.26225023574688 2.723189844615941
114.0686592651033 -162.04483264406403 2.717756469772038
114.14012469204047 -161.94405254362837 2.72841064094586
113.97200713911796 -162.0999549554047 2.7038140712742926
114.01863254058642 -161.98230857789534 2.7110694711971233
114.04682646789924 -161.54524305461086 2.7186459292409073
113.99660492183507 -161.5072278310103 2.7120171862463613
113.79302850560359 -161.81974680919063 2.68032927203337
113.74959375361148 -161.7800321798143 2.67446470215047
113.82141669950104 -161.4712242182598 2.6876477916517256
113.98344448597891 -160.4757055033901 2.727644949729112
113.48863830243756 -161.4028989019291 2.6414954820452015
113.86084243843565 -159.56938492866337 2.7371176487090674
113.65597679798424 -160.0423380390955 2.693530553619157
113.62185609980449 -159.73347917135834 2.6984033191238415
113.72572837233159 -159.67483939465424 2.714811792941347
113.58826679017564 -159.6615091645555 2.6961275403301315
113.44905484046153 -159.58913609336827 2.679304582723616
113.22396248688989 -159.42201780886379 2.6541080062809788
113.15538855530629 -159.3782702232341 2.6462841064050076
113.1314360389206 -159.32662690508562 2.6449512430552913
113.08866676090196 -159.29976135950082 2.640050950269821
111.85193848216409 -153.04776327442667 2.7377746363705318
111.82296779621169 -152.9222779965289 2.741974170140855
111.73192867837666 -152.76036644459532 2.740821957056882
111.25275174072144 -153.35676204269157 2.6459110700325796
111.41262982706691 -152.83932313559777 2.697267825241686
111.50158788094906 -152.3652236699765 2.737801132113062
111.34810879871137 -152.19529157817522 2.730168400738835
111.11464014047382 -152.71468196693164 2.669121240947462
110.86529895472272 -152.47590127644946 2.6550229852071907
111.01259881146555 -152.24324786931496 2.687802075654534
111.07600108048605 -151.68491646404667 2.7317889650249096
110.98715622847907 -151.8618377920118 2.7100167830367035
110.66959646367931 -152.03584478285552 2.6613577674825026
110.66990456350756 -151.96405338591296 2.666523814363798
107.49319398415432 -158.3799314594375 2.73938684605677
107.47455770610655 -158.35650493126886 2.7379426749820794
107.9116116934195 -155.1405733767162 2.7380102254260694
107.82270364575903 -155.15885708135608 2.721373329925511
107.82702458399474 -155.15349905621719 2.722983514364584
107.71929050762961 -155.14814108793541 2.706404596165256
107.65143438395562 -155.1178952743079 2.699401641064584
107.61225581012698 -155.07477872187172 2.6986464904696406
107.58547723114691 -155.0120331217859 2.702384912651221
107.57567326116906 -154.94996653346962 2.7085904118695505
107.59745411320704 -154.86872515145177 2.722552443404502
107.65945715398014 -152.57698321464153 2.6619595468345287
107.57256613886796 -152.62409471486842 2.646398082489409
91.88215010921196 -203.0314750384872 2.718122957509027
91.75027086916785 -202.96593662615808 2.714087110963966
91.5753176507751 -203.04351992602344 2.71590966455881
94.85773911109402 -148.05315944697557 2.691177341414609
94.9206723592047 -147.9971084661127 2.6956136341287964
94.9416175722118 -147.87148804478255 2.708232856140497
94.95745159803978 -147.78772362433 2.7160547386217777
94.8344735178109 -148.12600916998778 2.6847408728696287
94.89040829635367 -147.54768868484445 2.742866532706945
94.62727057923107 -148.31856153404763 2.6701687594195325
94.6664188316951 -148.22366562347747 2.6789306068100758
94.52935923106966 -148.31002792754387 2.6739854224711492
94.41149392435085 -148.32464982843436 2.675872897488257
94.30762097911156 -148.31501840465702 2.6800842059959784
94.23538283701055 -148.30371621249458 2.6828778522557113
94.13228916679957 -148.24389339911198 2.6923832393269964
94.05641872027178 -148.2259220794961 2.6960044556902396
93.88728698390008 -148.0670340029111 2.7173660030847264
90.21899877256955 -159.84841551258828 2.6961970281557788
89.95798488738404 -160.64043490012358 2.721290129345901
89.97785700496304 -160.55237782144616 2.7192613310071803
90.12446899108058 -159.8765222089126 2.7071822118131292
90.18043508059337 -159.79877402702965 2.701220801557886
89.9483804783116 -160.12248806092026 2.726353194077319
90.06124345461646 -159.68918847871308 2.7178794230823753
90.23476826824377 -159.2903964335165 2.7037063475145597
90.24393838951634 -159.1797949990493 2.7050036512415536
89.85807817577665 -160.1570740203033 2.737940433795443
89.94335830152221 -160.03148176145922 2.7285807089483343
90.03246550878292 -159.73079227564082 2.721393779557103
89.92635726508185 -159.50517836417094 2.738182816413829
89.9807875634612 -159.42624721784563 2.7327525038140497
89.98848813611856 -159.33601891938747 2.733509151014288
90.0613769316248 -159.00711268730754 2.731748811553287
90.04397064219336 -158.95657884343157 2.734537799746732
90.02471375338044 -158.90616789324116 2.738714823954103
86.56885024834109 -156.06756835389112 2.6503967212670427
85.65844674996367 -158.91362776788264 2.6741864556272827
86.03220244617629 -157.33597321849405 2.664636134471471
86.38122321658042 -156.12775148341487 2.664784440632764
85.82057739282884 -157.71986690389065 2.676704633226327
85.8619958829284 -157.66684222473322 2.673232555026248
86.25240705751098 -156.0188755669193 2.6782205525848837
86.26960962233075 -155.89819382067716 2.6802651481446134
85.8493664988485 -156.3968425673563 2.7026812341532107
85.77037503511117 -156.63137465681245 2.7036151706603397
85.81679844874637 -156.4838040353768 2.7036812121060665
85.92833839066739 -155.71106334339655 2.71591422480153
85.86452405382659 -155.55457112590142 2.7261854687194598
85.92379273323598 -155.50918168854344 2.721845233538134
85.63403478464787 -156.06736848469538 2.730161850186457
85.26668512743029 -157.36106326500538 2.732371102230793
85.58773883072612 -156.11853134437 2.733580435707796
85.63195094692064 -155.93634136413633 2.733971858032367
78.34622475274678 -148.36796587298176 2.6581399130738044
78.4291215955549 -148.30879160227244 2.6573421116998714
78.4731300661402 -148.2256243510439 2.6568758871165783
78.48562563495787 -148.12181135533527 2.660900902831368
78.25226268171616 -148.42727765287756 2.661702614224545
77.93467004189164 -147.69658952360146 2.6991521906897993
77.99238375013212 -147.49945973128965 2.7032624237466214
77.98179624499424 -147.378452875117 2.7090781314267023
77.94139519440023 -147.2378431794537 2.714610304993383
77.96463788016739 -147.13552838371552 2.7183271669525597
76.57902571587094 -148.90403276419454 2.726322272328059
74.72070196847383 -153.82450980170856 2.7199101922132543
74.72255948521996 -153.71600660669299 2.7199778856954606
74.53484486865891 -153.88040677048662 2.7279155038534584
126.58237977133122 -171.85910494819294 2.818391402589785
126.34891435691338 -172.34712433015997 2.8090551523229355
126.51185203593408 -172.02481478628943 2.815735478685284
126.52470738358357 -171.93396467515709 2.8155959219852926
126.0342083596586 -172.79386003880987 2.7944049818275194
125.78129935391449 -173.27497055215304 2.7848632807458067
125.8468990190703 -173.1556380276556 2.78742711952211
125.90836735395553 -173.0342291752101 2.78972378713178
125.62163268720374 -173.59065340596646 2.7793438516698026
125.67325372489775 -173.5206191941253 2.781719993357906
125.68497287541892 -173.42696322692373 2.7809065741943013
125.73353625742936 -173.3528230090678 2.783056174817381
125.4274164675175 -173.89724176240463 2.7716871085103354
125.49915108196929 -173.72708409292895 2.773579803434518
125.54617769207431 -173.6498514339992 2.7755202661281273
125.2444434037052 -174.21012930466867 2.765122055984178
125.28851497028869 -174.13395997611983 2.766787996757481
125.04700011398103 -174.5099183852228 2.757672884890715
125.10424328002698 -174.44133298532606 2.7602475095726406
125.1539120490622 -174.36505339178967 2.7619762335194795
125.18565219862583 -174.27946082699276 2.7626628987212962
124.89775380693004 -174.83213335266692 2.753949966300502
124.9490872854579 -174.76021755390784 2.7560274115013708
124.60562701596004 -175.38605815432294 2.7460185131314336
124.45814024743468 -175.6136482515214 2.7410926552379973
124.36105375534214 -175.76549761413366 2.7380516537044874
124.40775745705322 -175.68541185893847 2.7394928568214065
120.56716330443047 -186.2225737167225 2.8138951136428503
120.40662352444039 -186.54136799205574 2.81659992930397
120.4780518962538 -186.28025271722515 2.8113044187279232
120.32633604845293 -186.25222783796568 2.8029978624026786
126.53101351241774 -161.24016596407122 2.7965293838404337
126.49711707552649 -161.1567425527453 2.794831742016108
126.1673795962175 -161.00079364019732 2.7731177468228343
125.72404923981415 -161.41503773218162 2.7379421938415165
125.93356448298509 -160.60054956467215 2.7609779374472816
125.86954768358254 -160.52132298289553 2.757243122917604
125.85444647586252 -160.11341053936556 2.761068635613928
124.61173708927637 -155.63061513978963 2.760290713136902
124.52503405916823 -155.81973565277875 2.749759551396538
124.56750492252455 -155.72539395492532 2.755010957353073
124.61705920795254 -153.8635786796116 2.8069755886511594
117.15678402471552 -155.06661536531547 2.835921743290708
113.44180245026298 -168.7347278275385 2.8255583062179537
113.50093288303167 -168.45485149892943 2.8168058124125874
117.43994771019284 -153.43010517986295 2.8411140283604137
113.27968611217268 -168.94822288651437 2.8186131308785627
113.34275119434557 -168.83228720831045 2.8193344871564987
113.37624321737273 -168.7739066556656 2.8199195211101356
113.41022715150741 -168.6333597345751 2.8158768976644306
113.41739586831581 -168.45437776116117 2.8065758235044522
113.15892091664337 -169.02688027707563 2.8089842093441915
113.25440086769778 -168.85066424862447 2.809743275885208
116.9451682275557 -154.61040659716474 2.837177209370714
112.96914376489006 -169.32835589191328 2.8054113347532605
113.05250434610721 -169.06191999322638 2.7984608701701505
113.10092861545516 -169.04093391453324 2.8028739440961767
116.91130440123598 -154.56480226603452 2.836117652913196
117.13000512579713 -153.50440326103833 2.8072386381990437
112.92213808621787 -169.23792840906427 2.794050161299377
112.933556688229 -169.16452606982065 2.7907658893898044
112.97616720635213 -169.08936896098908 2.791078519965721
113.00184643340316 -168.2721498335078 2.7453064577963424
113.03354290504691 -168.1174373832066 2.7405112196771975
113.05218740697545 -168.07907859912947 2.740628463551922
114.66155067314772 -161.91197844022503 2.802290952041014
114.64156494834923 -161.5777583059074 2.8023229424456564
114.48377979206471 -161.8672373345662 2.7774565278172623
114.50959158168266 -161.64169161693795 2.783030456219887
112.30982765517909 -169.4861710589904 2.739384718832678
114.39423427879473 -160.13812565482615 2.7939877817043985
114.51388274372917 -159.6150035557358 2.8263297553718134
114.20433870076621 -160.28810591945972 2.7633530322928963
114.42795516209534 -159.75593806517358 2.809850928380993
114.5022523490692 -159.2742298954326 2.8363095680618673
114.21233027343216 -160.12339193018775 2.7689183111494846
114.45719509882701 -159.242482355788 2.8311733985035477
114.04234653005136 -159.7800270146624 2.755437755455621
112.32550133934753 -152.50082942219763 2.8287185375228256
111.8840634836969 -152.79982145787892 2.7566186572860074
107.64840335333646 -158.43774669740165 2.770818129021994
107.70990695126737 -158.42270077612616 2.7882301064399537
107.5734929087995 -158.43863907415832 2.751715673579066
107.5301699348103 -158.40485312942386 2.7453115660001295
107.47547937522121 -158.331020411126 2.7415201172745323
107.51230488391302 -158.14828750318836 2.775840994908304
107.46481057450585 -158.30099911806354 2.7430219163823635
107.47074932043706 -158.24488886483465 2.7522150404351793
103.2787778029847 -155.46639829111393 2.815799171610752
103.33918615937166 -155.4058740424388 2.837133152215999
103.20042519699787 -155.4751230120123 2.8070214328966037
103.11659554939297 -155.41976460392436 2.81516735197673
89.83029239607704 -205.83082696522857 2.816525078015043
103.06707385885403 -155.3414105859216 2.832397599860756
