ply
format ascii 1.0
element vertex 833
property float x
property float y
property float z
end_header
10.648617576206064 -146.41186322208628 -7.464129048330054
10.660018854334021 -146.3176295266902 -7.464539243406978
9.747962542840229 -149.70029185505226 -7.463223031341229
9.839928713320727 -149.2014266259729 -7.459967916912688
9.893291456227615 -149.18774478899593 -7.4605917202802745
10.205276857144208 -148.01663511777426 -7.4580212061592315
9.870265412147418 -148.91829753634332 -7.45814979263786
9.914048275931012 -148.83278960720367 -7.458158020743657
10.544398720913643 -146.0573856411241 -7.462644865874623
9.633128078302777 -149.6543790606222 -7.461358171706115
10.177275338919312 -146.92220882308564 -7.454422053096601
10.495321903036771 -145.79138289158377 -7.462359168104403
10.482979302352605 -145.7384943647847 -7.462304273880819
10.252660310837044 -146.22481053429595 -7.456021412882764
9.417118429618354 -149.6354255482473 -7.458529036552725
9.189708644111713 -149.46929473180128 -7.4541210308087384
9.824088218328766 -146.58674329107262 -7.447187020148953
9.890011378535641 -146.48228072714988 -7.4484196736769555
9.921535618798599 -146.38103437216014 -7.449058518154377
8.60407711389734 -151.6570787628546 -7.4769584594396346
9.853077349418317 -146.41028782254364 -7.4476826725202905
9.988450498230627 -145.3826156953959 -7.4525725381152546
8.589283519679995 -151.5533268149581 -7.475317015484535
8.620953459106026 -151.345979064062 -7.472423111807955
8.969015727240548 -149.50197033893772 -7.451898668081726
8.991196847619706 -149.39745474587897 -7.451040352889365
10.155518469270897 -144.1807036618778 -7.464722005255082
8.553243435464525 -151.1811164680913 -7.469561219193164
8.833006953189685 -149.7237367290623 -7.452881357952378
8.93962295241029 -149.53539909683062 -7.451922534258139
8.924801963787742 -149.39196929824598 -7.450209622228055
9.844631377488088 -145.26103127814736 -7.449796559781559
8.658731337465749 -150.0419719152262 -7.454951923724887
8.698143980061356 -149.80963913066512 -7.452493802269933
8.95130974122682 -148.61132897939794 -7.442883188646067
9.145618033119815 -147.9335866826823 -7.440383343781295
9.955173565961017 -144.22153706371458 -7.459289717631871
8.612886170679701 -149.85072460182892 -7.452145037445426
8.79493814555632 -149.13086059973043 -7.445951290638322
9.82130494828892 -144.24600474502057 -7.455748153411103
9.85733617991102 -143.94026660300847 -7.459524894675733
8.258857427800761 -150.64243237848737 -7.459687317617329
8.233342567414283 -150.53268298311534 -7.457917841489755
9.660419021934548 -144.25604462637193 -7.451693920657287
9.710777858832447 -144.07989785457673 -7.454520506886339
9.511953481199052 -144.63088415519283 -7.4454181900249665
9.501000413398511 -144.46597329288903 -7.446249981242882
9.573657122081329 -144.17932211902738 -7.450232299273371
9.599970332379769 -143.91686363321918 -7.45324709223388
9.702095961884705 -143.72513380945304 -7.457828169251759
9.398162068459508 -144.5350142013531 -7.443294977466583
9.586414574077335 -143.7761056397053 -7.454347806442308
8.407589739957842 -148.55535181552222 -7.435460400855748
9.245044831327277 -144.3858683096454 -7.440633069874641
9.220037766613936 -144.2580872719311 -7.440967094950907
9.180016273816706 -144.39271341589637 -7.439062832917447
9.125446316423464 -144.25363655183043 -7.438685373314837
7.797254902992693 -149.8075256528613 -7.44441634611919
9.11222998570329 -144.15162554709548 -7.439134711505971
7.510896499556322 -149.75994783426592 -7.441607841337961
6.864884677194651 -147.39372007401383 -7.405298493381613
6.422524113996261 -149.24481927420823 -7.427188340150308
6.742771524272988 -147.57161797672632 -7.406036776651175
6.834548656702843 -147.43990386166178 -7.405478851182909
6.25850293226554 -149.2103714161046 -7.4258810721836594
6.630570076896614 -147.55136078133629 -7.404663157219046
6.70801378540999 -147.481617936366 -7.404611236651032
6.1646239497407125 -149.14133300187828 -7.424319086174834
6.434906867819773 -147.97081073140816 -7.408295908657397
7.5720675456323745 -143.16598814073927 -7.409461476505849
6.2093142508414925 -148.8739859860181 -7.420203702544421
6.4196239612271935 -147.84087817923805 -7.406415376969224
6.4270898153845994 -147.6306729957159 -7.403724811569275
6.429600135650456 -147.55598691793293 -7.40279097671532
6.479447520194036 -147.4847942632202 -7.402373413882953
6.057843206107768 -148.82149051694026 -7.41861228372687
6.332978648205936 -147.9016346304162 -7.406516893076535
6.332159403527556 -147.73532218148102 -7.404258709734376
6.379534010009393 -147.65659442944047 -7.403632581843379
5.974319363652835 -148.92741161512043 -7.419997082688726
5.827379866003514 -148.90549869743805 -7.419042305611179
5.959995283133205 -148.3391507380204 -7.410420300732945
6.008343821224575 -148.28570388636484 -7.409876928795793
5.915252719245643 -148.33697831496784 -7.41015635036529
5.502230745858815 -149.0766672217704 -7.421133140591621
5.374776203329652 -148.53681036961453 -7.411255963088091
5.328202895609757 -148.40035437170081 -7.4087266622041605
5.397302735021381 -148.16357680010918 -7.4049293035128825
5.285758978766963 -148.45830344266977 -7.409620287216318
5.323899967945782 -148.2971511706203 -7.4069402867298955
6.715157476819429 -139.55405824730542 -7.400534926178449
6.893809654418277 -138.8680071949156 -7.426701341743047
6.640177201249005 -139.43191793194987 -7.402786187846237
6.568255578693101 -139.3937785181067 -7.4026079530919695
6.328715632898273 -138.92440105942424 -7.413781914106918
6.139422173616597 -138.89438729018215 -7.411297011370956
6.169540998974478 -138.423297889044 -7.429934972827085
6.226432808663112 -138.2671105839658 -7.437340818207078
5.957127228472013 -139.08146846864568 -7.401015083835261
5.994587946490123 -138.9448795228943 -7.406622931573781
6.006831495286899 -138.85546650695713 -7.410138539541538
5.9925375678613415 -138.7721019562436 -7.413052340335763
6.132078005021107 -138.3751046064562 -7.431170555235242
5.891535852348436 -138.7290411939752 -7.4127484201304235
5.9624905360866425 -138.6459586449891 -7.417324128948022
5.82081724907992 -138.61614713987535 -7.415860893870237
5.7583603452963485 -138.6540473351183 -7.413155006438861
5.584136159757992 -138.6360582640628 -7.41070749963521
5.6527093238433 -138.3632834402129 -7.423110288955327
5.688393810366227 -138.08683034589384 -7.435630851364429
5.53657547199422 -138.4206529794956 -7.418582829164789
5.602190798806315 -138.22783657873788 -7.42793312016966
5.657993089270159 -138.0098768119368 -7.4385379713729245
5.7010764191415095 -137.97114163289086 -7.4409407881667
5.4420017790681285 -138.65411379694638 -7.407322591975689
5.441771774418216 -138.36632934330686 -7.4191915500853565
5.461760576808299 -138.1892013681686 -7.4271889896062335
5.562764641698115 -137.97889142039065 -7.4382811787768475
5.279949711111171 -138.63836758296273 -7.405049058337166
5.359997233450963 -138.5551968943606 -7.409838176236029
5.350991902949023 -138.4367657608206 -7.414608064600747
5.361768835873803 -138.39194959819804 -7.416749159079732
5.434524533901799 -138.284455779814 -7.422631215828821
5.28886882499479 -138.37485670116658 -7.416143948859297
5.407660541372254 -137.9084140224549 -7.438966057857285
5.406690396783406 -137.76550173227005 -7.44568242217179
5.328693346101807 -137.85451710285378 -7.440214778178639
5.309953070007341 -137.75192312078858 -7.444842059773481
5.294920841061176 -137.67085564421475 -7.448518708882116
5.328039547870182 -137.5980261177561 -7.452542102397813
5.411965859924071 -137.1425700928772 -7.476740788503101
5.040971987268173 -138.26036604660393 -7.4168850146308705
5.213684417134159 -137.68584095012915 -7.446493571466266
5.1842990254910495 -137.6333643524265 -7.4486766126471124
4.293487097989027 -141.2987758807898 -7.469291562935151
4.5116170248636704 -140.40744639233048 -7.4908394345717175
4.506156565626531 -140.36124488139015 -7.491468762869791
4.9769280847156505 -138.06470074028655 -7.424793946290009
4.988155430977282 -138.03969745467973 -7.426086770635381
5.213508831005828 -137.27525139450006 -7.4671032022797705
5.253743555684651 -137.0623539609228 -7.478777192301537
4.270079528538496 -140.80413869199353 -7.47133848044362
4.349278575130471 -140.74756582094213 -7.476324467120961
4.911254288580124 -138.01213438930006 -7.4262053890633295
5.034217435096873 -137.67433291253087 -7.44439426282599
4.990015673259476 -137.59677118883522 -7.447632591337076
5.055490261416706 -137.49685339014994 -7.453557324957097
5.080982877163755 -137.13912836775378 -7.472526833324229
5.127897626793711 -136.96541047300852 -7.482421444737897
5.179115794795094 -136.89638943977295 -7.486757267132542
5.2155505964359925 -136.82297197722355 -7.49119326150205
5.193676601455759 -136.74829739897584 -7.49499847645385
4.346417474289847 -140.02113509534112 -7.491036948314566
4.739064067158771 -138.31527505820782 -7.409400878592348
4.838506522215119 -138.18030369641545 -7.417145075651135
4.892210047243441 -137.559884376021 -7.448094266807875
4.936035605316374 -137.36010214950034 -7.458989100157126
5.070705715742648 -137.02500903544586 -7.478439074796078
4.178974808996647 -140.2714255052198 -7.475426192170911
4.255919445630963 -140.07527179119523 -7.484549626341439
4.330043169624445 -140.0064762693467 -7.490509064284093
4.636956499391854 -138.3172917941242 -7.407609999204268
4.914121265194715 -137.16754410162193 -7.468820915262614
4.06140872426481 -140.40736933085458 -7.466076484039786
4.1218448528589695 -140.25515873595666 -7.472662910184269
4.132698408635258 -140.15483338521116 -7.475680215147166
4.532066934121239 -138.47505264523764 -7.398743750992664
4.592680295279429 -138.2603079095956 -7.409492623970127
3.5570489943738015 -142.24323629214948 -7.467095710510197
3.7428049978449143 -141.30523086488142 -7.470287867191262
3.8370742963168376 -141.18840165898428 -7.44578012470851
3.9661580116180732 -140.49728040716292 -7.4592247293482
3.9846769400815267 -140.44381901179284 -7.461203056283213
3.973302580826735 -140.31925966965704 -7.463073191594543
4.059691867181488 -140.21096742709688 -7.4702910117572205
4.084342865173312 -140.1546680446444 -7.472993293193126
4.043901761308782 -139.9938405473391 -7.475118557466227
4.127644828698043 -139.94086814514165 -7.4813032925630045
4.114576851974167 -139.88447629423842 -7.482304823868546
4.18231524761627 -139.74948117540328 -7.490374997235022
4.5480433263313715 -137.86118776722262 -7.4279713482939425
4.700334360350697 -137.2736396540922 -7.460494066371581
3.571846076788873 -141.57619750310857 -7.46059731157484
3.6403919405740695 -141.3494787065044 -7.46413952872366
3.901046207626388 -140.24788824271974 -7.460674036536693
3.958313484965227 -139.91431707093295 -7.4727644336908305
4.432434085710925 -137.93845708294566 -7.422380119906312
3.859628713952906 -139.95989238657378 -7.465960692285048
4.027945580377011 -139.43627961571835 -7.493730833341263
3.429742206236013 -141.295396544393 -7.45172810656376
3.5233601992549874 -141.23690437356146 -7.4573671458182815
3.4949279368520214 -141.16899949832154 -7.455845977371377
3.7948242275302984 -139.88984527373842 -7.464512814164799
4.236934493877029 -137.94158159914227 -7.4194255627214405
5.258842213841944 -133.48755142489765 -7.400424131017012
3.3681516545410335 -141.31333566830605 -7.448093079024605
3.43902788100742 -141.10986530113806 -7.425303377772268
4.081839856598084 -137.93031750821712 -7.417759958776795
5.060292985534577 -133.64936328375128 -7.39817620791158
3.2064891164909306 -141.43538759974876 -7.439068639372825
3.2728329962177076 -141.30016335267044 -7.442517035923556
3.2573523321415214 -141.17048367419366 -7.44162637589992
3.402320373547047 -140.64383040106605 -7.4263165446378645
3.4134100445694653 -140.54093786655173 -7.428324847021682
3.442953584325937 -140.37618427562026 -7.432748057385811
5.012324481220737 -133.59331320523071 -7.401349452946025
3.114945888628203 -141.56637977909705 -7.434821992436959
3.1526627026248484 -141.33479776813417 -7.43559463355821
3.1762699681312787 -141.3184899485808 -7.43690520720173
3.375129471201308 -140.5246759794309 -7.426455807005107
3.5322223303386258 -139.73324251237506 -7.45539115324019
4.145331122660603 -137.15492376722474 -7.460504603166356
4.866533188557892 -133.57209786581652 -7.40520713442555
3.104984015720115 -141.34112107195656 -7.432856474942798
3.208157272287657 -140.6408740829479 -7.415849063588192
3.2925532286936297 -140.40527732632168 -7.423939262443032
3.4236713736107505 -139.82933037771795 -7.446122368015881
3.898164204824445 -137.4921808532772 -7.438914684044675
4.772082979326315 -133.65143506561728 -7.404105974586985
4.806603790434568 -133.5329456023084 -7.408042814128866
3.121647827695872 -140.63776481440382 -7.411241906563175
3.0909567738033235 -140.52869969858787 -7.410940132497699
3.411537781042195 -139.35674897880202 -7.4641439906437315
3.5043017113407644 -138.8522141592308 -7.494706182471946
4.031991404192438 -136.69282263766863 -7.486276236891555
4.743541318858436 -133.54894874053682 -7.408718067941111
4.577583406421382 -133.70796577725673 -7.405951633595728
3.2899640730146826 -139.13935327448021 -7.468328138202299
3.7073872024166845 -136.94653240727945 -7.468425703278402
3.703805930403775 -136.92707576581853 -7.469597639399084
4.437144945370504 -133.74107817801615 -7.40765044973932
4.513714499094397 -133.70192471251315 -7.407547512522855
3.680580648931739 -136.92469773308432 -7.469522686558654
4.306087874482848 -133.84011312265693 -7.406512379225385
4.386069370085764 -133.7229026038799 -7.409422022145541
4.351223948096053 -133.6773502063879 -7.412037165116709
2.8999677509945836 -139.73685089369582 -7.420773449074721
3.146447263206852 -138.62198404699703 -7.491262484183916
4.209162920637418 -133.78915070215484 -7.410630291077135
4.303115483726921 -133.69803142745303 -7.412198412189187
4.255332855495327 -133.67106508313833 -7.414306096767694
4.29876746620366 -133.5560141134045 -7.418019610599458
4.342891715346783 -133.43919449846786 -7.421693149729519
2.3183782089325584 -141.6972079193954 -7.495555318912371
2.990118487057017 -138.8487471117542 -7.469681385889001
3.006281088345213 -138.80889508115573 -7.472903141760918
3.0492273257546687 -138.67931818929165 -7.483049732149705
4.194138672621286 -133.5954202911367 -7.418695258588639
4.192466378377954 -133.52314415066147 -7.421657418608941
2.6043386438866767 -139.96475954573887 -7.4878924956272535
2.886013538030192 -139.02494940919345 -7.45417620263559
2.8436893003384123 -138.91533588878627 -7.45856432581604
2.8651222621738968 -138.8944928269008 -7.4608929292550545
3.329749133657138 -137.0320709689536 -7.460451286965675
4.044085933579452 -133.65650486430792 -7.419551741757298
4.141127970547708 -133.55220006622764 -7.421566469223317
4.09965776819286 -133.51917485033212 -7.423808720590567
4.126327982797471 -133.42514555614 -7.427052251880288
2.830438687468773 -138.8506821676837 -7.4619383892667575
2.7880837229618987 -138.7519340025641 -7.466219932671107
2.891141184971864 -138.65056077148984 -7.477606646564735
4.009537343409343 -133.56228993005794 -7.42405989705836
4.0319181023860935 -133.47287618552025 -7.427215001848121
2.2782560303919337 -140.68414159177698 -7.447665089656242
2.332541478341989 -140.39360468827718 -7.453551240123038
2.68871590879221 -138.69402923788277 -7.465559337394391
3.8742458232678167 -133.6324362852262 -7.424232679193983
3.946724493945676 -133.51028416409102 -7.427594764541198
3.973937959367452 -133.30582468208016 -7.435207689192341
2.217216189288058 -140.6566587206225 -7.4422610654865515
2.6642456526001816 -138.69484258670937 -7.464377966085797
2.631525610222706 -138.56830645396815 -7.471725813117491
3.8482437582030187 -133.41408083665107 -7.433674084051121
3.826347415571561 -133.343312078825 -7.437002543547452
4.14065814066084 -132.14945093500103 -7.478421158244728
2.123533225829253 -140.50822620886802 -7.434078913171782
2.1623591223974294 -140.21611194394714 -7.441091308771766
2.330284838038177 -139.51811793367264 -7.483845590418981
2.4471872964729364 -138.8976969790386 -7.441018852254874
2.551173561224539 -138.55501253038807 -7.4692768027507705
3.75283735411836 -133.41894160546727 -7.4356400741471695
3.7578593181870894 -133.32680202992765 -7.439243933359196
3.729078569479821 -133.18017028904774 -7.445838686923768
3.8151737090409683 -133.07892928481516 -7.448042175549796
1.9940020477344798 -140.59581046641134 -7.422706049430769
2.002392847415814 -140.5184640905178 -7.423388786492384
2.2537426447878075 -139.61457973838776 -7.471853359084368
2.2722635047776873 -139.58052474473308 -7.475300749957619
3.569379720243182 -133.5871055542427 -7.4329182648614855
3.6263743587880164 -133.25685200976847 -7.445060178962594
3.678250379790594 -133.15878899503468 -7.447917311218843
3.8694177468180597 -132.27434284487114 -7.479590244371274
1.8973334667893849 -140.54528128793848 -7.414180209174953
1.9571441045606839 -140.16094403349953 -7.4925198403186375
3.5962230204198264 -133.10929275154572 -7.451797704341911
3.690360378069391 -132.76808166710228 -7.463541935715343
3.760389902120615 -132.1484895535624 -7.487349252748378
3.473198127820752 -133.01523152878806 -7.458515278724158
3.5173421603278396 -132.956853003633 -7.459859290066561
3.3694387854502086 -133.04068451655357 -7.459854540017746
0.9794575889470039 -142.91208662274326 -7.4103196889449405
1.008281338368974 -142.88470869297473 -7.408888237376729
1.5373206979311378 -140.29707511823057 -7.464955909959871
3.067178674593837 -132.47634151148227 -7.490330507266726
2.706099327809353 -133.50992393433287 -7.456302179299555
1.2992930354650127 -139.01321843016814 -7.444670091581551
2.40910915206039 -133.73570910835278 -7.454208982273027
2.2499937540917854 -134.15747325973365 -7.4405699136342776
0.3690431380938495 -141.45426497202544 -7.479585256193203
2.0912463274528044 -133.93295970333332 -7.453831701318038
0.21576352513883013 -141.12604130771678 -7.470049214034743
0.04393053754156654 -141.44762869050027 -7.467134480356848
0.03775164012929373 -141.43495342725524 -7.474890240273186
-0.6243441671439302 -143.01725708985757 -7.450108326904662
-0.669048052204681 -143.02609088207856 -7.4526751209370135
-0.6816286197995609 -142.9885189614582 -7.451056445012763
-0.4069634510665666 -141.70220829845871 -7.480537151529772
0.06754478275841155 -138.49220365123267 -7.4426558987369535
-1.119652837747134 -143.27788150246582 -7.490425096217467
-0.033267200703262695 -138.45807967726356 -7.4643153380825105
-0.9507815464404455 -142.0939209201078 -7.493399041080775
-0.08515320137982096 -138.5537473721732 -7.4810561555628325
-0.10252796377190201 -138.48918595517134 -7.468014812885114
-0.08964340415135819 -138.4108053368104 -7.442140444508495
-1.1814570964355997 -143.02317464369665 -7.4797174586194615
-1.2559389651832344 -142.9730684131353 -7.481445842967292
-1.2153945366343872 -142.83960042218877 -7.471713516908373
-1.120690630265241 -142.71952188263054 -7.459389939073787
-0.9649601208037176 -142.0880260644576 -7.494019979912123
-1.0149031880111075 -141.9845826685881 -7.489436557360722
-0.19604381421469655 -138.5590348626119 -7.454689423998824
-1.3380146064527358 -143.02418875030997 -7.48930328993316
-1.2283253621390262 -142.59128468272252 -7.459254631319319
-0.3632076403946518 -138.6311377114727 -7.466216485181227
-0.2682115595697432 -138.55002382132113 -7.489189279461691
-0.2582774762500294 -138.4751997198127 -7.441114804575264
-1.3184045499682278 -142.3774786481328 -7.454329504216953
-1.2833757419604448 -142.1948008879973 -7.442811730351918
-0.3879028617575033 -138.63166566269007 -7.465683565852112
0.5647064502305603 -134.03845296987507 -7.4898162097010825
-1.7221352055185606 -143.66389801030044 -7.408602784873682
-1.6068226388660065 -143.3334636884206 -7.39587418370812
-1.4120480677358909 -142.46618096306906 -7.465349895635743
-1.35205912434022 -142.39958022362336 -7.457804629067681
-1.2790242166419812 -141.94456366350866 -7.43056392161193
-0.5816776707026238 -138.65457867631756 -7.493132888532098
0.444814845978462 -134.21285586773945 -7.485782658134548
-1.4201559730308455 -142.05203015534704 -7.44633852643309
-1.4029561049394625 -141.99634622118026 -7.442481970290085
-1.8039121227864763 -143.27543040713422 -7.4047664720933986
-1.5914004476298536 -142.2880633130712 -7.470283264839023
-1.5352398703881203 -142.11924227295304 -7.458357730573237
-1.4803694337084368 -141.94211242531037 -7.446292545635911
-1.4577320689167932 -141.76158569441074 -7.4369583349280095
-1.4419745785825777 -141.6550392128562 -7.431416232460379
-1.462743206701594 -141.60763067517186 -7.431409445594888
-1.4140992132397854 -141.49602646272942 -7.493412570887427
-1.9061136617910008 -143.37601180379718 -7.412127227494069
-1.893052914349961 -143.27731132680015 -7.409520203337278
-1.823836614029824 -143.1835502077493 -7.404041729053033
-1.83327945970108 -142.8775002402451 -7.398864514865184
-1.6327483906579667 -142.1346803977489 -7.46686194754429
-1.5088144023686196 -141.7815788546076 -7.442060947760764
-1.5182427694772134 -141.64062679550904 -7.437509060945047
-1.4761257814360325 -141.54650615568696 -7.430368052669346
-1.8957078671863623 -142.97389827748958 -7.4040410401587415
-1.8799955942408586 -142.8224523586476 -7.400508316594452
-1.7283617605915111 -142.18066859739812 -7.476606948593148
-1.6973455765260956 -142.16480711237938 -7.473398502415601
-2.160182003674462 -143.48267219570207 -7.427821669863146
-2.0221677582752 -143.11079732877744 -7.4135114015459145
-1.81464046353957 -142.1666299338793 -7.483220538500225
-2.1678508136231134 -143.22342196414957 -7.423645236173239
-1.8398269245169347 -141.77083338727252 -7.47087828830872
-1.824293761768497 -141.7302757984075 -7.468114655513617
-2.0006737408499973 -141.8587241192662 -7.450823075046852
-2.0488061337218735 -141.86585111240194 -7.398097059571242
-2.2722321404967376 -142.3569791761476 -7.417440831431767
-2.5261901911297215 -138.88123593497895 -7.493969883488833
-0.9650727141263828 -124.14588447934179 -7.3948166378379785
-1.7338323388014094 -126.47194130917659 -7.397889510365534
-1.6146844834243588 -126.03865618242635 -7.398058826836138
-1.553713689212089 -125.91513219752093 -7.397384694714418
-1.3709410776307975 -125.18328383018182 -7.398047746374872
-1.767664645628119 -126.583194871699 -7.397925636406635
-1.6799440658794609 -126.11671449122193 -7.399185117532881
-1.5282896872877718 -125.18648867896655 -7.402233763858713
-1.2896873293994124 -124.24895931574483 -7.402904718094544
-1.7410348776001772 -126.0234462875653 -7.4015025421271
-1.4089107552859046 -124.1606778614067 -7.406792632745162
-1.5184219673689499 -124.18877319764094 -7.409523244755349
-2.2035044520517593 -126.5700723751071 -7.40925974779474
-2.1656191109377207 -126.19147873689887 -7.411217545788161
-2.1218904297786225 -126.15245160650282 -7.410400882132117
-2.110209714311816 -125.89586911730791 -7.412072215604636
-2.0893508060935044 -125.69074044797439 -7.413113106192286
-2.004387351013528 -125.17813740698773 -7.414840309184698
-2.4001169113850334 -126.57095116816595 -7.414231867523462
-2.377170589111636 -126.42282982645612 -7.41481089521409
-2.478683619528432 -126.4062557135409 -7.417496268231126
-2.356044343815768 -125.3084303494422 -7.422908668604061
-3.9699976132924566 -131.8754653337672 -7.405489138775676
-3.948886011342163 -131.80887012442145 -7.405709079617842
-2.652434663771257 -126.13229592337541 -7.423981214192216
-4.034718292445976 -131.930335123159 -7.406246936513659
-4.194808480696221 -132.0336186758284 -7.408387999798617
-4.133458755659604 -131.94607370863454 -7.408038972536851
-3.181860553011862 -127.59757201208222 -7.425218664892177
-3.1379398208470706 -127.5782211117095 -7.424320422246847
-2.794613714784679 -125.80221663240964 -7.430112257703287
-4.272409319563553 -131.9522166807746 -7.41066635988091
-4.224341509638421 -131.9070362490134 -7.410178430460668
-2.870292531181698 -125.68254700314368 -7.432922289328769
-2.7567930495263746 -125.15996706277002 -7.43419110844276
-4.335475527822971 -131.9686178334485 -7.411736435150323
-4.373601702105007 -131.89705132357594 -7.413156429066634
-2.92855682481565 -125.65346976896643 -7.434598832181734
-4.554998034881295 -132.42065018792377 -7.411297087342801
-4.552492900390915 -132.36342884966064 -7.411820849129046
-4.495113241704216 -132.2747597008109 -7.411684669857557
-4.414292402677777 -131.95970688370596 -7.413312307650209
-4.4932857194867974 -131.88432542838137 -7.41558483020948
-3.1344395309105777 -125.91355627193562 -7.437581594454032
-4.627560318324223 -132.36135662555188 -7.413222096292026
-4.598026786907525 -132.22333564746398 -7.414121097707064
-4.585729056294233 -132.11696978819617 -7.414958424595494
-3.0733221720602315 -125.47705212850626 -7.439557747809686
-3.080796016312834 -125.17626492776046 -7.442111510557629
-4.604519619129114 -131.8862978177869 -7.417648898030563
-4.641676230894416 -131.6828331837122 -7.420393745910005
-3.779372362957469 -128.08276049601 -7.435062744517026
-3.352807429655625 -126.1114849344981 -7.4412874203477966
-3.3094745508423284 -125.83217665483822 -7.44248350980352
-3.418719144377779 -126.04297847000227 -7.443408015056279
-3.363446257443352 -125.8365066105659 -7.4437400402878104
-3.240383952286463 -125.187544731395 -7.445942524797221
-3.8324679918085307 -127.45668775484931 -7.441507300059158
-3.6497730566104707 -126.34293887431238 -7.446457522142277
-3.518981058393348 -125.83694602956143 -7.44747430205839
-3.3311885334982625 -125.26898867199738 -7.447504746721891
-3.955308022476683 -127.67479705943099 -7.442463759929437
-3.9100954278618483 -127.35702320002609 -7.444124775120148
-3.771256390647313 -126.46280754304415 -7.448335277941318
-3.710838074425995 -126.4027807386363 -7.447408732962464
-3.6347641283619905 -126.20463863059605 -7.447245084120691
-3.6161180772480654 -126.08613672002078 -7.447757191037173
-3.8651741589520463 -126.68034319482142 -7.4487096377920095
-3.8373994288674758 -126.59135856943774 -7.448814012985569
-3.8932831704614075 -126.21024462551883 -7.4532395788096
-4.04100585127824 -126.26077211786159 -7.456257307629901
-4.354535606714121 -127.5016085048018 -7.452870470614257
-4.252135633500798 -126.98038464543528 -7.455022230640414
-4.205561229985826 -125.87759474144212 -7.463210819556798
-4.3696855112506805 -126.03378843542251 -7.465651734493129
-4.2637048373127415 -125.85944058283977 -7.464708338494847
-17.671099749691457 -184.3318284698641 -7.40194954470591
-6.098893841135461 -133.2508370660853 -7.427701560280955
-4.725927401965305 -127.02828405396097 -7.4651165276235565
-17.958762418555853 -185.5130204543292 -7.400103589503183
-4.711554545048309 -126.70160922612988 -7.467622278013761
-17.130172614477313 -181.28069494018143 -7.413814353121611
-4.693923337135526 -126.20597662481337 -7.471496409381902
-4.6696116462646815 -125.94493523661862 -7.473177634309963
-17.128750464172484 -180.8717002049767 -7.417900968967468
-5.040747560713325 -127.2943031022446 -7.469570681382056
-17.222657008950772 -180.69753154545222 -7.422651928412937
-14.358811684736748 -167.84191261181667 -7.455481836553826
-4.774588645474057 -125.7984945909742 -7.476754151309931
-5.382029191848196 -127.70779799489344 -7.472996926487387
-5.133774990712201 -126.71267637019893 -7.476701112189792
-5.088841462235154 -126.46480577761858 -7.477901986190847
-5.04417955320596 -126.2949036972202 -7.4784178484089034
-17.4106179444101 -180.75232531583958 -7.428521387061346
-14.076724987273332 -165.95440483247057 -7.465566671876895
-5.3007750920642165 -127.02332557868617 -7.47747968604364
-5.068695296379498 -125.92533694728853 -7.48216285745144
-5.356496375526082 -126.75262971380306 -7.481102739659194
-5.2239144166650044 -126.25065511685213 -7.482716967097757
-5.2019646796891195 -126.0120061741228 -7.484333372384183
-16.81790609063872 -177.2289439709127 -7.4437121374878705
-15.405818795470598 -170.9125245372935 -7.459756716465858
-15.769170679931781 -171.91117661418406 -7.462045031078355
-15.529905986196136 -170.89508781031108 -7.464310884577065
-15.292091066435933 -169.90327662843146 -7.466403409624431
-7.710884270771799 -136.24743806992532 -7.403503646187662
-7.682962455140775 -136.17600723186624 -7.404466714975412
-5.583753183725498 -126.87190344023958 -7.48478424838993
-5.546734080505092 -126.8304134951174 -7.484408772989743
-5.50397371750996 -126.65698466359213 -7.4850729597472485
-15.57759366129931 -170.72302607161188 -7.467662896862013
-15.2306695704934 -169.27994688037415 -7.4707979541546425
-7.853463143341747 -136.4129278186101 -7.402084456573578
-7.773478351808274 -136.33412324521288 -7.402637443420575
-15.294343060837111 -169.15404917007106 -7.474252877154616
-15.149728638847062 -168.3977461412217 -7.477191396285789
-7.924131413199068 -136.44763462537622 -7.402207483905481
-7.822221507950197 -136.05338079925428 -7.40823188116973
-5.617912355177697 -125.96555345325226 -7.493652468248994
-15.360777472684548 -169.0353504376921 -7.477907703899155
-15.244388599648536 -168.33787093248992 -7.481221789878201
-7.898499811330987 -135.97896503566156 -7.410390480434273
-15.158953121356092 -167.71965607437792 -7.48480648920106
-15.178468582551215 -167.53313874160247 -7.48740811420935
-15.182433365721767 -167.31826911769127 -7.489933837370775
-15.071832615284094 -166.67852131764562 -7.492916195322136
-8.351739576879297 -136.69924805930478 -7.402093228658586
-8.330126376044563 -136.6571855777406 -7.402659026872382
-8.398800227023553 -136.7140800793195 -7.402285067142738
-8.33446371926398 -136.60518388502084 -7.403688980064496
-8.508417158937128 -136.72156426617852 -7.4033100677221775
-8.644773522716294 -136.82670738288547 -7.402682312225369
-8.594986356901773 -136.77523583741043 -7.403182556787202
-8.229988353815557 -135.0914995493984 -7.429469138153209
-8.697335432994137 -136.84148523848188 -7.402964658941924
-9.158414351936361 -136.18691235965233 -7.420473497241504
-9.132397568108841 -136.12352950303944 -7.421405876836661
-9.110204488186275 -136.0564442808951 -7.422409908597647
-9.171663859514902 -136.2180913059166 -7.420050179535605
-9.13038092188184 -136.00855942991913 -7.423549542415413
-9.119750486865739 -135.9559120686199 -7.424401078037777
-10.461569518423953 -136.22114996541748 -7.43358508408384
-10.622692936464437 -136.20149964587787 -7.435679464434189
-17.276325374499258 -140.53540815973992 -7.397035484566735
-17.3997819324217 -140.6273926564033 -7.395715557826799
-17.339748131150188 -140.47651432621433 -7.399133837316961
-17.612882290916396 -140.4213274675493 -7.403182639573143
-17.613943119393305 -140.3583254477713 -7.404798516984756
-17.71578578958243 -140.0499786139223 -7.413857706875912
-18.330315757566684 -140.94320803913342 -7.395980217953216
-18.27241399430509 -138.8388792610305 -7.449744656278663
-18.407189581210627 -138.50884670166468 -7.459199683625106
-18.447208057106685 -138.438909640081 -7.46123159755729
-18.854190146156846 -139.85038523769177 -7.4295679500578276
-18.841192801983492 -139.7850852450928 -7.431184481240446
-18.520142408671433 -138.56252329031653 -7.4588860908150885
-18.90002219008887 -139.71981431168814 -7.433356066016896
-18.57790282441854 -138.2298560588656 -7.467598140079378
-19.155220877408716 -140.24869729661498 -7.42201882409159
-19.111804740064898 -140.11504188070677 -7.425104400593598
-19.02855848983142 -139.65270528658388 -7.436330968186194
-19.002916007218623 -139.58693068281204 -7.437719073645498
-19.187598594451313 -140.18378059931936 -7.424075163694117
-19.155442289727606 -139.9800551517388 -7.429016826190511
-19.09295741706652 -139.5181104466549 -7.440369205397201
-18.7647499644497 -138.04682980879113 -7.473752629459678
-18.697420497580627 -137.95764017719065 -7.475291024004596
-19.159582186432647 -139.41579294736084 -7.443564685610893
-18.863008672693553 -138.26755298185475 -7.469304462647649
-19.20770476516272 -139.17774968265613 -7.450005124312704
-19.32818947396961 -139.27499696687943 -7.448704927754832
-19.281436328320936 -139.07254437959506 -7.453365160982782
-19.284951424285488 -138.97384488051387 -7.455899178769002
-19.088474127173672 -138.11142730570023 -7.4752082027497755
-19.346798490257257 -138.90251001512075 -7.4582016423781115
-19.091053887608982 -137.84522400086453 -7.481639343833445
-19.14260536348022 -137.77156290987057 -7.48394177232402
-19.090513873740186 -137.70854295626418 -7.4848980957876385
-19.441630966623247 -138.62108997199587 -7.466064874149349
-19.48056772987602 -138.68650387909105 -7.464868854969986
-19.526059746433205 -138.54646692708567 -7.468752179051162
-19.351621892534446 -137.6060220168127 -7.489855999783371
6.925745569915992 -135.33342647429018 -7.299243710490655
6.9020343130560144 -135.27847766711807 -7.301690973467069
5.876463110683445 -139.1798617363334 -7.396020178642746
6.779149290329902 -135.46962274143985 -7.296989650308173
5.7512835737282755 -139.3729601653046 -7.387087969877469
5.779332803957212 -139.29850782054126 -7.390139545622588
5.816518935094522 -139.210242161714 -7.393860089398859
5.787312610019498 -139.13191562630797 -7.396004467873796
6.679630681428207 -135.36569140400798 -7.302401035066605
6.693528667309228 -135.28556978357005 -7.30504549930442
5.637049592097128 -139.45781436783233 -7.382038855330732
5.707637131017226 -139.34856329418474 -7.387056437984151
5.68928691997217 -139.25057844065472 -7.3899386628793815
5.699497210851606 -139.10599262848456 -7.395213196047639
6.580332416596146 -135.40217244365797 -7.3029002306975155
6.584115321976513 -135.2578547137984 -7.308045779741382
6.718902152152271 -134.63622090636318 -7.328346043219727
5.519121935206641 -139.43268111206626 -7.380519101419705
5.545559345095927 -139.21310640562615 -7.388471056646941
5.602022088244905 -139.04178871066816 -7.395626654748826
6.399919177293063 -135.46324020893567 -7.3038807658995255
6.629294461509936 -134.6500343040703 -7.329441649256839
5.449507413715263 -139.3647771093497 -7.381383984870298
6.275176612361079 -135.51965763185186 -7.303992275096261
6.336193577241567 -135.3038929736184 -7.310794897440339
6.454570332970257 -134.73697955003186 -7.329399552580646
5.321040668760462 -139.47627055837813 -7.375232237932625
6.264680493939654 -135.4616802384659 -7.306281712374044
6.263460329976217 -135.4116658536144 -7.3081477107525545
6.252985023904216 -135.3152805014891 -7.311842049579438
6.296670548765395 -135.19375505004615 -7.3155230439998045
6.30567915944687 -135.0794417371421 -7.319493376106103
6.363248131670054 -134.9627980465269 -7.322738367197991
6.389323338836445 -134.71533537032542 -7.331441161684611
6.365123829300535 -134.65915712180762 -7.333932169852991
5.197980583955394 -139.34446938729027 -7.377173000227105
6.214355661482643 -135.29308172214797 -7.3133183072119285
6.202490090725422 -135.23251094635066 -7.315746672024451
5.1334501144181175 -139.3724753165367 -7.374914729233836
5.1417462611833455 -139.16827751477203 -7.382213241872808
6.131067084367161 -135.1845821013952 -7.3188585007033025
6.2323833832156845 -134.65872511858072 -7.3364709360263225
6.232190349847778 -134.6010505797284 -7.3385963609106035
5.126759910293675 -139.0045284116994 -7.387869873482227
6.113950798765815 -134.59041106631133 -7.34120627439205
6.303572633503775 -133.7264763535629 -7.370231959738598
4.8090247158178885 -139.92488497872012 -7.351403878791816
4.911363740629742 -139.29966485515646 -7.373065587206867
4.981217094653529 -139.10820490731942 -7.381255118055719
5.9871277901198106 -134.7618781887336 -7.337135128885763
5.970679775445542 -134.64547261508318 -7.341838824629792
6.080918528799915 -134.48768486282896 -7.3457202587261055
6.105943061645109 -134.30406005128725 -7.352165915315803
6.120253762150569 -134.24959345067168 -7.35389357059764
6.17131246759657 -133.94740787143365 -7.364375582705828
4.4331611896383265 -140.9159314910712 -7.321997208147584
4.533181749850137 -140.56481819478176 -7.33029193068469
4.563404102214315 -140.48033659004008 -7.332679935024141
4.594638008111408 -140.34776844025322 -7.336230577739006
4.718488245879213 -139.96164090620874 -7.348513438694574
5.974407977519059 -134.50838615753398 -7.346957824665277
5.971275293582366 -134.23033288976384 -7.357518006529607
4.519986486705121 -140.48490089090882 -7.3317297224569495
4.479253714810994 -140.37305812843923 -7.333333365492826
4.537683104081007 -140.26593215071057 -7.33704411355201
4.646998347431498 -139.6640800190495 -7.355844696995758
5.863268103175262 -134.574181862409 -7.346528466369737
4.369832643756769 -140.4269932508821 -7.329936243029758
4.494396605929431 -139.7966039173108 -7.348750496137972
4.5665064125708446 -139.7229809420503 -7.352432078689103
4.185814157511137 -140.9016679758591 -7.317459069323553
4.291914378427414 -140.45166103634298 -7.32784135582274
4.271038175013201 -140.40514343482573 -7.328469715061895
4.437438640698821 -139.86309159838507 -7.345683842565877
3.8809165227942386 -141.60967133721277 -7.331602418196994
4.196546733711147 -140.37837519822784 -7.327551198019188
4.216906202166155 -140.255887861474 -7.330785323850537
4.21880521192772 -140.21972653469155 -7.33171569043739
4.23455335281146 -140.06226624215597 -7.336039211438182
4.282990179998645 -140.01289095560995 -7.338347431557739
4.316202432378372 -139.9153500836092 -7.341706557789362
4.337676403111014 -139.83839492406935 -7.3443963581421015
5.346163299018458 -135.13363084572586 -7.335253783212458
5.573462665529045 -134.22518690024933 -7.365403228713665
4.111910703844482 -140.30982982665432 -7.327430986243242
4.122778182596909 -140.28870316678496 -7.328126833340682
4.138458945164422 -140.16760672464324 -7.331407798069188
4.189632675381492 -140.10982360388337 -7.333908990446541
4.202793297524212 -139.89161324171633 -7.340101841916679
5.127734570301287 -135.6741478978739 -7.319136206406195
5.457304437837616 -134.1445590156459 -7.370852075163367
5.515864247472944 -134.01678179651176 -7.374589106520524
5.565845947092258 -133.89768055353096 -7.378168330643654
5.588648625226272 -133.80556972408112 -7.381304376064619
5.590058931239631 -133.64741865776807 -7.387435288204544
4.046687787329599 -140.33515323111158 -7.32553683499284
4.066117582537128 -140.1560370763412 -7.330211531873241
4.087425142382284 -140.03984145122197 -7.333703461827772
5.23628430113333 -134.7357934451718 -7.352452003580388
5.263321277346623 -134.65066230178465 -7.355203702723259
5.402353810695097 -133.95060454119536 -7.379443658018838
5.422024388960603 -133.88550613729066 -7.381519215376075
5.562238208160742 -133.6340523966991 -7.388457881566277
3.710458202767666 -141.3798824475759 -7.329742362517929
3.6860159502526955 -141.1044669744815 -7.3053407507785195
3.9158461773581767 -140.46359189415702 -7.320104085174576
4.275478018016898 -138.441320866563 -7.395937253531884
5.235486732313945 -134.62122726733134 -7.356897342560409
5.212322998129311 -134.54990628422374 -7.360063429633449
5.382811798923966 -133.66306286414763 -7.3909637995674595
5.407173402897692 -133.58710448454576 -7.393490129705331
3.611287752448118 -141.01734701182454 -7.304960676115099
3.665188170136522 -140.79171426191363 -7.309131532714102
3.8501373684789906 -139.92450994600864 -7.33210044622275
5.062559166384033 -134.61556185591766 -7.360468026245112
5.148307285253375 -134.56133702636433 -7.3609119738103095
5.348240581569126 -133.61110403906082 -7.393697117912362
3.4682561673746033 -141.3354476142207 -7.323993367627199
3.4810973703376487 -141.24699098867785 -7.325403397722869
3.518757447632203 -140.93029457794268 -7.304373206632643
3.580160576082122 -140.8535167688186 -7.306570722757231
4.09862637240099 -138.49428397744578 -7.390646914602557
5.23626370629915 -133.6321110582048 -7.395193072512965
3.386317205858182 -141.2060637268278 -7.323424128566479
3.4118280843814124 -141.12797144011128 -7.315019612962372
3.394385749385196 -140.98223576693616 -7.301394783190369
3.4452937844537836 -140.9634937822826 -7.302576874220284
3.4841041860483677 -140.80269592027085 -7.30550462374389
3.5141115786917396 -140.70802096976988 -7.307577655633497
3.5169300648607167 -140.6431817147346 -7.308755538797772
3.5502418175328834 -140.44420680774724 -7.313182531372167
5.093412581354912 -133.69715369195706 -7.395558878010473
3.204059918984045 -141.47278747780013 -7.3159572550961585
3.2940108236545744 -141.26487588363813 -7.320283972598844
3.364470841860023 -141.00662155902438 -7.300548596924735
3.422344905346997 -140.6133662072374 -7.307398340506384
3.4266896189983704 -140.52356860402327 -7.309157711233202
3.943474885859391 -138.37832788137757 -7.393526175924054
4.552111337101762 -135.7233288572954 -7.3281415461573625
4.800992880725007 -134.40167998068662 -7.374042784267808
3.0726347952012665 -141.67932788797188 -7.311531239241533
3.1327823803016646 -141.390092301302 -7.314904625248789
3.361118283875954 -140.58071804501287 -7.306812137220433
3.3554788908626336 -140.5384575382461 -7.307466310758261
3.348030100349404 -140.4376796768091 -7.309312901812191
3.8180912132150886 -138.38712204092866 -7.391197050916318
3.131066881816336 -141.22452385415633 -7.31652392281887
3.1425568328981828 -141.0299951896038 -7.296296377622199
4.587241714487551 -134.69489629264564 -7.366908214235818
4.640065789381001 -134.43203895737966 -7.376132547349747
3.030385741254255 -140.79570954903664 -7.297002912551215
4.506805459554673 -134.1445863860539 -7.390133968597484
3.0962587002720388 -138.5688709952874 -7.3713827726108185
2.309532550770034 -140.36569637602264 -7.370803670712608
2.6818170513194106 -138.69443112285157 -7.359131818895487
2.290411862360273 -140.3691423004548 -7.369716813668974
2.0011481107081344 -140.4952009283606 -7.352430874817728
1.9267602867111446 -140.49088893502264 -7.348495431934695
1.8035259769894392 -140.52059928386365 -7.341692509507542
1.6871466454420119 -140.54849532855232 -7.335430604478176
0.9814844165822156 -142.86340593560914 -7.303822213136875
1.2910223112829264 -139.00234518303972 -7.385391736744673
0.07088386697979837 -138.50188927188694 -7.370751594084206
0.10623705910373364 -138.46531025395146 -7.372666644104007
-1.0282777298941594 -142.99902446509952 -7.361188468406953
0.05063548047037214 -138.49042224086352 -7.372174277932501
-1.121351075347848 -143.03498821765717 -7.366197783190788
-1.1353539907075814 -142.99730600750877 -7.365963581253468
-0.1527975277928661 -138.56275133092436 -7.318327843393591
-0.08258408652014687 -138.42537577115723 -7.381019173117823
-1.1903591322031362 -142.95948560228462 -7.367634816208915
-0.1809562545948873 -138.54313806807363 -7.3475675644156535
-1.4347527687823067 -143.3771917577828 -7.388449404901507
-1.2578644278581612 -142.8733175403132 -7.368909782186511
-0.2815341947178559 -138.46022744072064 -7.355584643107004
-1.5066875469536574 -143.35634364938826 -7.391451089955117
-1.5252693888621285 -143.33684496282856 -7.39192596048701
-1.4882326158447057 -143.19975302064717 -7.387167273755496
-1.2674587959694756 -142.3161847573862 -7.357757170122334
-1.2801394744984131 -142.17377030207481 -7.355684198170469
-0.40162687225079174 -138.63290336770908 -7.376430473565525
-1.5665652074147791 -143.3085522962628 -7.393350090038399
-1.5516935936407323 -143.15342006208516 -7.389346015222011
-1.2977828276348324 -142.16185175628726 -7.356413084692917
-1.284255757816581 -142.1560934547556 -7.355580057471516
-1.4058266713200487 -141.9736773684285 -7.35921373477305
-1.421681868965295 -141.90677675238578 -7.359079656260206
-1.7484361797835146 -142.8722075639805 -7.394104189646633
-1.5481889342687047 -142.15280277969325 -7.370358600763249
-1.4891448120664659 -142.00863090508244 -7.364631107322529
-1.4367452127871823 -141.89379084960552 -7.359776572363265
-1.4086318974631131 -141.63465676849688 -7.354431870655525
-1.4046200493495704 -141.5701810352272 -7.353380292660569
-1.6498118116904297 -142.36268391111534 -7.379638686173929
-1.7848277854755819 -142.46368710191504 -7.3890895234899086
-1.728668018382087 -142.1232322515467 -7.380627878590875
2.211328041183679 -124.63526072407146 -7.296051043625794
-1.7982853542385366 -141.7470630045543 -7.3805324966288035
2.1584950651899093 -124.61966864327937 -7.2979463247442204
-1.8739205726278898 -141.82990920989533 -7.386257499265214
-1.820234200816233 -141.74646674387515 -7.353394458437727
-1.8171555784962845 -141.71939400489515 -7.2962350255744655
2.049038770342179 -124.6148456616605 -7.301517401882262
2.0087365124814287 -124.50068317476445 -7.3036303222679715
-2.010504847894587 -141.87258182732256 -7.34843506696688
1.8898656619236458 -124.54624182080559 -7.307093904961132
1.9529607343534836 -124.49354592378738 -7.305536678782169
-2.053721089537097 -141.90193896079123 -7.303034658354524
-2.0391808781100513 -141.85802035420213 -7.303089828019403
0.01882911391304669 -132.56890654208203 -7.304243156156906
1.848288121536772 -124.44249908918293 -7.309275482061747
1.767895214678723 -124.43121396651439 -7.311892435935966
1.691375071556049 -124.37043228453402 -7.314758908822207
1.5595298019189496 -124.30048617996654 -7.319487879959751
1.1578251205076802 -125.51144664669367 -7.322866520435209
1.1230426870294756 -125.29404747270604 -7.325642058510241
1.3428205917665106 -124.55552114703973 -7.324330112174047
1.4215799810188026 -124.28738691565131 -7.323951826430344
0.8185416286817918 -126.06527009757454 -7.329166706486851
0.8759083477633034 -125.9324596153559 -7.328453570064388
0.9524223403089062 -125.52055421508356 -7.329157089315213
1.0739264323823108 -125.25432766803371 -7.327413532191207
1.309646058427759 -124.2957401720008 -7.327385399284781
1.0423792131540146 -124.95529738177213 -7.330695252415906
-6.2597997294030545 -156.380934900635 -7.296095588690145
0.7656190220121372 -125.14634882012365 -7.33772791006194
0.6691765377475054 -124.99616715836684 -7.3417636872560275
0.32199395572664014 -126.31295057771656 -7.3421678293873205
0.5878790664057821 -125.00075906427232 -7.344170991650744
0.3869098143553238 -125.68638217362343 -7.344958856788441
0.5104474669657026 -124.96785909798645 -7.346704088051184
0.4605647106097519 -124.91225198941763 -7.348576165508519
0.24498744232480693 -125.12718225590626 -7.353267076110604
0.13984366804283216 -125.19378563846679 -7.355818127017783
0.31131720759234427 -124.41627091856863 -7.356655477655747
-0.04108378199979719 -125.56911077627313 -7.3582300571735315
-1.453866462082687 -131.55418372027444 -7.351598688606903
-1.4390751527781387 -131.45443497605072 -7.351999849125467
-0.38504574053609886 -126.78636230108867 -7.358913052017938
-0.4335470388468645 -126.68982375055364 -7.360994328893063
-0.14164033047885186 -125.47569261780691 -7.361804693131036
0.09045055300148089 -124.74335137488262 -7.360617260959134
0.20496526595559342 -124.17045678348819 -7.361581904959241
-0.26883719858393285 -125.59543553497956 -7.364526365249001
-0.21938522049038298 -125.43057483071996 -7.364360376909892
-0.531579695429988 -126.57921217229918 -7.364567167705446
-0.37292955617613377 -125.4876552798004 -7.36827551543718
-0.32558159734152614 -125.32047226878615 -7.368193020907552
-0.7655979491119955 -126.6423617354212 -7.370590351953179
-0.7273237653330009 -126.45604502118897 -7.370931071053129
-0.9072958404492888 -126.62307261767751 -7.374626219598603
-0.8787630104555941 -126.34861702274543 -7.375909290812267
-0.9666914285144484 -126.45069574897212 -7.3775468906761565
-0.6897085439032742 -125.20873347728009 -7.379233177306452
-1.0636555241619519 -126.43579840706941 -7.38029989786398
-1.0205775664848566 -126.37040594217724 -7.379619862664213
-1.3040398514206906 -126.92064497817807 -7.383113212296131
-0.5964307203960751 -123.45554121820194 -7.389758776880942
-0.8067960957519598 -123.9048481778919 -7.392258378016283
-0.7021430918823484 -123.70384087529997 -7.3908544999997074
-7.5333689705353875 -153.25009077723035 -7.3714371091016835
-1.2393819705555507 -125.49694655891702 -7.3921356409352965
-1.4837249016292517 -126.10269188821248 -7.394102013403022
-7.6606513086516 -152.55214785088086 -7.383678009413133
-3.3732772213292366 -131.94734638489922 -7.392635573100037
-7.408587682638491 -140.51170104587277 -7.305651498967948
-16.614881554955833 -143.63414427063668 -7.303663625297383
-16.829263897367476 -144.01374248864622 -7.29443462372191
-16.797828907027366 -143.73456891783212 -7.302504491271959
-16.84038009695994 -143.8022011526112 -7.30084815584963
-16.602878089191254 -142.55351481292482 -7.335064443261615
-16.978594699717537 -143.95367410261608 -7.297667108926674
