ply
format ascii 1.0
element vertex 843
property float x
property float y
property float z
end_header
-11.090604601087204 5.782641220221048 1.0395377586834333
-11.063255171972227 5.8867187571598 1.049498117408789
-11.042271315579594 5.95055835079909 1.0557303079581402
-11.170519541803 5.767666037274395 1.0362902714365503
-11.313226034448006 5.815051873664892 1.03712299444218
-13.602823675229605 1.2308816653177157 1.0458726456410619
-13.620542111461868 1.3024900489428468 1.0534857508797437
-13.63791478293816 1.3742628203288536 1.0609949809933072
-13.909215809101504 1.0625101191625177 1.0338498842952997
-14.018227962795512 1.0665647767172821 1.0361150279193476
-14.133539933295397 1.1007826930460975 1.041408908957162
-14.649889077517274 0.9826426181062438 1.039094568132088
-14.713180348942029 0.9740294502975209 1.0393608773319056
-15.150114960723247 1.1189586614013685 1.0617732955112993
-15.775397461020095 1.1399675929086985 1.0761051563028616
-15.776060620138955 1.2589774425128155 1.0874295629471775
-15.770119026089294 1.3461614565833155 1.095675567688443
-15.751113589075587 1.4235954590583475 1.1027572611046947
-15.795813455331157 1.5157757713603583 1.1123976715733581
-16.080696103532542 0.5843862667515944 1.0312450103842965
-16.21561910725513 0.5511739382201526 1.0314080691490841
-16.104228457058763 0.6563533128446553 1.0382799476358537
-16.157926756432765 0.7756035882606289 1.0503506230590818
-16.269772711426917 0.5271868706357372 1.030517105218513
-16.246299881016533 0.6274000146414691 1.038965334785494
-16.159827786815395 1.3408780843191348 1.103083152877332
-16.277607575323294 1.3588421264741797 1.107116921796539
-16.440865006118813 1.1302079341520939 1.0892089250086925
-16.6957150324693 0.4327638188244105 1.0324213078855493
-16.52021128081681 1.0894757269437454 1.087205320673817
-16.54069540362653 1.4100969269851138 1.117422974642741
-16.487554533563205 1.436057226970961 1.118848968561024
-16.61911680838974 1.3377878028977328 1.1123138859214456
-16.58523072325917 1.3787017859415425 1.115514509518238
-16.88384094336589 0.3026315212430646 1.025722280912543
-19.965835247191407 -13.140706814181474 1.0823493435169187
-19.94502288323153 -13.068592896593644 1.0809478760513658
-20.40371721702179 -14.46286613383204 1.1153040437461452
-15.947303388462547 7.176250580681238 1.062838353591175
-20.453476736873146 -14.382147290970845 1.1176191671415452
-16.248781631101206 7.233524304858474 1.062697746468538
-16.729029563017722 7.990097661317339 1.1183311705439607
-19.421848674721886 -0.2660369476051665 1.0479806789112016
-19.399120523100358 -0.213066863284066 1.0515332712333907
-19.53291887325757 -0.2824325721727945 1.0499591650984126
-19.65920975990644 -0.356656257635076 1.047856898017712
-19.796166377421955 -0.49134524384152023 1.0414391209400784
-19.756508294409045 -0.4121676698570651 1.0464042000652722
-19.900686492617663 -0.5756984981217395 1.0380815276058937
-19.83474675816214 -0.5394299043228514 1.038916757278825
-20.037560399761784 -0.7749394726246628 1.027070297518062
-20.002150173562214 -0.6933122407202381 1.0321897915243938
-19.936614757036825 -0.6236125313243122 1.0355268139938256
-20.116482091503116 -0.8089631465325553 1.0269449536344721
-20.253524808969058 -0.8221277114063712 1.030122721792695
-20.380425270835552 -0.9014500660656486 1.0281068359236327
-20.347455160626954 -0.8518634513675574 1.0308148993474606
9.795993250849172 -23.485088392637394 1.1939716162950214
11.121981198231069 10.810564870970456 1.194581596860061
10.427756966763996 10.857913611437755 1.1693813432428575
10.21307983743549 10.356016898573351 1.1463284648240206
10.170375576126702 10.425258122905454 1.146674829362523
10.310082833455438 10.964415619636444 1.1679659825742081
4.496932111190146 -16.077528990874768 1.222189865717592
4.516398147447591 -16.03469785939582 1.223421429374793
4.464626023353638 -15.883453798867334 1.2146995106583658
4.490056593909143 -15.570267154175285 1.2114579428134105
4.519547090919184 -15.47626193339469 1.213000603769729
4.572404703385891 -15.351852128219464 1.2166477218184097
4.692114593973855 -14.832136371589092 1.221659944064369
4.42672844875962 -15.748831876584209 1.2078646539061044
4.450609113043493 -15.589572451516306 1.207402055264916
4.475218325582814 -15.314427445487148 1.2050904574344028
4.472723667091396 -15.194437149214084 1.202679026174493
4.586159861001617 -14.682076285276823 1.2071668339304142
4.335105790346285 -15.5603521244506 1.194034894093877
4.353127136350242 -15.369465645704691 1.1923981551097167
4.358485115129653 -14.748097441024193 1.1821839988642266
4.406179792467993 -14.65232589005038 1.186086368013887
4.251724673978698 -14.728124879399427 1.1696970495958876
5.814384762842693 -4.814577440261463 1.1994801898942011
5.745805807515209 -4.758189157116281 1.1956030819514192
6.123682943940219 1.8292292620801316 1.2030593359777841
6.204279317096571 1.9592145538200434 1.2152315555464595
6.209698379362303 2.1454289328101517 1.2256853331419515
6.030074167587006 1.6898285900648755 1.1896116089584183
6.106668975933079 1.9644058546993328 1.2093550737106702
5.899567217643748 1.519586995566323 1.1721121409170159
5.758622526655456 1.343071195752632 1.153666476503611
5.660815262279231 1.2078468685279953 1.1401386157164237
3.080785332555058 -5.7324243994275985 1.1315623693332122
3.1245422483671605 -5.441223267114075 1.1546027098351783
3.7330907465261136 -1.9643691328350394 1.1726260774287167
3.734877403833117 -1.8680526845959449 1.179649878656081
3.797564163859331 -1.5955905095282592 1.205088594415892
3.5863692548843353 -2.1105624974236097 1.148396215024288
3.7100420525811098 -1.80688560477949 1.1816771344997379
3.716313403478374 -1.6095997081149997 1.1964900268036038
3.6170963864996866 -1.6364084975407236 1.1852602297028034
2.307397091306565 -6.710380061856239 1.204510249097014
3.3483360627916943 -2.000885946653013 1.1337977901074352
2.1664824211055747 -6.318708003054356 1.1997550194129742
2.6202300634889797 -3.668238821903871 1.2128327820552334
1.1216491343761765 -10.779355232087847 1.2203704070246024
1.1212450609901454 -10.750215076481373 1.2188112948493377
2.531828038717223 -3.8498267053430024 1.186814967267667
1.411294224604955 -8.730090096788166 1.210646400011666
1.467059984623707 -8.652311370521751 1.2213096665861534
1.433643414304111 -8.535375430406537 1.2140170251877562
1.9681920569143871 -6.119989294793239 1.1766411044880127
2.433918412053507 -3.8383453822842357 1.1750061087326926
1.1149441115715577 -9.56799736325978 1.1687698038730119
1.1181135447014565 -9.523135627435554 1.1680435383194645
1.3800786257147788 -8.54422147208936 1.2032452459261531
1.3872747272025698 -8.333500893342958 1.2044530182221498
1.3935013304455444 -8.173741727849158 1.2063047792142074
1.4279160438613339 -8.151823958335655 1.2134839072077706
1.877563458424257 -6.108855339384676 1.1616502787935086
2.251035846322467 -4.1307278559278675 1.1280999588070637
2.3261603899476127 -4.032786958455667 1.145570183501995
2.326294339855915 -3.966754368724072 1.1507874336526054
2.347155141276022 -3.821729078036594 1.165091310052898
0.8844123459667586 -10.306019650453296 1.1545444292606186
1.070857509025565 -9.671963615779944 1.1636493271820054
1.0368056113012907 -9.583389994458653 1.1543530548314698
1.0356729122547321 -9.502833217817585 1.15165666074531
1.3064246504642592 -8.45374730179212 1.1880519044471884
1.318792245642629 -8.300692780399938 1.1905568871605599
1.3495197536777397 -8.22253107351369 1.1970691043515438
1.380770684793485 -8.089621532376144 1.2042602970975491
1.3615930602881443 -8.02464068792123 1.200897965871397
1.7936985239953227 -6.014434414818339 1.152832881064502
0.775112869107704 -10.593865036977732 1.1494845716030446
0.9121403254733655 -9.526763370159104 1.1288346112515497
0.938751057712726 -9.407105572043797 1.1303092055806012
1.0022516988664636 -9.349985459426502 1.1409485203992773
0.9896073612605321 -9.29940659559837 1.1371670091976456
1.1756961006839948 -8.383200275501618 1.1614449213081557
1.2147776998191695 -8.050074080232813 1.1705127214472035
1.2940084847913118 -7.9318751185010825 1.1879530986775706
1.3147766661424978 -7.684430508466413 1.1960135181196465
1.3811865861906423 -7.26875510650976 1.220429369363181
1.7348350360817077 -5.773403291927268 1.1579801859472059
0.9283085539477192 -9.35771390663085 1.1269120547488412
1.0651174727423252 -8.320236677946417 1.1389538073901346
1.126192070314926 -8.298691915197749 1.1513634157410921
1.2271291002252793 -7.955673990796855 1.1739120742693794
1.1815348731774673 -7.878801509306724 1.1654153420204918
1.1807951109423103 -7.8027861407490935 1.1662978680036096
1.2324682555334245 -7.65205109358686 1.179569279932968
1.3776376968343067 -7.185927690352121 1.222422202550692
1.0475898343635182 -8.295566536896112 1.1353714411957678
1.0915471390223903 -7.68463121012023 1.1497398517205606
1.1424104794506462 -7.590458060078893 1.1620879894455625
1.231202345654399 -7.0875639682046145 1.1952468356960313
1.3218798274992292 -6.941413015620244 1.2199281620801026
1.6094086476393308 -5.209803341287937 1.1770155873885295
0.9895782042235481 -7.8125018591107604 1.1266678523542835
1.0299678285066358 -7.737927599001488 1.1360910811016096
1.0461487189601968 -7.385330571782195 1.1470126740153241
1.0891957219104151 -7.341174340767861 1.1572445756751277
1.2423159573637559 -6.883525279162095 1.2056774052672423
0.9893669912004306 -7.5307487650351925 1.1315545701996788
0.97220894821369 -7.394868563935091 1.1313347944755838
1.0400418459237963 -7.348146486698705 1.1467754521781817
1.1491193025222728 -6.662611459224257 1.1963139399842186
1.0862125820559339 -6.6089102852313735 1.1858280886362793
0.5483568216267862 -7.634335241093861 1.2111779614539797
-1.4448923189037344 9.630350212860648 1.2196489160716002
-1.5328866089577575 9.64555973000392 1.215902338444312
-1.7035577022864308 9.452940332609778 1.1953174808395268
-1.6434229175813146 9.605400780591093 1.188300112757943
-1.8399195615964903 9.307589953796015 1.1793900612026835
-1.794363194215662 9.355322149361477 1.1659502249178957
-1.7166412904528596 9.628556050156057 1.1666440281123753
-1.9379049551986518 9.23467364242925 1.1698384985729617
-1.8684244504419678 9.369768303394768 1.144451825793845
-2.083628076805626 9.171646090425464 1.1584183557757974
-2.0218127898717517 9.2319427699093 1.165259295533015
-2.1445056110161484 9.147187885436349 1.1537294324283613
-2.3291047802161735 9.02673416878946 1.136864159198373
-2.225703310261339 9.190349477898673 1.1521070616995943
-6.997183507555519 5.457823485986529 1.1300075155038998
-6.974237776137135 5.551326769806499 1.139392733235079
-7.048824246587408 5.484463483938324 1.1306355151093959
-7.000168586944962 5.856243988202934 1.1671341730885538
-6.970820828949179 6.130572378214907 1.1937812325958557
-13.47301047923896 -22.466347801815203 1.1530809946101066
-13.531314843162427 -22.4382888081008 1.1520045967847405
-13.952932141182293 -22.39407893539271 1.1545869627892287
-13.948995692514323 -22.271359498206536 1.1472464289228823
-9.079576273217803 6.838133724383248 1.1903710029505035
-9.126759894006808 6.827215794439157 1.1879078480357255
-9.091022129763218 7.010122890298584 1.2058868107855263
-15.216177722438774 -21.74301792273232 1.1394584226456088
-9.4238190410031 6.484181289619032 1.1474742876683384
-9.3309201177951 7.152305615501442 1.2117257853999013
-9.453369468531314 6.691398131553745 1.1656568936337646
-9.403806647948338 7.053239678935192 1.2004059110323229
-9.600193195631626 6.65590044416639 1.1581047463883003
-9.488576560618302 7.056865140300328 1.1982236902274013
-9.767220568712524 6.532187050070968 1.1419918431638647
-9.679172754726729 6.713980471195173 1.1611632183844613
-9.853486885989177 6.540745593733794 1.1403449116341955
-14.371514293989037 -12.106440933657508 1.1486354509757286
-14.333012655264339 -12.041798314566385 1.1434103302975525
-14.321786928976435 -11.945027997576453 1.13977465653583
-14.358768163534888 -11.875298880492153 1.1412152073223094
-14.405368890828871 -11.834635271674223 1.1443526960462402
-14.787794951943086 -11.954404070090487 1.1817078954439888
-14.970713269894736 -11.950297453308849 1.1981259575220042
-15.02094224399872 -12.020818864004964 1.2043358557257484
-14.660237567426813 2.7561714669587083 1.2176525178660988
-14.66580671157166 2.8270937845761015 1.2251538744251753
-14.831002032350268 2.674478262142996 1.2116101594056492
-14.937362102240236 2.6698157751238316 1.2126819293589854
-15.012075072193326 2.605113022102172 1.2071454686471745
-15.036023238799677 2.6901709933225835 1.216127585974798
-15.234290877273208 2.272070826159551 1.1768442777930572
-15.16938280722348 2.2821083444011183 1.1767316051633312
-15.282807747356351 2.2471617894245206 1.175059106848734
-15.261722598106735 2.4209004809800163 1.1922697198706103
-15.218664905783829 2.5162029236837977 1.2012281853525506
-15.344939775453337 2.55480441432171 1.2070308624465578
-15.660329322973547 2.162664105153297 1.1730254374381335
-15.615420998182666 2.1910933462478344 1.175143428303705
-15.690684505665986 2.1233974802776157 1.1697583921839116
-15.91448361760611 1.7234459270621727 1.1347080621313372
-16.272313767148265 2.367212367926717 1.2040351994851366
-15.800896554657388 8.652003084473622 1.1910222249355344
-20.689800291467886 -14.314459923312441 1.1311790821779646
-15.907419410978157 8.570790087570582 1.1820684789647637
-16.226924162340055 8.330290148082604 1.1557263149198607
-21.279806868451463 -15.688317264766306 1.1787083073008087
-16.310071888712343 8.274814190104017 1.149566195943508
-21.204624925776137 -14.913380526650464 1.1662380038603957
-21.13505377124283 -14.589608140206131 1.1596020595815069
-21.09090042928666 -14.42567574157254 1.1558822010363743
-16.572404759383833 8.11458127965603 1.1314136411000195
-21.243871426346573 -14.351813014810116 1.1646343282558211
-21.29896973984439 -14.305493767537838 1.1676962742684627
-16.62554198194713 8.072601416356234 1.1270273261530355
-21.430583994876482 -14.293238211397833 1.175610434290961
-21.582527618228525 -14.288517683888912 1.1847823487422204
-21.536847956498068 -14.197145718800172 1.1816489160021033
-21.56857175147594 -13.99669119899894 1.1829059633316519
-21.531146796280304 -13.839826330828547 1.1802382210986866
-21.822806688606832 -14.681624624433288 1.2012831638328665
-21.63464732143163 -13.599722289627932 1.1864385481644608
-21.671250858591673 -13.543727672558516 1.1887317390955825
-21.63096767370278 -13.390919942143162 1.1863918228970838
-37.94189947333432 -10.904541395150748 1.1445904654399541
-38.07230429108767 -11.040389481271124 1.144495027613052
-37.96391517109293 -10.7876430986085 1.149315004193615
-38.07068595316177 -10.681937247423294 1.1568304061607289
-38.15683915528481 -10.577787525265764 1.1634546464699966
-38.23282848723154 -10.470394217792649 1.1700089177593573
-38.29939541298158 -10.354197259713741 1.1764271939949031
-38.379298719058504 -10.239838041992474 1.1834394837639461
-38.458711053097964 -10.127111954889147 1.1902668014397546
-38.531595302888235 -10.014152742153637 1.1970535116499452
-38.590078368237904 -9.901602582442642 1.2032030231484698
-38.65417801314433 -9.78818239155305 1.2097639606618062
-38.75425516937913 -9.672404410671708 1.2175841011591488
11.064101026458504 -29.94439271610689 1.2873020542587112
11.082953946473374 -29.79780633448138 1.2888408493874768
12.355625365747176 12.783035820923075 1.3002717676266211
12.124989499610052 12.10349588785133 1.2713742592462691
12.040845279772782 12.138627451058053 1.2691340742224715
12.10494539771613 12.348988482424474 1.2778756410347931
11.793541038920146 13.216652097320946 1.2913106410545514
11.554926520713854 12.775851568657856 1.2692266536736456
11.685140091716306 13.223533606001094 1.2873619521583357
11.718948275188007 13.407815194616713 1.293992210532365
11.303580298910322 12.324272853664098 1.2462122152856672
11.023737207334216 12.652940916624885 1.245001259267654
5.341184435418622 -14.677794080609686 1.2947943379320852
4.9793463526074895 -15.630218747674109 1.2673855273795207
5.17227240649431 -14.700004668436126 1.2753503605834984
4.703791574378105 -15.244179970676123 1.2296111983884075
6.598615410235055 2.6813216209457202 1.2793956075956474
6.627167318332878 2.772080556455604 1.2861202370672855
6.506062413527772 2.796465558781115 1.2798650215423033
6.577620178673463 2.8613928421561248 1.2879343224667543
6.598555722519597 3.15250680125642 1.305186343575439
6.411741817128901 2.450278489479345 1.255014389532306
6.454771673376838 2.885251120387121 1.2815235074078988
6.461777415949278 2.960071455065817 1.2860970989790341
6.190301152879126 2.1920162477548555 1.2270348519424976
2.7343670774035465 -12.988569271823854 1.2956429437449914
5.92046943354592 2.851200046626385 1.2463281689130012
2.5484033448111463 -12.987097112017537 1.2693702977174022
5.885843331073609 2.8869468677826386 1.2461176910718426
3.9750214612420596 -5.425136652838026 1.2714183775449115
3.7275144884851112 -5.413072988883695 1.2383963395992266
3.660038854942865 -5.451669985296656 1.2269101838657532
3.599853069239421 -5.324256684642026 1.2263419293803752
4.195372134073882 -1.1267215521449092 1.2762900633857108
2.9544298336351265 -6.654439601060603 1.3192971918807543
4.126353532356875 -1.108947745736776 1.2711609838097926
4.1863145489666955 -1.0022711089879124 1.2845424376459267
3.9086321435476927 -1.4007732149510517 1.229603850896334
4.0219545874799625 -1.2848737789672402 1.2485881804816936
4.032464910891408 -0.877804197771308 1.279506973146001
4.031506619402393 -0.8143634419119268 1.2841422640196922
1.4660462662032465 -11.485910552513895 1.319328376030824
1.4421349313148832 -11.434294864194328 1.3122513887107299
1.9643038266199726 -9.032482386161266 1.324145383352557
3.120995071882885 -3.312992291299449 1.3064308110154592
3.149588635825098 -3.1901555879784174 1.3202339017835167
1.3925930314544308 -11.360952466018134 1.2994788134973787
1.402785394888297 -11.209468427058983 1.2927891492070103
1.8410172174961348 -9.199070202820147 1.3017885454935236
1.9596983494758033 -8.864510789704742 1.3217722560289167
3.0203720211908225 -3.4229402602308503 1.2844692841342331
3.0440739408222983 -3.380872665118487 1.2909672123531717
3.034261833570322 -3.2934186047863463 1.2968671649295473
3.0799483288749787 -3.018635398538131 1.3256743912577946
1.3147001872421997 -11.107750486166287 1.2718108073009013
1.4303012823277728 -10.955440789179612 1.2841592324536284
1.3725389913651656 -10.793567637826435 1.265743575192913
1.7537160652073958 -9.29463762329385 1.286144037310856
1.71138001399067 -9.206051580042423 1.2762730785119407
2.9681431070570987 -3.3559400547251506 1.283220399920463
2.959851118686628 -3.222511763222657 1.2931976428512533
2.9930415526600607 -3.0337163277162773 1.3133379062662762
3.0505022354504288 -2.9719819645471874 1.3258817218145813
1.2086332704802647 -11.145253796782244 1.2554185812435033
1.2983258276218264 -10.71098865949156 1.2484211435482893
1.314146482660508 -10.665729972528348 1.249067061467361
2.7869043131303615 -3.56265467968382 1.2429529293470272
2.8367924659928248 -3.2232706992665756 1.2773780891795434
2.900495826006402 -2.989956814259781 1.3052747279713965
2.9280419087324923 -2.9090408641384626 1.3157332142004474
1.4379996721138157 -9.496802508527352 1.2288980302764816
1.5366618902585527 -8.653828629998731 1.2353194155056244
1.808093508981515 -6.872267667779512 1.3247468543795804
2.211185636303731 -4.887215341860083 1.3038188454895754
2.2479374477402763 -4.69404126963268 1.3257448630685722
2.2162967070380715 -4.656156707786215 1.3236235381593464
1.7141883727969223 -6.849994632766968 1.3060333948297176
1.7610083648595545 -6.810796001492863 1.31758786505377
2.085770395963702 -4.8783495644318995 1.2834688497958888
2.2013263325981836 -4.685341428612378 1.3186787097341586
2.1968695504729494 -4.589086669223088 1.3260492455441153
1.4902286614860714 -7.317825010432065 1.2416949630477243
1.5211699542393786 -7.261488465293617 1.2499279837930166
1.5410383159195868 -7.08487551517379 1.2602237596843386
1.5822484650353426 -7.027910748546023 1.2710266647266402
1.6131645165997437 -6.969153107258758 1.2798321670726276
1.6120455191667817 -6.791013525530784 1.2872570541403365
1.6220535144025625 -6.740297433063976 1.2916975664001362
2.007604014746617 -4.844074273265056 1.2731466509132854
2.043998820561775 -4.7973798684347155 1.2830836709518478
2.1249919217905164 -4.479081114179548 1.323601345585738
1.4405510011736222 -7.3131028129240985 1.2314515657139466
1.4423956512272769 -7.206589942041102 1.2352737141062917
1.4307109327876528 -7.138260575881968 1.2351822326690434
1.4883305009256986 -7.024238974870774 1.251492791549203
1.528422291155044 -6.711293275714803 1.2734423851463978
1.396540449688282 -7.1162119475866445 1.2288187237658599
1.4877665122183004 -6.478167353592216 1.2768155382885098
0.5950284476121981 -9.787310915076777 1.2811572950694656
0.9741628649414533 -7.7301537949196835 1.3137099542830062
1.3411611244158168 -5.987335561465919 1.2763477621149535
0.9697537294436387 -7.24329976709179 1.3220778714283823
0.37746865581467404 -9.80471911902033 1.2355704168362782
0.3770935136159892 -9.769436160491491 1.233266805899716
0.9419650067324712 -7.2855106022643366 1.314070121194406
0.9384087874890605 -7.217268400403505 1.315166444271566
0.971800909211729 -7.155056338690121 1.3252826730833922
1.3227413403384576 -5.438060169384807 1.3143849605369138
1.270255370666077 -5.340707874455745 1.3119468702310408
0.9020118214694852 -6.756219974603064 1.3240074450903905
1.249458006132234 -5.317246334154709 1.3097460984492701
2.743939898278555 7.346062804001127 1.313829997786052
2.8314137684590834 7.396504293677271 1.3217867389801805
2.645871624072808 7.649205645275769 1.3260907026175737
-0.3998879169566729 -0.1804389438133791 1.2286019806833652
-0.4914285492705668 0.07006252965117454 1.2504362903968274
-0.5573324550749366 0.05915276210211218 1.243153047708115
-0.6530373140113088 0.10448585817115763 1.2400889095754688
-0.6269747206824712 0.11856021034266284 1.2441341447492793
-0.691160378921559 0.1808790501377624 1.2460341248511513
-0.7115933489959567 0.23495227142263797 1.2508506747483674
-5.537301584497542 -17.90757559371839 1.2957986493793743
-5.842759839895496 -17.729771292636872 1.2669413765097142
-5.7812815214797775 -17.701054765810397 1.2654078819429986
-5.9395587999684185 -17.8431660009956 1.2770470847812025
-5.977671165633374 -17.60991256370336 1.2500782125761831
-6.024857093252506 -17.550226118122026 1.2422802665827084
-6.185892396932992 -17.787844171710077 1.2649450497725505
-6.0871484848555975 -17.57443432094044 1.2435040260952854
-0.42808432349367775 10.254195792693533 1.3113009738464796
-0.35817729801610687 10.281747996365656 1.3167364127697645
-6.22323822287445 -17.676437754280244 1.2517752816466419
-0.4830285308991549 10.296745174901613 1.3109390656003472
-6.300814142332738 -17.58237470998732 1.2397462854571226
-0.5590720099063509 10.231288687556034 1.3029028001822327
-0.6022310313700832 10.323917476787994 1.3061871104847793
-6.4096331754570635 -17.546990503631637 1.2337204457020938
-0.7405100977498762 10.223806851217855 1.292777432802507
-0.6709675549100664 10.276892726518994 1.2996546177343193
-6.538373809787345 -17.591605156844572 1.2363215492531447
-6.489936789452809 -17.555428618054755 1.233184650498799
-0.8042874082983253 10.22015355867562 1.2891245060799092
-0.8897550191613162 10.258061029985967 1.2868634910727885
-1.0967517026449891 9.938470968295864 1.2566127828625422
-0.9836733938427011 10.226062386262953 1.2799537899401707
-1.147667856837156 9.992312705169365 1.2571788572403362
-1.3743869614251158 9.699492504185514 1.2275095748766318
-1.305871048694157 9.754669884049328 1.2344879717693429
-5.380117323687321 6.716436261545734 1.3075416929541215
-10.827462065745774 -17.84075436186435 1.2964880319503904
-11.936728298166873 -17.703507298329086 1.323435259335285
-7.938977490847044 7.617204571201452 1.2998958566340117
-12.080352515502126 9.245066023725924 1.3259429726998613
-13.872451061143822 3.4933798438769994 1.2867647748461455
-13.94737015595423 3.4329131710255876 1.2809443541315548
-13.967340474109522 3.524157459078502 1.2910248236186417
-13.866768564252684 3.5563141432961647 1.2935767359677492
-13.904558357612432 3.668413363970995 1.3060083257768176
-14.043316417836131 3.2504300796258825 1.262320798435997
-13.945726855592682 3.7853011369949012 1.3191105454982028
-14.21372806783818 3.1454992505624357 1.2530267060094644
-14.209223516663226 3.279386028732379 1.2671685891553153
-14.179139736777515 3.3178636144479405 1.271008753306223
-14.130996577570045 3.4074292330038514 1.2800844091696901
-14.10977282475749 3.5282758704231156 1.292839769213507
-14.319160844861859 3.0737126960587933 1.2466219352374965
-14.250626065444703 3.599857984686153 1.3018673098965847
-14.673754499909277 2.9716603711171903 1.2403008656710321
-14.672140781236152 3.034918481877664 1.2468207915700433
-14.81323408085003 2.8277058418839545 1.227205662413412
-14.709552000868994 2.9357837878711095 1.2369640160057156
-14.710735554229105 3.1366708541398562 1.2580223559698285
-14.643525138972434 3.2800364218263134 1.2721858925167266
-14.802783843347255 3.291927271654542 1.2753736164129883
-14.745925213684862 3.308439604285077 1.276474024389972
-22.506526640740923 -14.013043675091769 1.2408935159103023
-23.286055434233802 -17.241133769531725 1.3126116335323719
-23.421078758395844 -17.22651420867335 1.319914128472711
-23.45901156173469 -17.16020645935938 1.3211273966881225
-23.514181705979905 -16.931591015043974 1.3211795617670568
-38.8298652288886 -9.554874719567724 1.2247857046900408
-38.881093174655135 -9.43717993207946 1.23101242718136
-38.969637352348244 -9.32280263261607 1.2386288926500606
-39.035822989997875 -9.208475810043463 1.2453349694628082
-39.09953349655576 -9.09383538337424 1.2521469224553636
-39.1669458468584 -8.978805178951404 1.258995157365459
-39.237952394034096 -8.862537149695191 1.2662046523645996
-39.298956211792714 -8.740170261111999 1.2731835313660687
-39.39735967736693 -8.61964087941107 1.281615013429055
-39.583945411708065 -8.260259956499363 1.3028644093706474
-39.686423149206696 -8.14501154263024 1.3113812518610952
-39.74289945962078 -8.019863934466866 1.3185406911239848
11.560166800072073 -27.431066173442694 1.3293666703275464
13.341811856674902 15.790159995288498 1.4265333850622113
5.600285762260048 -15.30208204374291 1.333323053434205
7.3017695886034595 3.8771756369109305 1.3889762068989522
7.2542840456556785 3.90725359719311 1.3876354224737828
7.186321080871705 3.955743003229413 1.3860838585284418
3.243718053663186 -13.495865837942613 1.3872812787781743
4.768661189745195 -5.197884254400457 1.3930208546494118
4.7219649601427065 -5.17425292761977 1.3880824474704219
-1.3001038279834698 -33.913604378381095 1.4219936745921065
-1.403172571515861 -33.8359250739254 1.4124769657799414
-1.5079774726266377 -33.72990566996481 1.4016973449566033
-1.6092487248676237 -33.657407511434855 1.392567494079692
4.90832120121042 -0.06964125575965774 1.4203209343977286
4.754224186075433 -0.4233318625829723 1.3798029720083926
3.4714469382827895 -6.430940856674783 1.4198319091599114
4.584085833012544 -0.5914727486405527 1.35166291922426
4.68451346148237 -0.14232713214609483 1.3943450503406647
4.515344740643812 -0.7054977569222682 1.3368833452194036
3.0385486882350703 -5.156199581650458 1.423422310197183
3.021250993325208 -5.134396079147598 1.4220570017264451
2.836359956380905 -5.304413761913976 1.37840631711221
3.4266616702826918 -2.409074842945741 1.422185091960654
5.275240278331504 6.6184396164070005 1.4191917626931798
2.0104442867414587 -9.025850283568962 1.3333162580209084
2.0198332026769785 -9.005010673326833 1.334968181523397
2.7759889493154883 -5.166732509725372 1.377985632939219
5.214625108435959 6.631505028904652 1.416283995966836
5.182250835927924 6.685489720890381 1.417484440377369
3.2355307771103643 -2.5698291852219652 1.384040218630079
5.114831639273499 6.685803485056828 1.4134453276128491
2.566454033005587 -5.179869542263247 1.3414118407397568
3.02094543708753 -2.7918442618169803 1.3376127713323245
3.010553383033037 -2.765493022960625 1.3385981051678735
5.022507735359502 6.9548976526441155 1.4234141605571478
2.4801305881797155 -5.15153456888471 1.3288475698193953
2.524329649313927 -5.102482148232914 1.3400068503943852
2.5222070992300667 -4.931970180054974 1.3526707199407655
2.4998310445456857 -4.900825160041407 1.3513324949042833
2.989466384805892 -2.7446997165086477 1.3377389893118394
2.4258844476097003 -4.873051727172894 1.3410644812745887
4.755037325252092 6.651492401730911 1.390102486222979
4.825934564397338 6.86010023845636 1.4062848772534344
1.9701992101112218 -6.684650358671693 1.3673062770243627
4.740184432881264 6.830414597976096 1.3995264798771665
4.756027651149877 7.170919027909505 1.4201833107708848
1.4120710738568159 -8.605602733702504 1.4219463003530557
1.8217794609904878 -6.830810327758251 1.3294321130961195
1.8590280589347365 -6.394404023246135 1.359128027995244
2.3109698871327664 -4.59920160216305 1.3442011527297508
2.299044386835436 -4.50340348192639 1.350375316476577
2.3623127886568884 -4.301992186429401 1.378435719362019
2.4323671519350754 -4.0626935109381215 1.4115591716949318
4.614822646048214 6.74054553369127 1.3869384598156518
4.6790546849936785 6.945777487445691 1.4026157423065442
1.3519938563213358 -8.492211067033763 1.4060734796328502
1.352500931326631 -8.426336367938884 1.4054333019820549
1.3862562894911887 -8.316044531406257 1.412483833798489
1.4107274352317924 -8.211647266654154 1.4178110797568069
1.7968653542392596 -6.377798012599048 1.3470565522168894
2.215744996057259 -4.606879615876222 1.3276866680375754
2.2240424430260477 -4.479981071065556 1.3399381058687745
2.2617879824133515 -4.39075897995488 1.3539855632979976
2.234605076451567 -4.2217210402437635 1.3645916055102245
2.349936691357777 -3.8013780031308206 1.422682165308073
1.2670375652456691 -8.527221747627122 1.3864116058921605
1.3304474589784299 -8.351147542058673 1.3994116952548146
1.3089382644769065 -8.185245689835098 1.3932533725519818
1.317893554916254 -8.087470463667689 1.3952442050961622
1.3402287911417003 -8.01248508016082 1.4007218804150114
2.085330291191367 -4.345118379670755 1.3289085435927752
2.1311772231345696 -4.213757613751296 1.3483389814399558
2.1996367542359163 -4.121050927123315 1.368079100014476
4.370477060778356 6.664742696881737 1.368201457650709
1.2704640911543237 -8.076266213864793 1.3838054768963426
1.2433437696415677 -7.971658606802449 1.3774099525731964
1.2812627633101803 -7.931585433185688 1.3867486191656244
1.2827983912169962 -7.74862745964921 1.388564519598702
1.3190394913430037 -7.7068608626346 1.397894585230748
1.3495869040753012 -7.479522658986736 1.4092720866022534
1.7537594876801812 -5.694603657466238 1.3828622150381593
4.317088097174755 6.684107643089886 1.3661882070505698
1.1481690881306825 -8.09560320729962 1.3543863648494816
1.1595251858165314 -7.9788965667865925 1.357168183058788
1.1987011332232926 -7.866478511867934 1.3671165326656634
1.2044803323778774 -7.791562340217582 1.369107528078911
1.2704996253285952 -7.727435780641691 1.3858280785174055
1.2547267795743702 -7.6096452151925815 1.383600644657985
1.3020273787052652 -7.501624793428697 1.3971540188978953
1.6875554461441862 -5.55981115262167 1.3794902805151215
1.1121753676645296 -7.643948745349967 1.3483189204931096
1.1421795136347548 -7.53687362089455 1.357362124951749
1.1782410722334822 -7.504721816967066 1.3668002563139816
1.0426959351565648 -7.778821213044301 1.329913885318488
1.0495487665028644 -7.615551585730548 1.3334663917228755
1.0563487227946702 -7.406609568107672 1.339077153280712
1.0743602711279596 -7.3535878139824735 1.3447819440406932
1.12265705562535 -7.2025284691161415 1.3608722400832436
1.1870643731126247 -7.133615167330256 1.3789338600080512
1.1209961687326873 -7.091841149409257 1.3641135277002165
1.0652877431748822 -7.2159917351060185 1.3463566959026767
1.0949493614161137 -7.108801731355273 1.357112658021503
0.9801128847904925 -7.013045680406884 1.3323023176660769
0.9630784848889595 -6.826189272286178 1.335819664134506
0.95015673031038 -6.791893119420236 1.3341960608970902
2.9983207155409666 7.480769060172241 1.3362985793137856
2.988000274043375 7.58614304310872 1.3419155806804062
2.8587796996046784 7.709105923238804 1.3417490934531868
2.6997894732756 7.632571651385435 1.3281681021998972
2.784384299965841 7.680709677608711 1.335843117393303
2.6715853357133597 7.830819330062436 1.33824678038968
2.5903290667596623 7.8496823058118395 1.3347449592887004
2.5048348274016545 7.865691638340978 1.3308402662417969
2.525601151879031 8.046571407430323 1.3426822451257001
2.614036553857364 8.674724066699628 1.3848255666569564
2.4264272620754213 8.029622705366286 1.336067961033811
2.3140085859464756 8.126656726933291 1.3354334319040408
2.388405512858265 8.446359548994161 1.358566260178974
2.367442353251784 8.541948693994422 1.3630203700167534
-0.05571321219000547 10.527645958849323 1.3477766463653797
-0.16418908033396695 10.451533901569523 1.3373468603540606
-0.259745306190001 10.441635561523459 1.331596339373839
-1.021842567507679 11.060183742848384 1.3280742111798909
-9.926178088002551 -19.06713794073055 1.3922330835679475
-9.963954511352217 -18.98294032388452 1.384550741348577
-10.07884947714556 -18.9471804236166 1.3830011837908296
-10.144142949793178 -18.972660476959135 1.3866394392060044
-10.133381438199958 -18.796749418560523 1.3693648814507302
-10.237194664307921 -18.792219423452565 1.3709303414270668
-10.384938899832543 -18.874064806951356 1.3817961447576705
-10.44485425949254 -18.84170782033079 1.3799625829706477
-10.424475646682765 -18.70606964551918 1.3665683506410988
-7.458769255129431 8.051474522592956 1.356590813782753
-7.382131399287289 8.433660772113575 1.3951203833285963
-11.684148351731887 4.5709097075472975 1.39920204211021
-11.870039851843899 4.673985133416256 1.4109803221346675
-11.945239472372332 4.655418876766879 1.40874186337055
-10.951171260154421 9.598234231570643 1.388883702342382
-12.119436714714668 4.738567590491904 1.4183068556734657
-12.243769498962676 4.70990764285896 1.4150071320626934
-12.204711481357231 4.7787072506801085 1.4229687608802133
-11.352334732550855 9.298273543066145 1.3502214433363953
-11.169304771955193 9.952302138340542 1.4150831148419305
-12.42185810490501 4.579723200132216 1.4001757749763988
-12.338543570950671 4.713473084140929 1.415445912065993
-11.342465998707006 9.41851431637662 1.361456830329965
-12.489613589140024 4.5893380999296 1.4013442643148477
-12.444113183562566 4.729605911192081 1.417407015773536
-11.534533505281532 9.39299307441479 1.353858730515972
-11.397423001961553 9.686618127481129 1.3843722256588227
-12.57222643716572 4.617505063791455 1.404738160402793
-11.639702177087646 9.324548688314845 1.3447914481909773
-11.62488790271227 9.439203680104349 1.3556119708460215
-11.477984974242542 10.023803296139338 1.4129040981413308
-12.63359532638841 4.616560489740641 1.4047122834611572
-11.70612693239472 9.319798206716428 1.3425774092551805
-11.604828023019422 9.698583154241746 1.379752167760159
-12.725148705660157 4.655019902473992 1.4093289100798512
-11.774332362398141 9.318442987456034 1.3406294688557157
-11.949566428887838 9.393685970706464 1.342805879017048
-11.927908118849146 9.492682314944044 1.3523458453851178
-12.172642163979681 9.2926969643168 1.327858406315766
-12.07201654299044 9.364970517553143 1.3369970262968256
-13.141812215650113 4.661244187786984 1.4112453605921238
-13.858789647408715 3.9138497989385037 1.3323406763733472
-13.836336593024964 3.963770825104774 1.3376727037016551
-13.813974566272439 4.201248952591898 1.363547082446497
-13.758668320502125 4.371038203025499 1.3819126450354522
-13.938684258745942 3.8515274872884984 1.3261993424178622
-13.874306272534145 4.385510859523263 1.3842468121086966
-14.000294531476655 3.9924735477083004 1.3421210474794512
-13.972065304686042 4.262219950100549 1.371416950482784
-14.064706088875205 4.28899443158984 1.3749970174367507
-12.91184271252381 10.454988012281838 1.4137233963116695
-13.27620390865696 10.284707880334278 1.3892637794580427
-13.337253290672436 10.258609993940446 1.3854102431037145
-16.109042318194128 -0.42105944142256124 1.422425638391405
-16.02480835841069 -0.3611211996085171 1.4237928652329546
-16.604551985861974 -1.1227125120762471 1.382164419185259
-16.742922747014042 -1.2709842611631474 1.3765257091893763
-23.53354984629573 -17.11358717012073 1.3246592542500402
-23.64525025120182 -17.086028211864168 1.3306140599438543
-24.19857881737076 -15.248766612347909 1.3477791498030895
-24.338394517176397 -15.22500415744744 1.3562656100632158
-38.56969745653194 -6.903207840817299 1.3245568625783484
-38.75113401193496 -7.021375273408568 1.3257736686636672
-38.94008374061214 -7.141094537565626 1.3273713466043608
-39.10865049744258 -7.26638501008771 1.3278843750013094
-39.29064360035466 -7.394643969773289 1.3289364739909828
-39.47830590116786 -7.521674246430833 1.3301340886591067
-39.66143954884139 -7.649487555318226 1.3313214086283396
-39.8267766326649 -7.8967728655059855 1.3267882802142272
-39.83626209289329 -7.775668609048417 1.3321680903795756
13.839580384509063 -36.163253684582855 1.507695606119929
13.692792759504304 -36.15231266651129 1.4962480501790927
14.051898852597226 -34.103079607027524 1.5233782314411108
13.3694443170285 -36.53954507104488 1.4717925460352719
13.430648479508584 -36.40104847446342 1.4763756860221493
13.466775669483273 -36.23285273513804 1.4788842621656335
13.384381376806555 -35.869583053819724 1.4721650797249548
13.143658845503655 -36.394062079276395 1.4543276734001696
13.024152741930294 -36.41981124701737 1.445156648194069
12.916646474761535 -36.46581014644002 1.4370797070682995
14.230525399325192 17.11296400092817 1.4997084827852099
6.650272925203913 -18.48470066228411 1.5075958142088792
6.447658731123509 -18.341072166428383 1.4824990264284508
6.352690778836164 -18.317445616403386 1.4716000066657917
13.391878203491292 16.184843884907522 1.439947138235825
13.401804473191508 16.365461975929424 1.4456372507153277
13.313400612173897 16.414500192723427 1.4435274290235645
13.219887991498243 16.45457087528172 1.441083938663781
0.37170186643166403 -33.610237888443464 1.5137749502393378
0.00731229167904246 -34.37243802685162 1.5225022087825648
0.08492589137314877 -34.23728630588675 1.521753239674048
-0.09059455363259783 -34.37086048654456 1.5162221638765294
0.22193783869649053 -33.27890964644672 1.4900036752136234
-0.2022180058977594 -34.27412276587647 1.5050169384995011
7.805321675592907 5.152680446090848 1.4907374847904502
-0.34607532601789526 -34.27623114028482 1.4960568643422891
7.6962554359763775 5.126077313576472 1.4824634449997343
7.493982827830063 4.526726193594236 1.4367645019435704
7.646021351848908 5.158859077166504 1.481204588034812
-0.5826735019626068 -34.32416260999709 1.48332446137947
-0.49385121980458146 -34.23990634567288 1.4852717469264047
7.399543172934505 4.553117455501859 1.4323373915130582
7.489270735327761 4.758381207377713 1.449251086064394
-0.6755933133324112 -34.36420610695731 1.4793021225219825
-0.9244305949347016 -34.663969583599396 1.4768544929932756
-0.867403338700425 -34.311276652848456 1.4652520734909373
-0.7887049268808837 -34.19313440716002 1.4650045371734148
-1.0519064426338964 -34.399009863825086 1.4577777273552615
-1.1932545350613224 -34.006687861804416 1.4323965430857837
5.343702774046987 0.5673116425141158 1.5080431844643811
3.9298036199687827 -6.073196040967773 1.5181853603245774
5.15594804612541 0.06338624507659851 1.4529904325964027
5.294914617907239 0.5811578229466239 1.5046213025163089
5.335020962551738 0.6650283651900741 1.514648713397306
3.743388330484315 -6.391245753814599 1.468951238316928
5.0184504865004325 0.061450006479153885 1.440215941817577
5.1055219850087905 0.30409219573321256 1.4664256616516802
5.275723033862976 0.8338501545261785 1.5221219661914698
2.883038172836219 -9.90913555872796 1.5195540776716372
3.594494242693858 -6.72244454666009 1.427096240686909
4.928063623792822 0.09177041279028408 1.4342072069206586
5.078642660104881 0.5373293278450024 1.4816328724305958
2.858417035373707 -9.811637263225743 1.5127995110063104
2.826153751364693 -9.489485786110732 1.5012914872337753
3.686910403491911 -5.376297865797569 1.5189472471250567
2.7672175148720415 -9.411367106621466 1.4885806651304472
2.731474816564239 -9.343157542784574 1.4806628110515392
2.5690662721164257 -9.713641972361215 1.454157398031536
2.666602087797787 -9.40013235816658 1.4683935588810046
2.605131456907551 -9.32271264853816 1.455213373728943
2.4550400817037534 -9.690327497919839 1.4313201047559971
3.8250851607267924 -1.818746169827154 1.524590375779016
5.546421207097742 6.702403047950693 1.4401882191309938
5.556114575416551 6.863116825149527 1.4499826128108428
3.5386294126242728 -2.2547662318772943 1.4498570628907974
3.6328469934069334 -1.9771542101481216 1.486414175650332
3.429951424195255 -2.319745554152142 1.4304739653652652
3.5087807806824776 -2.2014531153418133 1.4508525539931245
3.496769473034492 -2.0989691155065655 1.458506286917767
3.495056811400114 -1.9885320017213033 1.4682669234939167
3.4380280707680235 -1.9874921416373494 1.4612778378247098
2.9230503264217518 -3.726724434550184 1.5229184428740883
3.3694509075870016 -1.9941190371764588 1.4521951329546763
1.648315926579924 -9.845736204420648 1.515840246419352
1.731142587156457 -9.078565709083342 1.5068050642673676
1.423927804193899 -10.131748389528017 1.4808920111581194
1.5051129003079833 -9.959041479912262 1.4895252490963193
1.518667653610791 -9.928063119016564 1.4909528699797097
1.741056917064089 -8.919926133739501 1.5053173079869753
2.674075845812543 -4.112498954347256 1.446760358894044
2.718589342915693 -3.774980423669376 1.4850693482058128
1.5347750942743286 -9.024246366881611 1.459653756180751
1.6842989474383225 -8.346263560267582 1.4840305685478667
1.6685894201728848 -8.320969338885135 1.4801154509536762
2.5858276660972868 -4.052296144205384 1.4376771097347312
1.6058818536558812 -8.473447530786292 1.4662520400062167
1.6003835373432533 -8.344096886642676 1.4639000954718433
2.524872551824675 -3.833281908896852 1.4480347097896626
2.5120696356802403 -3.7535401260392987 1.4535496657128997
1.5143775814753218 -8.46772713563958 1.444409564648493
2.432782420121926 -3.8326969132750746 1.433126906739876
1.389686184377923 -6.589267728613049 1.4525507266152218
1.4925842843637902 -6.022954250883403 1.5135182101722178
1.3216657032666133 -6.267960579577622 1.4548028499621486
-0.5535193429168834 0.07591818529012695 1.5235298627047371
-0.6356120883783025 0.09161194486550439 1.5172183433512645
-0.6748433737394577 0.13118278349415657 1.5191774464795387
-0.7017498200467798 0.16978619245332993 1.5223226763334343
-8.130171780562964 -20.39248724392955 1.5215709868732032
-8.184814086278429 -20.407499397927317 1.5228092727994706
-8.863085297211256 -20.12130129197316 1.490639619865617
-8.925627594722812 -20.149736839947174 1.4937016984979195
-9.187482614332016 -20.429114739901244 1.5233878209164198
-9.246431339029405 -20.30072219230609 1.5102989587242088
-9.332545995807088 -20.31470932051601 1.5121400330840773
-3.560741118093793 8.07761793948386 1.5135425032271732
-3.664511167967523 8.025260738081435 1.5039080675689176
-9.735241753548806 -20.30805213856671 1.5141917040718713
-10.071198547190757 -20.189730524676058 1.5057400659829305
-10.255254070074209 -20.23356777186811 1.5124901676561693
-10.35359302302691 -20.205829922808043 1.5111213298205577
-10.384695203048341 -20.15171838459388 1.5062182882859445
-5.851969870782082 9.227220791693512 1.5259228795470114
-5.935433773028266 9.227946724147902 1.5226572307194155
-6.020591599747766 9.230093721251604 1.5194744831134233
-6.135319301362877 9.280230108305286 1.5198179478754297
-11.996774566800966 -18.98778752099239 1.436486398762366
-6.256572221054994 9.117674288534033 1.4999820705822136
-6.185427386807871 9.22153981737542 1.5125591237665756
-6.339556152789905 9.132443769176444 1.498163101548959
-6.4000145201889485 9.160025684585435 1.4986752834770398
-12.467505426250412 -19.28714353695083 1.4790872839620561
-6.700755364675598 8.93218191796204 1.4661076335685406
-12.562089643843274 -19.243826415904877 1.4787524736698505
-12.667174350110141 -19.256551782551597 1.4837355174864026
-12.623024585752376 -18.923482161519317 1.4535705826682663
-7.728338788452643 4.823942782389322 1.4743531193124362
-7.689189430626676 4.842323778614716 1.4775287473378012
-6.799887525715886 9.180336151704527 1.4856315077141071
-12.646717701341919 -18.867878662148236 1.449782992849382
-12.653843188524904 -18.615447881888734 1.4287901413409345
-7.848425780318333 4.645949553067036 1.4492234554565273
-7.8397183650917555 4.75118346122707 1.4626913095018328
-7.859688614536497 4.949253459491574 1.487353068899629
-7.828197451750298 4.992616819439208 1.4935044150372967
-7.040676722424845 8.66958267758861 1.429032910753492
-6.909832298457399 9.47888772516454 1.5098636471974825
-12.978306186300502 -18.755562978717315 1.453827048654276
-8.100375245553217 5.266060360271272 1.5222900661753045
-8.491042114564888 5.178639751805585 1.5036405043996897
-8.439487615276732 5.2269108898640635 1.5106536042022907
-8.61326563092876 5.07061008856158 1.4878976453251243
-8.570540587575806 5.145069498981179 1.4979865529527474
-8.54396431300503 5.199485497354651 1.505268515936207
-13.68444575423431 -19.117168147128957 1.51395878876924
-13.801731944834104 -19.09113587069061 1.5171785119437529
-13.73874375724329 -18.881832866732445 1.4976405869063063
-8.73797843942837 5.2070942249623045 1.502794590263282
-13.759077244153373 -18.781388985182993 1.4906518552888157
-13.90356005917704 -18.74863462241096 1.4949405948159433
-14.02106206410522 -18.596850642966125 1.4889317106181363
-14.056455680454768 -18.514743420996975 1.484414780691824
-13.992723964926325 -18.317733159023085 1.4662398064479714
-14.01057392650423 -18.25774691702533 1.4626319967623356
-13.91418321505204 -18.067062837357142 1.4433524246691498
-14.046500283842814 -18.13934086422259 1.4556122091157353
-14.17792797118268 -18.209368143799388 1.4676661459160008
-14.115662972127604 -18.05970256574785 1.4533246652380192
-14.329478198149593 -18.146354124696444 1.471059990606757
-14.236167992777462 -18.11763269469269 1.4639647245824834
-14.508111602366395 -18.223687734941258 1.4863159951180005
-14.530495205774812 -18.12488355936867 1.4803835410773634
-13.587202164451144 -11.660853769419301 1.4448442474403178
-13.738476511708612 -12.014966491094174 1.4790754975173694
-13.867804700081 -12.019519938156513 1.4945585713144875
-13.805170279587339 -11.942734944738868 1.4835557034118407
-13.801079420453286 -11.813489098272203 1.477202660706588
-13.811168703142268 -11.732706842400827 1.474861590876936
-13.933484623654312 -11.967449286534265 1.499937755404915
-14.258856697852007 -11.420805294574794 1.5171487271780684
-11.262758209456113 5.285145916179927 1.4848574148812022
-11.326696995084468 5.295791311650035 1.4857897334929162
-11.2856158991822 5.421758978949752 1.501001371342637
-11.544041082228123 4.832123788862223 1.4301227537266223
-11.478118823494231 5.178640465230377 1.4712145845372628
-11.467882451350587 5.252583926941666 1.48002929661829
-11.415983039304365 5.3026123340861755 1.4861870865402056
-11.603332876001922 4.836674070687382 1.43047892035849
-11.608811797850782 5.022080941605157 1.4522702786350556
-11.591050704075787 5.176641516967605 1.4705551794170708
-11.561082193264117 5.221053362078919 1.4759272946144977
-11.683242393585187 4.872783568683531 1.4345419617646744
-11.660538237760903 5.194220372874257 1.4724118024935209
-11.775856047286558 4.881303294734906 1.4353322767194399
-10.951141996767642 10.08341791157093 1.4333836191508451
-12.224171222227987 4.971137304560397 1.4452670408436643
-13.685024982391303 1.3805597998777088 1.506924934146766
-13.033233933942038 4.930193910199577 1.4414092478390828
-13.152817815047058 4.960441679002381 1.4451528551027335
-13.2494018933724 4.921026399791565 1.4409813823464959
-13.425184184451286 4.891710537371207 1.4383488797959654
-14.515764096813987 0.5829413520096276 1.4479168090126395
-13.610601800264638 5.039343652882362 1.4556890187361482
-14.5482944045801 0.9335849623742103 1.4907204415300777
