ply
format ascii 1.0
element vertex 835
property float x
property float y
property float z
end_header
23.811551785198507 -162.6329269920803 -3.7612395005163037
23.81290781081841 -162.44182841910947 -3.757112890514914
34.68744203534095 -118.50582926258093 -3.8218918818820855
23.309331183241667 -164.14660950834215 -3.789919232815995
23.291146285119066 -164.0834720019304 -3.787704412766236
23.78506790535773 -162.38383027790582 -3.7551996908366525
34.54654647812195 -118.50876708925236 -3.822581541699701
22.869447460928807 -164.98397144016695 -3.8035354461751227
22.88376790272568 -164.62106046331263 -3.794509157068182
22.986025246531 -164.3797937687778 -3.7905954999369382
23.29095207307657 -162.87518081858954 -3.7588047898085373
22.80842226449355 -164.7155053354633 -3.796049685078775
22.649366043930854 -164.19578896860185 -3.7808176069802846
22.51048547469767 -164.45021416347646 -3.7844889762182725
22.03198372982394 -163.2210812367164 -3.747716857834197
15.537209060266669 -167.29624111682858 -3.745154088257146
52.8719787273903 -156.49778601183542 -3.6425689762238753
51.45687425632193 -162.18264400213766 -3.733270773326629
52.876547161779015 -156.3684450119936 -3.638472626892045
52.763583356952175 -156.4786303945891 -3.643971065246014
52.76972074077268 -156.34901709361557 -3.6399990650827623
51.910569856502015 -159.1424507422122 -3.735551709104046
52.506106646396105 -156.8178261884115 -3.659176789964049
52.57777478884077 -156.64425856387268 -3.6525957083880383
52.585062590290946 -156.60056310348028 -3.651057566858469
52.65376132765449 -156.3353139160948 -3.6416938492562005
51.88540655334401 -159.08590808756244 -3.734610343252026
51.8599628980462 -159.0315135186878 -3.7337208687340584
51.87998043296524 -158.88366735403233 -3.7294573198602783
52.4305005157469 -156.7744313766344 -3.6592767585200736
52.493611173716005 -156.70211696213 -3.6558603460384274
52.592450982267025 -156.30987337319246 -3.642159922226183
51.75421383583638 -158.94056071803567 -3.7333585990784672
51.83965820111368 -158.84780739713693 -3.729223416797302
52.34478674022185 -156.89035996106048 -3.6643415031237225
52.44430804669 -156.5064119354259 -3.650974766967628
52.42919242935662 -156.30584388723216 -3.6450526179900575
52.46242594634653 -156.25570662777204 -3.642969226662487
52.09371069658573 -157.24609774062193 -3.679668616414904
52.13408205163555 -157.18238635934242 -3.6770619606913106
52.1114113348807 -157.09173682086416 -3.674834767911314
52.17032085520911 -157.0032512408658 -3.6710363224078093
52.20673723436916 -156.9574002620301 -3.669055783821003
52.41231734655506 -156.22746765691474 -3.6429610554676253
51.83804504930332 -157.73711462922165 -3.6987709402081856
51.901110561048526 -157.67444093335132 -3.6958008237920827
52.311774006715126 -156.21219799855479 -3.644472941078495
52.33676087989674 -155.95868933057963 -3.6361254300246206
51.67980613805226 -157.99387470493733 -3.709118791521069
51.71470341354969 -157.9180077110643 -3.7063098392226377
51.705453623211724 -157.86649100494725 -3.705068758433811
51.797383944458645 -157.63365522891593 -3.696667807406095
51.79909339793363 -157.501640646178 -3.6928028026033743
51.819099406833374 -157.42206229557434 -3.690116721409601
51.90977370990914 -157.33201157105626 -3.685752763480595
51.682385613321415 -157.8110573701119 -3.703916509302296
51.762708613097274 -157.59902033296245 -3.696273585376108
51.769582333914535 -157.55905830796945 -3.6950698572617813
52.01878137204364 -156.24394996491912 -3.6509164049812584
52.04532957799564 -156.1570939811521 -3.6477767613594247
52.03995522402467 -156.07909083587623 -3.6453928823874318
49.886896461835306 -154.8770343480956 -3.6456591313102464
46.52134423519638 -165.5228019795687 -3.6655438695839617
46.41491946898885 -165.53059780502738 -3.670304929299906
46.465607778067756 -165.5237287083575 -3.668061374331168
49.14780754220259 -154.6047997360185 -3.649152081917607
46.324729975176055 -165.6555719883611 -3.6738157000572382
46.36384476562475 -165.5619249430828 -3.672587516396845
49.06162202749333 -154.5829700340216 -3.6499075712978963
48.952970529517344 -154.5375067315121 -3.650142817400871
48.9233110972588 -154.46523984854363 -3.6482148427028287
48.95183776111592 -154.3579360917883 -3.644255410167672
44.359383568209246 -166.94555327499145 -3.7259766880022145
44.21221161709452 -166.9749575569007 -3.7291589664221063
44.27460547692805 -166.93421060961262 -3.728323435262167
42.18264332074489 -172.95736014159485 -3.6389399980677193
42.131351587246 -172.90457272106408 -3.640616564733146
42.03262683203775 -172.90247859678038 -3.641362888786649
42.08252932398907 -172.89759117634003 -3.640923820003981
41.893524278154075 -173.001758746107 -3.639973934424747
41.96175177922416 -172.95035275569992 -3.6407325289635946
44.660190285226356 -158.89765963475537 -3.6338966199802774
44.599744894891586 -158.84658258878284 -3.63787316410468
44.58872414788791 -158.74838805611637 -3.6359014350014704
44.56907092645403 -158.7952778136974 -3.63912284982543
44.57309947061123 -158.74938374957745 -3.6373353813605567
43.3917453007889 -159.8534744514363 -3.659272538558275
43.465503896872896 -159.66685734650733 -3.657515064598933
43.37675197726217 -159.8381759112338 -3.6614110947510508
43.33681196315253 -159.76451757928552 -3.6673134318558858
43.366908035868654 -159.6864871763969 -3.664121246010695
39.90959336471765 -170.17638262284234 -3.7034445681439934
39.822373263024915 -170.2230702986903 -3.701979737332925
39.7113607854019 -170.29433032710043 -3.7001449499379957
39.6496983976464 -170.3080483664802 -3.6996726183328557
39.50143979805674 -170.21140989311075 -3.7009223641513525
39.54394853672288 -170.2037651063074 -3.7011197591841536
39.369716351368915 -170.27743193248747 -3.698628710521488
39.31796442517822 -170.2129456186788 -3.6997249582081375
39.20452673971869 -170.277270606615 -3.6976955082577887
39.14712410129423 -170.15295446904105 -3.699688171992587
39.14094445435998 -169.9727067503504 -3.703473292687065
39.05130706316091 -170.22628094682418 -3.6974918234957475
39.02079838900526 -170.1734209508049 -3.698508537037712
38.86557412570606 -170.4265673837987 -3.6920776125326733
39.025631003660955 -169.94602138794215 -3.7029397814998903
38.75036128974292 -170.4665276536219 -3.690330881331896
38.613730384937455 -170.51408911309505 -3.6882057222695446
38.671257930538964 -170.4471428891382 -3.689873801478887
38.54229985706037 -170.45376872612704 -3.688578203653929
38.393940474696485 -170.54432815532934 -3.6852318458972597
38.43814060756893 -170.53656715373586 -3.686041922745387
38.33788202953069 -170.5963593481996 -3.683828322545674
38.33176036664146 -170.4484613289325 -3.6864506113390942
40.74848192191061 -159.749608108078 -3.709508131692561
42.71139073565296 -151.83977554442995 -3.6570064052047773
37.763759800835935 -171.39795155838428 -3.661841128703968
42.63222681140684 -151.8491664785526 -3.658159096229722
37.677353537270875 -171.45249618330612 -3.6596323221062264
42.56190131634269 -151.81214150633372 -3.6574549926092663
42.51829602061393 -151.76686196947566 -3.6561635645506523
37.59307488258528 -171.4969252917179 -3.6576242207025755
37.64640712442565 -170.99777923987452 -3.667745259416153
37.49633091793465 -171.1863665006685 -3.662212811877962
37.477609253872615 -170.94610723326022 -3.6664460978046294
37.35701070607026 -171.03368512053322 -3.6631317500465244
37.115973129266486 -171.34823487938027 -3.65406235164149
37.1618717323866 -170.9290846244216 -3.662390744379988
36.92555236881405 -171.76948082349358 -3.6433077664033866
36.99958069895217 -171.26239631675935 -3.653654259406534
36.74104435297294 -171.85842965164636 -3.6391403579966473
36.74117102087381 -171.70803926660605 -3.6416228064121645
36.82495540831047 -171.07534930468472 -3.6544840457132763
37.1136759152453 -169.92218593486513 -3.6794310119759395
37.10112650875516 -169.84261733769353 -3.6808156593189945
36.77225207930103 -171.02189840326534 -3.6544587214609576
37.06263774969777 -169.77434138420432 -3.6812453636553855
36.98321555167853 -169.69816158295453 -3.681139427504594
36.88303210036129 -169.6752386017863 -3.6797755456498225
36.794869082342444 -169.67579160400584 -3.678148774237888
36.62741892179723 -169.76156057188038 -3.6735601752721543
36.714701226932156 -169.7116657407115 -3.6761497366632248
36.42461740817277 -169.51034768845432 -3.6736942219006954
36.122030127557714 -170.43767429849737 -3.6526985876449958
36.253652682319526 -169.54352796947853 -3.669744620584967
36.356687660804084 -169.41957983662374 -3.673645811315161
36.28424423442217 -169.10588949311446 -3.6772544694038425
36.02765607375667 -169.92325134687178 -3.658786897139149
36.15525305554214 -169.1872235391271 -3.6731946059819207
36.25381567323839 -169.07760477412052 -3.676828415758235
35.822505205095844 -170.25292973020564 -3.6494883748900673
35.9350782679495 -169.9187810744466 -3.6568927970533385
36.04381353824497 -169.22980033782062 -3.670081864292901
35.785174362575646 -169.8360573043578 -3.654906191489399
35.913812856492065 -168.79856280614604 -3.673471973136941
35.47653475148797 -170.25357256874426 -3.6416973074103636
35.66427824942862 -169.4315965349422 -3.658422339428623
35.841332510520836 -168.80804448021843 -3.671511826160298
35.46542854110935 -170.1804924007452 -3.6427708036097344
35.46130687850832 -169.94848580195693 -3.646017947327837
35.560046228088446 -169.54139959580627 -3.654155644892523
35.76286328747177 -168.70279883628456 -3.6711181475067254
35.782843293914866 -168.54992076829194 -3.6738440273269575
35.91792967800769 -168.19989008210484 -3.6819249311121816
35.04924708392871 -170.1145771955038 -3.6337624758454434
38.10098821879036 -156.69991663884647 -3.6967140839556465
38.115982798898415 -156.66855158431295 -3.6957450844488178
38.19290701112657 -156.51213030759223 -3.6907386030637923
38.17201798695912 -156.46940352179655 -3.6876420500884617
38.004735785059395 -156.77392046874726 -3.696356446142043
38.057598716505595 -156.73595371912694 -3.6967109390500643
38.02803351654515 -156.5712243500214 -3.687133488096566
38.0755670577299 -156.50971037222536 -3.6858872816321737
38.13033503209029 -156.4002901903431 -3.682304803912377
37.90342695629658 -156.79042749378496 -3.6928217987820693
37.39545110519935 -158.3493008204905 -3.7311371274348626
37.39349432109095 -158.33552531441293 -3.730630330310305
37.79878256981071 -156.79225181699925 -3.6883792280411174
37.978232226289904 -156.22061437815194 -3.666683824840979
37.34126383331732 -158.29971944796463 -3.7268854775940805
37.741902937390485 -156.7919604854752 -3.6858855740169725
37.27600986149689 -158.2461244053636 -3.721941423618478
37.10806163231028 -157.35248512392135 -3.6813245815040347
37.149556306789556 -157.30140673711787 -3.681209819035047
37.18025492468287 -157.204866284466 -3.678681714898182
37.18725139415106 -157.1489864453169 -3.676677590462706
37.04865358166684 -157.37595678553734 -3.679429995880411
37.12597289703051 -157.10498229854522 -3.6719615753355908
36.20178149992458 -159.7260949309054 -3.704342169911851
36.21020816271177 -159.68860726851113 -3.7040872858612706
36.19395527173708 -159.72737158947953 -3.703922505718313
36.209815829866805 -159.64361493600725 -3.703212376381818
36.210222848345566 -159.54442243916526 -3.701344744010265
36.187418200251635 -159.44425325229736 -3.6982344680361705
36.16815385858324 -159.405803295032 -3.6964476534645345
36.145035909028984 -159.371932618525 -3.694633950199575
33.78633323114271 -152.52747909187042 -3.6482929958312336
33.83766208998102 -152.4595242432431 -3.6467528588594496
33.887594292044646 -152.38715292118766 -3.6450417206084627
33.898434927968296 -152.28075893620723 -3.6417660767181346
33.89131992612991 -152.15650923116655 -3.637690310742471
33.68593950068938 -152.55560135253793 -3.647963328365549
33.58242782753225 -152.55979602607772 -3.646828865350272
33.49845394793444 -152.53589666576664 -3.6450496883458343
24.958631398710903 -158.80088780950388 -3.688491313166838
24.603003418577853 -158.62501996111706 -3.6788050157671797
24.2462574097536 -159.3935871369207 -3.6920208981385545
24.32463251621728 -159.32926556773185 -3.6917937115434816
24.484244280118357 -158.56553202679368 -3.675395497600122
24.51712315083844 -158.38744329810274 -3.6716083513126
24.02003777598038 -159.57812553454644 -3.693153509674921
24.270140041870043 -158.6769483905121 -3.6748615412823145
23.91106974549337 -159.7038260396834 -3.6945171550428895
23.946486601356167 -159.64148911490835 -3.693423830458652
23.908009870121134 -159.52159286590998 -3.6899314289936616
23.974346340447667 -159.213826220232 -3.6836085229902107
24.03883092145207 -159.09225558439562 -3.681630462380256
23.941530919799188 -159.15371511562483 -3.6815103834738294
23.932439562403076 -159.03268675164028 -3.678415098994502
23.95817920288532 -158.97359590648765 -3.677485623985778
23.960186960759298 -158.91445228091462 -3.6759390965942282
22.73738878866522 -159.8215089780294 -3.6791948861206962
21.93972891724998 -159.92805485433288 -3.669663463656522
21.551978565741408 -160.01726711080858 -3.6657023498154055
53.31663621220525 -155.51282386985807 -3.6037213894704125
53.26252757865572 -155.48396401469833 -3.603731047406377
53.24212248283108 -155.40027334132662 -3.6014619940764727
53.37213179237514 -155.2465217459637 -3.5941916466201764
53.34972607090648 -155.16095985351578 -3.5918777738019276
53.39046703577402 -155.05499104171076 -3.5877236627523077
53.39622599555356 -154.9376476858992 -3.5838188207435886
53.56380506142227 -154.2539685430905 -3.5583691666320707
53.57717037057665 -154.1996186569063 -3.5564262490156793
53.2277364785912 -155.35913347877408 -3.600517177243371
53.110581107925256 -155.4841973251406 -3.606673512875118
52.75476851546875 -155.7595853419451 -3.6220298560987523
52.522871805342085 -155.8661699164283 -3.629645780351305
52.674613417512965 -154.77508512675195 -3.5918109862183862
52.70877744125601 -154.67177140676455 -3.587789071316904
52.74239469328385 -154.61354713401724 -3.585347531816329
52.94689663540444 -153.7762036921293 -3.55362568469423
52.6843414692955 -154.72634292236185 -3.5901237540705284
52.92465104240895 -153.63923136112135 -3.549264704070875
52.5425609895391 -154.86805455986817 -3.5973731771490205
52.29206424239462 -155.19487050683506 -3.6125936735623614
52.31770536957642 -154.99295899279093 -3.605503935875602
52.26798939191052 -155.1402643666568 -3.6113058970651233
52.26854339085364 -155.0754086621354 -3.6091417914556922
52.4465643298401 -153.76248938164565 -3.561995272972146
52.4665368472891 -153.56186994924263 -3.5547554109942148
52.22338592480341 -153.60803915667182 -3.560689247061627
52.19793850647601 -153.54946993645066 -3.5591618849872093
52.09436084824001 -153.36697714049677 -3.554540256863252
52.055216548544294 -153.19375998117587 -3.5491660463566874
51.73757174265789 -153.31631100848577 -3.5590708895928556
51.120193661149244 -154.5441894356562 -3.612310771074885
51.168378646474494 -154.31367766132857 -3.603672917067051
50.98773316737136 -154.31525350591514 -3.6069299544078124
51.00523971168755 -154.0560566282461 -3.597673234217127
51.01194436284231 -153.837681782361 -3.589869217656352
47.18873523715848 -168.6528750594724 -3.613454410173492
50.81499569557798 -154.0699848926599 -3.601488870522445
50.91837859866555 -153.7136075064401 -3.587142578700985
47.11638963837395 -168.64888695376112 -3.6160845709975025
47.03345691332162 -168.7066339935654 -3.6182642632179514
50.33148286679284 -154.15440761399643 -3.6128789450873713
50.06909066601993 -153.5851598079525 -3.5981841449878953
50.033082719439015 -153.5228506631922 -3.59693343862956
50.295742172157674 -152.47424648266596 -3.558600245550391
50.01313998552216 -153.12624219676067 -3.584844923969581
50.08803774608943 -153.11976419305373 -3.583071727922727
50.05626812539812 -152.87680946765025 -3.5759597135808225
50.14981384447043 -152.67237850345637 -3.567744090536471
50.22770352536155 -152.57150624713452 -3.5628994862478844
50.20448061609539 -152.4912284661342 -3.560756188551061
50.22595359408048 -152.4289751029609 -3.5584725850933534
50.26274925812186 -152.33046245627995 -3.554538165935986
50.28207264005258 -152.19351205420006 -3.5497272792824672
50.316369627887134 -151.9669177563259 -3.541822550968966
50.31559999040494 -151.91702205251974 -3.540082559458419
50.333672726828446 -151.80080206910318 -3.5359601128337865
49.769488538678544 -153.62524035806885 -3.60535215910736
49.95118389854833 -153.08073310028934 -3.5845172230992253
49.98625057993423 -152.96891869177634 -3.5803623026427362
50.04265743044782 -152.83971249471884 -3.575153221471859
50.05345260784619 -152.78544156987405 -3.573085633235541
50.2956370166261 -151.8817397528083 -3.539444409664631
50.258142134539355 -151.70621107397562 -3.5344249596083075
49.73779028995637 -153.60492509096753 -3.6052229334334136
49.735474159333215 -153.5232851747761 -3.6027628955403013
49.74689766245196 -153.41041024592684 -3.5989520767087693
50.0045213189705 -152.30583006095202 -3.5586952541334713
50.06476424684786 -152.2102159797945 -3.5543254931358916
50.206423151764895 -151.69634337054165 -3.5349292418739524
50.06612826603315 -151.7615152987317 -3.53981609991525
48.575527434316946 -151.264845213576 -3.550286908716056
48.47600396535473 -151.3137754004914 -3.55354930572985
48.481958263997484 -151.2535503846593 -3.5515344875963066
48.50129455346297 -151.15142963662691 -3.547655512214192
48.49499794516885 -150.73663275375517 -3.5335244642218884
46.845017890505545 -156.7827918143297 -3.5560381173785442
46.80223005006765 -156.76675669435963 -3.557497357249558
46.755928514076075 -156.7173512580775 -3.55756237952282
46.7757173976044 -156.5628000480559 -3.5493130213113986
48.26513376091587 -150.9444440125043 -3.5447466900167024
46.73922568745342 -156.65754390539854 -3.5556080466086284
46.75696224241763 -156.60493684405196 -3.5522343000126946
44.72479860970494 -164.0641811232409 -3.5374548811344786
48.054252751845986 -150.61524221565105 -3.536985759956843
44.58846428584776 -164.19420285431622 -3.5410566947720348
44.6443234534406 -164.09997037940607 -3.541160631115093
47.81685412648686 -151.40748213767756 -3.5681859516036583
47.694129078511054 -150.8898376262844 -3.5523960363454226
47.62306601896444 -150.92018483296553 -3.5547701152224334
43.84777921929472 -164.80000383759872 -3.550125601650076
43.7457026097508 -164.78019599471324 -3.5553421205283757
43.75760416225436 -164.7610647001862 -3.555778454159077
43.6407886873129 -164.88339977610764 -3.5545052127633308
43.674410431192996 -164.82042103743115 -3.5562627105892735
46.91890869365371 -150.4994588744694 -3.5513008563566695
44.603037180924154 -158.70154341299883 -3.6331400897457646
44.63086783569812 -158.6755735814255 -3.6297782102415823
46.29019046541695 -151.0890005006292 -3.5820577586448605
46.332533391555636 -150.95961296473715 -3.5769305436583454
46.287046910042726 -150.93809989035265 -3.5767972173530027
46.159522053475726 -150.95910233020183 -3.579506481252811
43.38358802739877 -159.85362634101912 -3.5768518249678083
43.44995134629303 -159.67341491534756 -3.576855929375755
43.37114445774783 -159.83502923969698 -3.5793566574959588
43.34186669403304 -159.7615274544967 -3.585860946521058
43.372031720691865 -159.69199504486414 -3.5824529996553878
34.70240764128169 -171.55746229772606 -3.6046162091153775
38.01399631312371 -156.6144613733302 -3.5483746276257446
38.05048803755172 -156.4922472420648 -3.542053158640269
38.053413865542694 -156.41937290661684 -3.5368593183814054
37.87437417952385 -156.72312389999516 -3.5460280341034207
37.93929291701626 -156.68227105709985 -3.5478596625839973
38.00805081648143 -156.54971794063323 -3.543317185853192
38.01548929249799 -156.5196017865255 -3.541650114822839
38.04983806662134 -156.40145516093358 -3.5352773856402173
37.308361527194336 -158.66156699199732 -3.5967957277610014
37.3348889776014 -158.594167068286 -3.596980621935335
37.36823008199951 -158.49380838691562 -3.596529638582053
37.83155359335163 -156.75778483257062 -3.5452637035859396
37.2625751647813 -158.65859981105797 -3.592836009737229
37.33376719560231 -158.38441742472426 -3.5898131919017304
37.28599640668574 -158.30007358807248 -3.5827050129354387
38.35243016166266 -150.26086794005144 -3.6056216599113924
38.37590955311385 -150.22988261380735 -3.6045120385701903
38.292061582160684 -150.28213682495516 -3.606209742779917
38.197242722505074 -150.25094585915687 -3.604721712645097
35.531655315416245 -157.4437861245147 -3.6086733359197205
35.56768878879549 -157.3139756114779 -3.6057567950760268
35.615479268423584 -157.22990431645152 -3.6049735103416465
35.615894558430774 -157.13255361279639 -3.6013381451323077
35.455593771093774 -157.49983133625534 -3.6069406723803157
35.51692995854145 -157.41366795650418 -3.606891318770479
35.54353824598987 -157.36106444777556 -3.606283781265462
35.5775588204187 -157.21883211988194 -3.6027310084307116
35.603210371002 -157.12937306344193 -3.600609146608582
35.582113816949196 -157.05557225015428 -3.5967835774596386
35.34160185949949 -157.55941352981264 -3.603422386620613
35.37712689012804 -157.53497914696524 -3.6043087662289723
33.413688154616196 -162.1382941269779 -3.6018781143467953
33.14626458953812 -161.8713871721713 -3.585849077658741
32.01625591190829 -165.91871066970435 -3.558720311455935
33.08613906407131 -161.84580080960097 -3.5825198558448026
33.11226997736233 -161.77146425682474 -3.582974116298976
33.11070684717084 -161.6609452913152 -3.5814203253558086
33.01660813037903 -161.59384100239774 -3.5759409483493583
32.72947132602129 -162.1447094040363 -3.5691044002495174
32.127352078617186 -163.90583794672352 -3.5565012335564674
32.47963862850561 -162.36119943987828 -3.559494481487837
32.57273266844726 -162.23864103084702 -3.5624509473330104
32.600308528168746 -162.15864236075527 -3.5628358519521273
35.56825123309563 -149.9018910527431 -3.5771427981807786
35.622412713488536 -149.81032741374108 -3.5742903761672347
35.64892497852971 -149.74591066210698 -3.5721946739229082
35.64375877502174 -149.66486234995043 -3.5692513821184315
32.03748811410483 -164.01640059914934 -3.5529711040360032
35.46624397379319 -149.9519040374143 -3.5781425772257656
31.876032271942385 -164.25805289593336 -3.5471827615507903
31.892465619531663 -164.16082470919156 -3.5473741944180173
35.36039128518608 -149.9583957484391 -3.5775477275832728
35.25964145067971 -149.90878240249467 -3.574997730969975
31.84550496829008 -162.6680334001925 -3.532395854034247
27.200601596706214 -152.58897517857127 -3.5590743642208245
27.237013917187554 -152.487435742116 -3.556768142638051
27.22742558721834 -152.38924968573636 -3.553875560558727
27.17068165264616 -152.27262745896564 -3.5497797159833424
19.17807402615476 -158.2978466402391 -3.587273600944015
17.51716352290014 -158.828485110856 -3.5750088726376292
16.213212346384857 -158.30195075589467 -3.5420041886655773
16.066799154582114 -158.6465019562185 -3.5482642067863717
15.620983101342727 -159.7202794706956 -3.56763778832925
15.414162888973905 -159.44836087857578 -3.5576844404550694
50.523566291439565 -171.60091086624413 -3.4491730329518253
50.338472488065044 -171.44148381152812 -3.4581669050967836
50.39385066856353 -171.3314361041795 -3.4563564037996057
50.70536872188411 -169.92321119979366 -3.4486667713088366
50.752816294617574 -169.3343116750432 -3.447972835056005
50.77983618140313 -169.21967819577023 -3.446891623080231
50.88455977402753 -168.8359724865462 -3.442557730691767
50.904103540146735 -168.6511073584997 -3.44151401697664
49.9914474380049 -171.23080974826718 -3.475245770295892
50.41652154072123 -169.10788687429726 -3.465124143188258
50.49186929331489 -168.6315647339748 -3.462423152510491
50.23958251596266 -169.27024900064913 -3.47351790226662
50.31275961654606 -169.13555973930235 -3.470292281088783
49.818369316144135 -170.8137094388406 -3.485607525918911
50.23105622580064 -169.18735404940108 -3.4739493117044575
49.968776549256624 -169.32048610788763 -3.4861071702869584
49.94702785940548 -169.22119111317147 -3.487773366706443
50.03752291222622 -168.4824222078353 -3.4856314508892225
53.71958573722321 -153.27711267412533 -3.5228410910995325
52.9254549025483 -153.14036404060548 -3.5320978548404587
52.88732919763712 -153.0602469692307 -3.529980944351111
52.820872840792305 -152.93988359780798 -3.527050903468442
49.40546449717041 -164.449650037642 -3.51240664504895
49.394065852659864 -164.3589775988417 -3.5124427811291112
49.55047155738938 -163.007769806147 -3.490080107276553
49.53400351369581 -162.9456780440547 -3.490208227398849
49.56935885933322 -162.83728248719714 -3.48665106814268
49.633089859440716 -162.7964740828218 -3.482083210813715
49.52800598015982 -162.88893048519492 -3.4897605189950367
49.6443286199157 -159.67682950137603 -3.4998094741454544
49.65678666739129 -159.57477365074874 -3.496916594027385
49.71325220963456 -159.52124913928373 -3.492624633954227
50.987985467542174 -149.54503078967755 -3.449470075534554
51.050348799911376 -149.35137117679668 -3.441854341998006
50.352393986344474 -151.73433043213515 -3.5335795392560216
50.47361507453542 -151.2663439984943 -3.515870783550423
50.524515492426936 -151.1389967108948 -3.510805486301923
50.55748046523789 -151.02805277157034 -3.5066215236839753
50.56834671008627 -150.93640998413227 -3.503327790762952
50.62474653201758 -150.6564276307977 -3.493034560367952
50.81205764919902 -149.87547311623138 -3.463621168299502
50.93007583701357 -149.666342448168 -3.454412025168945
50.99802278933772 -149.46935066128023 -3.4465798138686363
50.528764064016684 -150.88770948540244 -3.5023782287447065
50.568172925742644 -150.56176061236866 -3.4910049951613313
50.589857136734686 -150.48450005471747 -3.487890689417243
50.61424256637747 -150.33950452259694 -3.4826142291891675
50.66677700954019 -150.23148851384335 -3.478222694049801
50.65164526846665 -150.18595064270545 -3.476820933422436
50.7046164739679 -150.07299688370156 -3.472249254252211
50.1825428149212 -151.56335234875866 -3.5311655884772466
50.275274243078584 -151.5406269093719 -3.528558768569453
50.50640371512927 -150.4998006631299 -3.4900695050819373
50.244020235751485 -149.57773515715735 -3.463620800531307
49.84139317132356 -150.41990303247076 -3.499346939317237
49.90531711766019 -150.41620891812815 -3.497931692753694
49.77368651353081 -150.3989310537907 -3.499768243133991
49.72422651336163 -150.33189189099807 -3.4983869528176035
49.707947008136514 -150.2601873096809 -3.496178632345573
49.67196657395332 -150.23651669172938 -3.496169618802402
49.80809719310267 -148.89726057228026 -3.4480506017905546
49.52011688155973 -149.0312672105997 -3.457384231882938
49.16134913409572 -148.41745061093016 -3.4420795436653813
48.50677046117933 -150.48768793277785 -3.52477359540341
48.41163584116976 -150.48560215370193 -3.52633153688044
48.71823152826887 -149.25770168494958 -3.478780013608554
44.8063130876941 -164.08693009398453 -3.531537000601423
48.518823647100476 -149.3796177475905 -3.4863126727580576
48.67591999553876 -148.5088816070767 -3.4530603677318377
44.76913978773645 -164.07131051559048 -3.534344469799128
48.41542430746131 -148.79956606199238 -3.4676434608382354
44.5985111964233 -158.850402569766 -3.521145732794138
44.61051432311333 -158.7048011387446 -3.5149253505872418
44.626889309714315 -158.68571724292522 -3.5121967776870484
44.570140944007264 -158.7875406683173 -3.522742824539949
44.570714949940424 -158.74756617939835 -3.521348457670596
43.54340977913698 -161.72917170611424 -3.4380675546355004
43.479745334268664 -161.7509203547426 -3.443343050270385
43.41756420011983 -161.77388541343407 -3.4482930730673895
43.41044780284992 -159.86939889881575 -3.4866620350639312
43.44510267731351 -159.66718447737912 -3.509691785044196
43.35863056364074 -159.83330042870102 -3.4981398360128937
43.331992183951684 -159.76116742491664 -3.5060565512133763
43.37745471317215 -159.68801167776567 -3.499604226680281
37.695671020445374 -180.8433468328163 -3.472542279217779
34.35410234993206 -180.12862841191122 -3.452664405898608
34.27911908528929 -180.11671017300006 -3.4514051272109354
34.85336673095234 -176.86848280826027 -3.5194843100304687
34.78426797429657 -176.87132027937966 -3.5179854253224447
37.43708489382382 -158.57064982421304 -3.4691341105972198
37.46026154510987 -158.51262207759996 -3.469775761034333
38.04412602046283 -156.35111363199897 -3.531119280965545
38.04377838384949 -156.3042148150474 -3.5275470672421694
37.359399501164106 -158.59119170284094 -3.4605218234374786
37.39763257129447 -158.45070177906348 -3.4599193265190897
37.38566171467869 -158.43521688571775 -3.457849227888309
37.09871813691797 -157.36739647550237 -3.5251283085097134
37.159619433830194 -157.307251126903 -3.526800549971619
37.18194740734127 -157.20750592771344 -3.523136499782333
37.15369797268365 -157.13631199880683 -3.516944305396727
37.025807547157676 -157.39886659798452 -3.5208931214145713
36.24964261783774 -159.62261064255668 -3.527241684550418
36.276290664635425 -159.55649827060057 -3.5285350714331436
36.20887779621336 -159.65530510310361 -3.5242688840002985
36.21959737165798 -159.50140759184674 -3.522881637959467
36.16122866354475 -159.481090696468 -3.5176218170376266
36.776705799475636 -148.2510011849157 -3.5244258892784237
36.799269445880554 -148.2025446487121 -3.5227537218587006
36.71975660191116 -148.32801752913016 -3.5270228847933627
36.615630430404835 -148.34299299137646 -3.5270710424421505
36.52797500631114 -148.29541216614044 -3.5248760817654854
31.47273846119628 -163.7191502555333 -3.5249756984772787
31.476633097060663 -163.6131578714804 -3.524233055953447
31.418747588593348 -163.57741362013488 -3.521091285461611
31.396751713118384 -163.54470862842848 -3.520037245445349
31.225034767242835 -162.99475579482407 -3.5062757734656502
31.007868129768724 -163.38169576365752 -3.500172344442035
31.088090342922726 -163.30521468940984 -3.502956833014754
31.11728591100072 -163.16392513240496 -3.5031756147025783
31.007299361840253 -163.04255999956487 -3.496616820721802
31.512809994883153 -159.57323464270047 -3.4663857004650174
31.58041676650002 -159.51721007545896 -3.468518435546207
31.56559907744356 -159.4488856730979 -3.466265420425156
31.515196443778905 -159.4003671317355 -3.462604393329256
30.03940673341462 -163.0691717682057 -3.450385623257146
52.36486533649261 -172.2755086539837 -3.3604911852371186
52.23745137511504 -172.4014511484708 -3.3657007009465327
52.29507366049554 -172.28150666517024 -3.3634845050903386
52.88719690392942 -169.7794667268657 -3.3389727154874658
52.171997207445884 -172.51379827037476 -3.3682775123674795
52.20561025938751 -172.46097194393624 -3.3672465299211423
52.245025338653775 -172.31256142027672 -3.3660496047379302
52.82226118299583 -169.87510552433548 -3.3423951008977055
52.792969738331635 -169.76903777666334 -3.3436039003675027
52.66037265993803 -169.87431411788165 -3.3508143767391867
52.84377924320994 -169.2235874786092 -3.340409398458808
52.8787583815206 -169.18403747948102 -3.3387596265841175
52.83930679527348 -168.93092703701336 -3.34015026283744
52.801043029480674 -168.7603868103438 -3.3418321279693934
52.66374622236114 -167.9145276615547 -3.347013491533848
52.69980813819579 -167.6255227527142 -3.3435353654060176
52.74603622943023 -167.56582342018038 -3.3408090652870555
52.756094379930914 -167.4164936894407 -3.339386266072744
52.7006475240796 -167.43786478574663 -3.3428654108610814
52.34482979577872 -168.1757395845414 -3.365345183178552
52.20090929342716 -167.92313572653327 -3.3724744225352414
51.72608241943041 -169.11859806061722 -3.399291074665177
52.11108167696468 -167.7866007966624 -3.3767063217110804
52.136530361689715 -167.74575959226317 -3.3754312951386227
53.27502585394689 -162.44096462865338 -3.3494202498928662
51.64453337378078 -168.8282913786935 -3.4032794149413226
50.76814383692624 -171.7457835032982 -3.437284338223021
51.34350445476953 -169.6007997902849 -3.4182740907367686
51.3326178413045 -169.37034116049261 -3.4189199082965485
51.502122449168915 -168.9703743054042 -3.4106317866364333
51.53048862876688 -168.85788182254296 -3.4091946689136354
51.28086720444056 -169.3897975774109 -3.4217664296284545
51.002753631981065 -169.38905445321734 -3.4356940587117064
51.05578419361185 -168.87513686205062 -3.4338147857526686
51.02604458569433 -168.9127774394319 -3.4350345918730953
51.00908325331612 -168.5867636232543 -3.436316066824942
51.483798626053954 -164.8621894366744 -3.3944560661629732
51.47441791975298 -164.091709182835 -3.3865026123530644
50.939535878956875 -163.77695548682823 -3.4152862334335223
44.5344093799305 -182.8993703824749 -3.407619944763787
44.42722383868181 -182.75045000593767 -3.4122527100328224
44.33007585124616 -182.6705082576804 -3.4147217095800997
44.24399560536319 -182.6392088516075 -3.416623542596544
44.16292018005918 -182.6533846073479 -3.4169107684492235
44.07865872839621 -182.65150831422838 -3.4181551752360635
43.92684257093953 -182.79997170079477 -3.4166483919814548
43.99799789878199 -182.68520117878595 -3.418005663320022
43.85286451060614 -182.89871646482257 -3.4150258753095395
51.073026691513306 -148.1892083740634 -3.402063985742272
51.107779803748926 -148.075044293587 -3.3973725018939813
50.943720905814814 -148.10505267675958 -3.401229124656655
51.01090770648222 -148.10612849361868 -3.4003002299769167
50.96929823882435 -147.99945503442794 -3.397364578313426
46.53304297162204 -165.57869641031107 -3.3665564343738295
50.80940368427834 -148.5520488963353 -3.418834748261294
50.99459031801653 -147.6607982891093 -3.3853134794271895
46.416240916173884 -165.57426244428996 -3.3746519387348437
49.14088688749037 -154.60175816085118 -3.33509696036593
46.32831458998108 -165.7271262733073 -3.3753917473297443
46.34547553373023 -165.65243191368634 -3.3768524165263996
49.07850867267149 -154.56586792222944 -3.3361958630712736
49.0042594226857 -154.53620978300427 -3.3381661770996782
48.97917218823873 -154.478806122786 -3.336312944387936
50.67173503693507 -147.56127653351194 -3.3873415712861488
50.581794023210904 -147.58568356411752 -3.389491744563359
50.33350066823141 -147.4072034366598 -3.3874453359316057
50.5859871773542 -146.2890749684249 -3.3444531168197047
49.99348204010849 -148.53599845176248 -3.4324636334191174
50.05795796702125 -148.03957670625414 -3.414111585334486
50.27210444579599 -147.31885575494036 -3.385381312654462
50.25115203342834 -147.17680443488183 -3.380767927326774
50.12100909930173 -147.0090335194941 -3.37703440668733
49.695510023168026 -147.37232143008396 -3.396773541885501
49.5754112372429 -147.3239523928917 -3.397102281174332
49.311740660637454 -147.77427749087016 -3.4169859103956357
44.40084915962435 -166.99278582513898 -3.4206043690493604
44.330590310358986 -166.97859371081225 -3.424032280489692
46.82956606072555 -156.8062653981245 -3.3491501847740217
49.12080774044256 -147.62728562239698 -3.415051436009054
44.20588832736151 -167.0686917748619 -3.4241505043473217
44.247659520335596 -167.01071770111352 -3.425489774804311
46.78791947152626 -156.77914729149902 -3.351038641263302
46.764287248445434 -156.7096308175948 -3.3488744741611356
46.77467122534674 -156.6155429238896 -3.342312800838428
49.06197701109318 -147.62798111369258 -3.4158190088157547
48.920807472326686 -147.66637710642289 -3.419542549230232
48.92097683171255 -147.414630163224 -3.4107020746107066
48.92239251117347 -147.3245855205757 -3.407289672724488
48.91553077012244 -147.2460015635454 -3.4048022553744346
49.03652530667349 -146.9695027476415 -3.3928951423215503
49.0691232421056 -146.82639955656413 -3.3874993002204388
48.83572284825338 -145.81889936396436 -3.3549937034456336
48.483527297434996 -146.96934414334302 -3.401468186229861
48.39247867174912 -146.93128926648185 -3.401473311157189
48.38962656067932 -145.9716864002346 -3.3670733844011425
48.27976069098713 -145.9574560547123 -3.368159392942423
47.64941271902559 -147.22520201236094 -3.4229617968872064
44.654875459334676 -158.91743824488782 -3.396157553753146
44.63491978976811 -158.905783881166 -3.399008747450309
44.59552178352457 -158.84268219185054 -3.403414168889741
44.59590329303251 -158.7459909129499 -3.4000783794299436
44.64926994356098 -158.6818512188353 -3.3891363231664173
44.58195604835636 -158.73335637974517 -3.401874418498096
42.73531227175114 -164.74787594339938 -3.380142971736601
42.657589582425075 -164.64942398451575 -3.3915058453151006
43.35115265717897 -161.68349216574856 -3.3389941869297024
43.38546140660965 -161.63880073297258 -3.339618714360672
43.27094244293728 -161.76223875755394 -3.339990525011329
43.315060187679805 -161.71586562289176 -3.3398945543552943
43.201522087813416 -161.73280834983595 -3.3523954381251544
43.08956165015003 -161.7247306474029 -3.3671597100076918
43.09711528010924 -161.70427123388282 -3.368832446000203
42.906799228422244 -161.7707229948474 -3.3818555863449955
42.92927444563289 -161.7182037870979 -3.386473047745511
43.45379232430984 -159.675246825667 -3.3879039717157085
42.89109721375912 -161.76626836021455 -3.3841009800351856
42.88793266970417 -161.74976481570425 -3.3866584129411437
43.37750238708649 -159.8409876517613 -3.4090696470652055
43.34126746372296 -159.7623014180377 -3.3793122218505482
43.37118747008906 -159.69647685554915 -3.408179185216291
45.594485155646694 -144.74761716941305 -3.3585169612807437
45.6616761084757 -144.70546501086926 -3.356381738296091
45.47353909118918 -144.7905662074924 -3.361522301434243
45.53213824916044 -144.77466814978123 -3.3604731926479516
45.40199749382573 -144.75913501665428 -3.361270999049289
45.335759502575705 -144.7088094682591 -3.36024690789686
45.303333625431144 -144.63317662363482 -3.3575545274775758
34.950685067789024 -183.43247551208282 -3.3975203504692777
42.71924740859334 -151.87801839619496 -3.4061521036936244
34.83601958758436 -183.33963030160356 -3.397841917452615
42.62753872912089 -151.88712452053161 -3.4083769644422066
42.54560279128144 -151.8453298017139 -3.4067130701887884
42.50597099409229 -151.77826515165418 -3.402408670995055
37.95846873156809 -169.04191466602222 -3.3361621729597064
37.90066495371686 -168.98506254372407 -3.337736927745391
37.7797222386925 -168.9333725448253 -3.3371149519617025
42.28923259197989 -144.73804889439708 -3.389254633407811
42.184352470248776 -144.8170367962179 -3.3927522387110733
42.23529241563445 -144.79635684204172 -3.39178394827409
42.11169739316632 -144.78651558823663 -3.391911420555245
42.01678956938494 -144.7361796523192 -3.3903661902342312
41.945772063391175 -144.64556752947604 -3.3871870351276643
41.8993074899058 -144.53345623073565 -3.3830015724097855
37.88895645237691 -156.73417273639797 -3.405235718728185
37.94354068302101 -156.6781928825508 -3.4057778670133585
37.986664568537705 -156.58794426684136 -3.4018754331205168
38.01376310783998 -156.49305902546266 -3.395669274848598
38.022523359271375 -156.3906465333067 -3.3867404441090674
38.016229156319135 -156.3304384133131 -3.380302866726748
40.91711332029877 -144.54811799590362 -3.386763231948822
40.993133661324755 -144.48046954419368 -3.3839369093180682
37.83211671971158 -156.7398022681565 -3.3999241430339318
40.83930359469464 -144.53820252836186 -3.3865964276343887
40.7868560205644 -144.5139044422961 -3.3857434239410815
37.138486149205185 -157.38444773234562 -3.3733617324625254
37.185163199375424 -157.31079000815333 -3.3737703816710525
37.18199939679785 -157.2094095374117 -3.366509242183616
37.06605503458379 -157.4233150067811 -3.367638473922497
36.96744910999114 -157.42209242416027 -3.356307629778473
39.56185983204833 -144.00555312413996 -3.368170177836232
39.38423776782223 -144.08739537731287 -3.3714114259808996
39.29937874278495 -144.01574854453366 -3.3686899171485263
39.21918350316358 -144.02554390530446 -3.3691175736299925
35.58939735056871 -157.32283571612678 -3.399957881582456
35.59022078617456 -157.25766967487948 -3.3969907551032814
35.50967879603998 -157.37665551646873 -3.3958567633144194
35.5460985846837 -157.36450755927257 -3.3982907341352355
36.9200034257431 -144.71166529651777 -3.392539842254653
36.84487759115659 -144.64488081176196 -3.3897838448381776
36.76608710558793 -144.56889707269343 -3.3867274953582767
36.86278744455713 -144.342665316754 -3.378435972444196
36.64099770928482 -144.69481770573992 -3.3910678792540256
36.562357074486954 -144.6237521313553 -3.388180362275744
36.67959762814493 -144.470444784611 -3.382741385686026
34.75929694698099 -145.31017245301143 -3.4058594704417944
34.875759648819525 -144.92503694292014 -3.39234275596067
34.431961415443006 -143.74368751814558 -3.346592837163401
34.227600782904844 -143.71827170115264 -3.3445736025721335
34.1675633731043 -143.72847750628455 -3.344650363284768
31.088012183753985 -145.51500830183986 -3.3861942296715863
31.15377835263869 -145.455423438854 -3.3847208212662894
30.7144895128651 -146.22172054716168 -3.4069253204448047
30.76659802356202 -146.1941771820603 -3.406495748118045
30.79585450306551 -145.86150949847487 -3.3954216717651686
30.91478287902892 -145.53169566477987 -3.3851990876029436
30.750248513240862 -145.89817559390792 -3.396240055866254
30.7159683862552 -145.66704190501315 -3.3880100337717067
30.41248246514595 -146.23286441864707 -3.404346101988592
30.452677325256822 -146.1855120992121 -3.4031426250066175
30.531829386491637 -145.72256788941993 -3.3881734514011725
30.610776587387264 -145.38968333875027 -3.3775213437689757
30.6579440994095 -145.30075012419687 -3.3749059146534
30.43760180901632 -145.70139454280914 -3.38654831629149
30.2296412136728 -146.11044242296973 -3.398398072693821
30.45769036516319 -144.42345151390228 -3.342820536486852
29.796641422891113 -146.201189729599 -3.3970605146102884
29.737245054313654 -146.26833382515366 -3.3986897900326074
29.891264503996776 -145.32819487528627 -3.3685815364720035
28.748411703206724 -144.59280639606112 -3.33239758024056
28.81849267815336 -144.57433499517492 -3.3324783766593447
28.63889859089023 -144.56648896174136 -3.330406632718881
27.77896589070604 -144.73437138648785 -3.3270477454853684
27.712854905294037 -144.76424764057106 -3.3273307490813235
27.54162945851304 -144.78474873809756 -3.3261576531551897
27.62305790343525 -144.76998338568373 -3.3265495073567175
53.891677266456426 -176.59836085137346 -3.2670111577411656
53.75414209330165 -176.66437363207007 -3.2726789944425514
55.40531633587594 -163.3289901501311 -3.2479715142940244
55.45580875221438 -163.2387429839495 -3.244429803557109
55.399152476933416 -163.27404842234876 -3.2476576078088844
55.41293702622097 -162.4824949480316 -3.237869697628583
53.86772544179202 -167.9045952241753 -3.279510274297717
55.18342630686608 -162.73830720511182 -3.2530993015861345
53.74150397178403 -168.0119377736551 -3.2869823205729993
53.80871515820088 -167.92881684700436 -3.282714273252024
55.22325346057949 -161.92654269496697 -3.2401771576473917
53.197124146660165 -169.1676642654352 -3.3216699778822583
52.952426841930404 -169.57842153215296 -3.335226342025398
52.90778021967095 -169.13567089808262 -3.336847070257156
53.657735333613736 -165.08956867323033 -3.2662686548040027
53.409960006536615 -165.18184528064842 -3.2824088664269095
54.53616330336782 -160.9708865259951 -3.2611378059853675
53.35170035247368 -165.09836088319824 -3.2851722455893855
53.14211338621482 -165.4944213556702 -3.302168843912197
53.17961547887841 -165.40904498177414 -3.2989925084420397
52.382800044263675 -163.95406681709593 -3.329271176804313
52.38559209837787 -163.88414518469625 -3.328003175921287
52.231614378509676 -157.93673300922325 -3.3125088316729414
52.2722916555185 -157.8202947749979 -3.306649401448107
52.172725523238626 -157.79052192237683 -3.3110120746168175
51.96006076865568 -157.88799502533018 -3.3256334468304356
51.88753881201683 -157.67012105969272 -3.322528023808881
51.8094275256006 -157.62469859223117 -3.3252856977066547
51.8271883444074 -157.3755475223833 -3.3158937677678626
51.76681326047441 -157.5358693076179 -3.324636372238326
51.788105123074516 -157.43878407711037 -3.3201963145486357
50.75997683801245 -154.1913994236547 -3.235755603569726
50.573753239223414 -154.1211690959685 -3.2412533147831444
50.54607207579843 -154.09413802177457 -3.241133460209005
41.86153742116583 -188.06074644774728 -3.3207460471758266
41.96341674284272 -187.96241967723103 -3.3219206366777247
41.757560608034076 -188.1007851468974 -3.319996171696788
41.65428979521148 -187.99842175488817 -3.32304266767069
50.085024653275 -153.52372664515192 -3.2343478020943164
41.15225821799092 -188.77704072488228 -3.307987206801882
41.04782309072643 -188.81251707249032 -3.307999316130897
48.97880317962132 -154.42483567661577 -3.333673903497405
49.015806861285775 -154.34835156155043 -3.328031142082536
44.87246291140684 -164.12042757817946 -3.3027909294972373
44.82877083494543 -164.09509020283582 -3.307982676350833
44.7078182083367 -164.07202169475744 -3.3195523453627915
44.76120837201069 -164.07333591118825 -3.315113925213071
44.5961160180276 -164.2617558738687 -3.3159630458306655
44.58835551942075 -164.1876486445263 -3.321630187809811
44.64079130853094 -164.1083668059819 -3.32268974269214
49.86431075029816 -142.88402625526712 -3.2337401070318617
43.84294075588337 -164.80571980971592 -3.323728752577126
43.760937993975546 -164.78562426974182 -3.329925490328976
43.658435530521416 -164.8852995095971 -3.3273701218214145
43.69009308502402 -164.8180454393073 -3.3311766076711793
44.66447202317671 -158.92704558889903 -3.2732735580125416
44.61897222044285 -158.90394031047362 -3.281545582656077
44.57876022574115 -158.84697981393174 -3.2876495275942803
44.6024525818656 -158.73355904784006 -3.278890539825743
44.564732478480494 -158.7897916381451 -3.2884430109670193
44.57159833215513 -158.77243196700653 -3.286442658033459
43.46577301733668 -161.750699159059 -3.315878640614139
43.51080281145408 -161.62958363161107 -3.323492987556763
42.64173307648469 -164.20592373120155 -3.237248850182002
43.2769871805025 -161.60262993481462 -3.2361208934454093
42.54738667561174 -164.25980681418184 -3.234873610205833
42.514940029953166 -164.24522430772072 -3.2380621743481277
43.203333586908926 -161.6708959435498 -3.2370826116318607
43.24450607080859 -161.6371160504105 -3.236009870177121
42.486654448747856 -164.25194287202427 -3.2384522771667097
43.081142441990266 -161.67565833748455 -3.254129627729535
42.97135718455053 -161.71877674032228 -3.262520645689111
43.0012998865242 -161.669953985729 -3.2662979228424582
43.43225844290094 -159.67358585130302 -3.3180485556799733
42.89040279767302 -161.7961212272952 -3.260056524570895
42.89771567571884 -161.70650457065491 -3.2739760586461912
43.36949792505693 -159.84135058490943 -3.324617672822985
43.35179965072959 -159.80686373498204 -3.3316020740181003
43.39185666410917 -159.69889395805677 -3.3275179419998304
38.76359056499389 -169.58228493217194 -3.32493374016269
38.66042907189923 -169.60594089023647 -3.3217013056816307
38.70390154206325 -169.42751887061064 -3.3322526416568907
38.44789849885382 -169.81841005072818 -3.3064858591798716
38.51291962032999 -169.7216744474115 -3.312725812841915
38.588102599796805 -169.58202579749516 -3.3218097898446146
38.34706907109509 -169.88700489619197 -3.300825275444475
38.485171225201164 -169.51865118948126 -3.3229968130213745
38.326199552299876 -169.80911759400294 -3.304346077738184
38.34801139522861 -169.4404661054064 -3.324318170760751
38.3129551141474 -169.42450630427487 -3.324595140400856
38.28938382714636 -169.29852308291277 -3.3306271991244434
38.19568841472753 -169.28277263065476 -3.329453474291687
38.24078198963791 -169.26268816785458 -3.331342792395943
38.09704938742202 -169.41379876551343 -3.3202276932157995
38.06655595806198 -169.3169278685067 -3.3244782429268893
33.51488710399242 -187.3505041316286 -3.3055794979246804
38.05645260112371 -169.1580605521582 -3.3326018721879054
33.440059479285665 -187.2408465240897 -3.306303681567096
37.69871620335186 -168.989663951643 -3.3319630081813454
37.41326436795382 -169.45574387437327 -3.300532154843556
37.35218168358721 -169.50778826061241 -3.295970451876277
37.188020583045365 -169.77799531072822 -3.277720555727075
37.155958175856505 -169.69439680502512 -3.28108260873645
37.09007001859163 -169.64335531020242 -3.2815403801070278
37.00129414980621 -169.59449021549955 -3.2813132404214747
36.91582425702249 -169.5912775464337 -3.2788168130604527
36.742613846747 -169.64276613333524 -3.270864747279576
36.81655061959195 -169.62062800564948 -3.274228488202885
31.828157614047804 -189.31447469346938 -3.2470026477844725
