ply
format ascii 1.0
element vertex 843
property float x
property float y
property float z
end_header
5.57258509421857 -137.59700497029013 -7.388564832641439
1.4212576644246098 -136.83301620852475 -7.4371969621064835
1.552768015910452 -136.81941456449462 -7.410213606940444
1.4306603020024111 -136.81465721152827 -7.443740884525616
1.510552822831539 -136.7774119234954 -7.433922520427865
3.8913981335240586 -140.65487573095012 -7.453857629994063
3.8871419044419504 -140.54523503913384 -7.463163240144884
3.8894716688579 -140.4272963224999 -7.478178581477376
4.235941198172102 -140.0737944783602 -7.43910378619451
4.322058744281444 -140.08377253297928 -7.366569912343654
4.5683230506827455 -140.0385157251025 -7.359014382200541
4.6531110079177775 -140.01989782507218 -7.406992566558862
4.7351010209159945 -140.00661732624516 -7.41275620988272
4.966685365070501 -139.99041557327195 -7.410002038165079
4.993443616761334 -140.00820872230602 -7.411396991063169
4.163340370743485 -139.98754789283444 -7.446795553045356
4.212216244054418 -140.0208052914106 -7.427921239996683
4.315988259525674 -140.01235648976999 -7.38393109003823
4.542162176565701 -139.9535451298547 -7.392363394944676
4.604843107422395 -139.95801987744548 -7.3923496887101425
4.720440860834645 -139.9530079591458 -7.439631711728797
4.883793305765265 -139.8716113026267 -7.3825494058888514
4.373221651514435 -139.84817799301726 -7.423261622849631
4.52408305461818 -139.8455123665002 -7.423692109076822
4.841397835871484 -139.81401310789963 -7.34580530572326
4.878176057496415 -139.78946893048462 -7.3678967698750375
4.827182557950105 -139.75956922088648 -7.335084793031556
4.882390907629237 -139.68826891109333 -7.3630134450280105
4.945721266000051 -139.70270139346454 -7.385264487604418
3.759835702018694 -139.79775435134377 -7.448190971338126
4.384094682184885 -139.65047089956576 -7.417532788152323
4.89122592971551 -139.6004119626733 -7.364800071645593
4.939371200547317 -139.6004661432061 -7.392179072321368
4.8903168937171335 -139.50191149844022 -7.400513230927008
4.917079834893027 -139.53638906805534 -7.396427260349033
1.4386165683761334 -136.74277012518493 -7.254143434614384
1.4090813438493615 -136.7064473869601 -7.296363699573169
1.2161387486291884 -136.56464048210194 -7.284516008371004
1.2870458765455903 -136.60058633250418 -7.294362324704716
1.222797308242464 -136.5501549210111 -7.269158576952863
4.351638630871899 -140.16977477153156 -7.334783138978382
4.327996851616924 -140.08954314140865 -7.296879622213169
4.576553478421465 -140.06665880717048 -7.313744551252697
4.627445469068507 -140.0336781611469 -7.32173588801328
4.284360251876019 -140.02174261963611 -7.32761813680716
4.8332638776714605 -139.78366234755592 -7.3211684727806965
4.813425980596717 -139.70704435125842 -7.306856579709438
4.8396001072994626 -139.7575563219882 -7.29955934457983
4.794697977347241 -139.6084129347912 -7.291823127721783
4.830717004271571 -139.63051885349205 -7.306633346836445
1.4283320870864769 -136.75730425254784 -7.182226078433705
1.4793190842218018 -136.78274215931873 -7.170936821067748
1.425125512453842 -136.6904927539935 -7.171837921976305
1.452619071292915 -136.66332215588722 -7.1580655940383
1.327348815687158 -136.595422241401 -7.19651187225971
1.3594238296784003 -136.60817318254684 -7.181736994596441
3.3929064825586455 -140.6968155681859 -7.281396756708766
4.72876078670615 -139.99318576520943 -7.164242319857915
4.968674075559994 -139.9788659136876 -7.137955013060448
5.147929295002577 -139.92819434602586 -7.166746349405738
4.713182183483416 -139.9800294992087 -7.169479026456941
4.92621565599803 -139.91953438347304 -7.149485472751475
4.62691962950911 -139.80198751720576 -7.1947089005854
4.665005344895677 -139.86849696374045 -7.184971745939311
1.1720799657942318 -136.88354533090626 -7.05553194377926
1.2116744646013022 -136.88236683397508 -7.057862920406198
1.4453607952729377 -136.86207739750407 -7.07637773120808
1.4912069710868074 -136.84706865332492 -7.060584380087034
1.1952632474063032 -136.85748902830156 -7.055699082611239
1.4636372001422164 -136.82744118815845 -7.062539811864088
1.4205132183805311 -136.69979718487477 -7.069872928791069
1.4648717031548872 -136.68384920545122 -7.073704042986057
1.3643570116543984 -136.57661265820713 -7.0986623287098
1.3135308500951246 -136.53372329906003 -7.089693018616101
1.3279051346115383 -136.53903075454969 -7.073714439638685
4.737055877232368 -140.1995381967578 -7.111660162626915
4.570230979931449 -140.14684253114723 -7.070990988325029
4.675618599174596 -140.11660637146971 -7.06855427276176
4.721430576729923 -140.14627714763665 -7.102275225621873
5.060691840448554 -140.08770233821912 -7.113416488198005
4.560056733467842 -140.0730080185994 -7.0835582270015225
4.6451280103465 -140.05079067171005 -7.097600812941666
4.708977344070716 -140.0529439191714 -7.128978349304258
5.02813994238073 -139.99142996905388 -7.095267828026824
5.106701200796495 -139.96404874950437 -7.090344360613935
5.008075962986095 -139.92180197566248 -7.062828191450421
1.143460257956224 -136.89535716516127 -7.029739992031095
1.1910988279915107 -136.92845487053057 -7.013536543705374
1.0290492135672262 -136.8621708713825 -6.959242628287456
1.1652857183941432 -136.835469090251 -7.052852485437604
1.4315058538597385 -136.79232837791156 -6.999252002758807
1.4120761899859788 -136.70956731562558 -6.98205482498474
1.4772421510297247 -136.64583774582275 -6.948698883733213
1.553826707018359 -136.674285724997 -6.944464453215047
1.3875516466596367 -136.60275798485966 -6.987360715905597
1.304132027361089 -136.54687171529147 -6.993307809214642
3.6994289980681327 -141.00547638442544 -7.111231393973796
3.7137564518394472 -140.96755131697336 -7.10578885903302
3.728672922058847 -140.88155551826083 -7.102278681927679
4.620178186324327 -140.22850735210298 -7.005984835539675
4.721224641184998 -140.20532521709035 -7.052443359310842
4.575925878277365 -140.16079935148912 -7.025548524761794
4.626759701442705 -140.17301515445052 -7.009914604316979
4.700826544761705 -140.15938972809786 -7.041375204553128
4.9094225273633265 -140.11184573080644 -6.960407209501036
4.540140150700026 -140.09285432297332 -7.010890290313903
4.644167996636979 -140.0832925207992 -7.018636864843833
4.900217759154737 -140.05787634852877 -6.970337090519614
-0.43956494858196793 -139.815539314523 -7.143703567611956
1.4516469586253304 -136.87160809859722 -6.848124900464926
1.0061450112770092 -136.85792458268202 -6.934511813688985
1.4114677762056096 -136.7755992931718 -6.896284171574481
0.8615842578500206 -136.80592559556226 -6.890156596938745
1.3907662166710275 -136.708369022009 -6.873389972722901
1.5259505851522288 -136.64886731315218 -6.9326822792361895
1.398716716645645 -136.58197516384885 -6.909511785819637
1.4747259372171277 -136.60360212866027 -6.876541771015151
1.3532992738591285 -136.54600941396706 -6.898106006728032
4.554466706148681 -140.24009229479495 -6.906752277416414
4.54270171333067 -140.18434455603307 -6.909203194485544
4.818788676208534 -140.09304911807166 -6.94314494381785
4.93923760265449 -140.12374806196823 -6.925161411774811
5.05181939187546 -140.08840339402622 -6.907559866909966
5.090161228450706 -140.11403370213517 -6.881948601662617
1.426118683133716 -136.87410764806077 -6.808177299804379
1.488130719349893 -136.84795790495284 -6.83684949173362
1.3394035028654208 -136.80382587492437 -6.756649412423687
1.4079556335157792 -136.8073403100816 -6.799161574102017
1.472619037418628 -136.825576147523 -6.830318899451235
1.4047089484663111 -136.7297688659951 -6.77134389689724
1.3268362353851977 -136.64329377497944 -6.757451254706902
1.3458207606492651 -136.6476401876171 -6.750900991977267
4.733499823380573 -140.33358898573053 -6.80361860353347
4.4001544312314325 -140.20143440748154 -6.849800377971806
4.944134429967576 -140.1549475967121 -6.782691202221273
-0.46677057125924515 -139.78216255705166 -6.911136217718314
-0.4045419712660787 -139.75161230037594 -6.899480441362024
-0.49810936660100813 -139.75752407992218 -6.898069546700265
-0.39706634041071487 -139.71014479730297 -6.902805317655662
-0.319670075981755 -139.69235703500107 -6.906154107758097
-0.48034945248003735 -139.6314401332361 -6.852433293488845
-0.3743883168732567 -139.55665048627623 -6.853365308208235
-0.4003240069711942 -139.5395786501953 -6.849661570033324
-0.48539164116146116 -139.71121281341672 -6.778736132831538
-0.572661459539638 -139.60198516584458 -6.797405535874485
-0.5831437694617656 -139.5668245795974 -6.777531936634252
-0.5131844417526668 -139.52997841233514 -6.771602312161923
-0.44279092434286627 -139.49976489293078 -6.8014183666510935
-0.6000378965824065 -139.40827013192506 -6.786609242455706
-0.5912853047530002 -139.74329074774957 -6.679882561647005
-0.49495445483406053 -139.71080163759999 -6.735264654475518
-0.4468531348707727 -139.67834253034266 -6.716172695300023
-0.6146707077811855 -139.51929597734463 -6.694269725378633
-0.5490813347471488 -139.51282748423208 -6.722197994444899
-0.6333745237906183 -139.71855494473544 -6.553105468723067
-0.586288090083086 -139.6498176648238 -6.57619388034914
-0.5258960086936617 -139.6134365688138 -6.560924931609122
9.157116042424493 -146.7765871971169 -7.5255363896681375
6.1025263370553935 -139.99074709053534 -7.525556715972307
5.604980922040352 -141.11883475148443 -7.524131661408077
6.084219469864804 -139.1849946509001 -7.524240124305901
5.715047076510832 -139.46711342056378 -7.5241777116351765
6.347333495309511 -136.67110520072592 -7.524042240494066
5.3705610596123305 -140.2762133989066 -7.5247075533727905
5.732517302892484 -138.88626788371127 -7.526719733928676
5.75016030781856 -138.8564157357517 -7.525132238704363
5.574094553302192 -139.02669436472937 -7.525096951060749
5.877274441077278 -136.8829797327323 -7.5247452271196185
5.408241782810914 -138.29935897580873 -7.526255494788719
5.506009527007561 -138.0899835286837 -7.5265832549815554
5.540349412027926 -137.9777530916852 -7.525602146582381
5.577273522374442 -137.82659144627115 -7.5252081169988285
5.590612032244329 -137.79648853586363 -7.5270109157728085
5.803105735694709 -136.63851161697383 -7.525460936533942
5.066184998672599 -139.36571961930275 -7.525266175943141
5.159635646268757 -138.9640396618017 -7.526381799944305
5.188601463127845 -138.93171452731346 -7.524449631284799
5.383595436839237 -138.345962829459 -7.526584889908138
5.7573319757514145 -136.53546251238882 -7.525122054635318
5.034508515420974 -139.38189028502467 -7.525469283279071
5.117076829333173 -138.98379520143624 -7.524030527085194
4.784422585077467 -139.87095908770146 -7.525934363938954
4.922084595860645 -139.10840170800768 -7.52424168111779
5.7646931919596565 -135.61264855487144 -7.524023951667554
4.861449645834538 -139.14236587609284 -7.524671451401283
4.861523229119331 -138.88979455237475 -7.525435971323905
5.431993070643892 -136.73464606786973 -7.523667455774111
5.382124881836356 -136.62237393187874 -7.525827990120322
5.437698251784474 -136.60895408401012 -7.526988341352133
4.741047759088675 -139.20044030927187 -7.525252458599858
5.376264573576609 -136.55340323393563 -7.526145463152458
5.292256086619023 -136.4252067904591 -7.525553324126101
5.241404837337873 -136.3714361844544 -7.525216406830965
5.288743298391194 -135.89907059888472 -7.526724394002028
4.3261689145149615 -139.31809519226266 -7.524458715208897
4.900399989765665 -136.08836031526022 -7.526878621044113
5.003248238933992 -135.71473194694676 -7.526495909668719
3.947930845778818 -139.9223559974409 -7.524499255565118
4.858369321001353 -136.07964087645354 -7.523813430585832
4.933572994746117 -135.69189506897536 -7.524423661467654
3.620317881092584 -141.05832409240224 -7.5244665865208225
3.460483802396471 -141.02243425925738 -7.5249354404227295
4.725781532469957 -135.60272313332086 -7.525080810930353
3.493140596197086 -140.32092249380756 -7.525942543782801
4.68173107886439 -135.5822062921201 -7.526159539201664
3.4481811157993563 -140.30295194576865 -7.524926892372072
4.897117883368838 -134.19761006858354 -7.524864163632896
3.355161140469774 -140.26663864981163 -7.523234376169768
4.74408660816487 -134.17257132262728 -7.524672931444282
3.3361163297347725 -139.80076272601818 -7.524769629321992
3.0596265991600573 -138.85814082233594 -7.524883584701512
3.04090883170233 -138.84280529775285 -7.524392653255736
2.6659041433984525 -138.45198585957692 -7.5235384135104875
3.4555515976971645 -132.84379944901497 -7.524059260172757
3.3370978421881823 -132.8679642349455 -7.5257671654946865
1.6759224889606363 -139.1841258816161 -7.523655059629377
-0.5549988019538961 -142.92131015342144 -7.5247507463966326
-3.197449609839351 -133.92752906197285 -7.52161552726484
-2.9469945166707956 -124.67447580442106 -7.521838811099454
-3.189926898052619 -125.68903487320813 -7.523920261314035
-3.123574249294728 -125.30723052375795 -7.524019431855176
-3.025609977811237 -124.85183523125193 -7.5236451359515355
10.22211423175769 -146.43849210553148 -7.49378584475826
9.800068132960439 -146.89078007112158 -7.523651530242775
9.900092344176874 -146.70211254952744 -7.511998290342625
10.007188249276387 -146.08546732908175 -7.47700763932853
10.068060356905846 -145.98502234439897 -7.4708886325760355
9.711460077524979 -146.82439961509698 -7.521055217905433
9.761241898122929 -146.7286737885994 -7.515189420155798
9.768224792525773 -146.60651032033354 -7.508386420124637
9.793646561531837 -146.41188584470163 -7.49736870940456
9.821378795882364 -146.32465771466065 -7.492257306421795
9.9705844692251 -145.97571230542255 -7.47149983950089
9.940346050017677 -145.87605703745615 -7.466384678817975
9.644117930568136 -146.7892985740761 -7.520011234382499
9.75346704301491 -146.2890730776085 -7.491167431258567
9.825734516070487 -146.02003152103535 -7.475573103759976
9.667198668200093 -146.04225423961628 -7.478691034844081
9.6979709540466 -145.96172790611882 -7.473921945204508
9.662104349674545 -145.9725132528016 -7.474894527202604
9.827898663108689 -145.11690736620488 -7.426571247497808
9.659618471477152 -145.3892470984199 -7.443143606185519
9.63625647688639 -145.09118346515234 -7.427296469118112
9.086251314964318 -146.72775990608125 -7.523804664672435
9.014675960704457 -146.32883842267066 -7.502609413589154
8.868594014993135 -146.49815396778703 -7.5139352679840465
8.80290737032021 -146.45514317168252 -7.5123803053097875
8.735564367961745 -145.6187781429002 -7.466910252559955
7.844784629316405 -142.20274519666754 -7.500299655463653
7.7657649372972255 -142.05487238561088 -7.487501118658574
7.92121603683384 -141.4540843881079 -7.443387337766129
7.763023721751162 -141.6498790970913 -7.455783035427451
7.82755925109945 -141.5259274224674 -7.447283888859954
7.84954181996111 -141.41421595158673 -7.4391837177029725
7.7497384388005095 -141.37534037046154 -7.4345637585610005
7.305610430670646 -142.03605507792565 -7.480319614010357
7.226532981173361 -142.03028453745873 -7.479016234070389
7.431832835272528 -141.47482954181515 -7.437249298700531
7.194859203482608 -141.75511388000888 -7.456352788236966
7.28990670591952 -141.48268452657476 -7.435853976085072
7.135189556062619 -141.73987493770287 -7.454424105045479
7.25769393317457 -139.85062444230786 -7.455245458498143
7.142194074515217 -139.70230749404064 -7.436436329291818
6.498240852327861 -142.11231786001517 -7.479936849521756
7.089020844748967 -139.76375070210923 -7.438848243097649
7.109258855941169 -139.6519646434554 -7.430421508500357
6.955932576500138 -139.77324903401572 -7.432717102567584
6.99726191464457 -139.72273290780277 -7.4304992675021415
7.211868976608977 -138.49867844205176 -7.475168938748411
7.474203948555683 -137.50623767362887 -7.451342866031529
6.849063394029406 -139.84886686213233 -7.434001552806636
6.905777916847084 -139.72595836993997 -7.425998519971348
7.1459959313925365 -138.61355044421603 -7.476627534150706
7.148926842365133 -138.49787420257303 -7.468975026334509
7.371515188630802 -137.49526869821557 -7.440728124520946
6.670858962535451 -139.89985468337937 -7.429921259350139
6.681602082035168 -139.84537838690113 -7.425401946410865
7.003404786955391 -138.53617327033095 -7.457375347662695
7.235507195204082 -137.46936381777437 -7.426321414898336
7.446088000926032 -136.90442603967813 -7.433740205895641
6.5408740239516 -140.0495317889709 -7.438078322216644
6.601419885698075 -139.88585815790455 -7.425283897172015
6.633796221896548 -139.85642763558866 -7.424081170807094
6.797593080128092 -139.27822856506012 -7.499787528754498
7.123743697741995 -137.74502388972982 -7.425295950042069
7.1593941853193765 -137.65209307715622 -7.42515482789041
6.277509909642921 -140.89048238263675 -7.515176593470446
6.428877270596361 -140.06615984912048 -7.434717716050049
6.5126111940953635 -140.00899198048492 -7.432860143979554
6.71113790865776 -139.24658794947712 -7.489200734432423
6.713813973698496 -139.00910395156674 -7.467390821705401
6.733805294987834 -138.8012197762751 -7.451524987680971
6.817840018493793 -138.50839960771066 -7.4373956700814
6.918031040826847 -138.31270026501818 -7.4342586215395485
6.8923049018631275 -138.21551355499207 -7.425793363198907
6.135135191922304 -140.92982224999153 -7.515164768102692
6.213238688636983 -140.8295303476985 -7.506467068945305
6.237072319125887 -140.67732404678532 -7.490643474284791
6.305383376784755 -140.26777357391538 -7.449902238423265
6.3699186202228795 -140.06908749364433 -7.432465384511198
6.4070322527781105 -139.98328383730458 -7.425652856198821
6.47370439420969 -139.48953983440865 -7.494019114826185
6.552679073851351 -139.28146644000273 -7.478935122547741
6.55013119952249 -139.2492266591047 -7.475491017316713
6.623324702280633 -139.00518292932784 -7.458846561478196
6.269017896129613 -140.21424962735637 -7.442940540644888
6.258677677327707 -140.1782199870782 -7.438844191596243
6.432852985080043 -139.40508216302285 -7.481629269071216
6.428822971566179 -139.25444690709296 -7.465665958406512
6.557315114870861 -139.00433534528437 -7.452823627023331
6.542997283331212 -138.9186727851043 -7.443825230200545
6.538500326470088 -138.79688704351025 -7.432943701850916
5.971294768466695 -141.0273074071797 -7.521634536838111
5.968361127045828 -140.92610115044675 -7.510067191736525
5.98696123088226 -140.836480745165 -7.500454274350072
6.046113934860829 -140.63438941789315 -7.479727858126676
6.1116897105933745 -140.49587851412056 -7.466799744813329
6.110838000134688 -140.4191697422365 -7.458531267196967
6.142781511766998 -140.23865128503402 -7.440587844993284
6.111330424919064 -140.1206354670307 -7.427085391995655
6.2133794748423545 -139.6547846552168 -7.492316919676289
6.331469204642536 -139.39029591433044 -7.471783401471907
6.34520211410261 -139.23625658620855 -7.456766230739543
6.368929570159816 -139.1848905960896 -7.453583105852804
6.525367335446742 -138.71737904144956 -7.425141616455828
6.577788973821988 -138.24822619009956 -7.4954011843685455
6.808237965778927 -137.20596740262272 -7.484216323053565
5.837240672368893 -140.980304707747 -7.512911655058309
5.939570214780291 -140.68098435224815 -7.4816830646957
5.985860300738132 -140.48738447314014 -7.461694051431418
6.080587611109657 -140.1552279164916 -7.429497864784441
6.135638846106552 -139.88603990566895 -7.514649681638129
6.108119525626995 -139.84577350158003 -7.507758927272108
6.13500884094779 -139.727607959727 -7.495242271064144
6.149450957126188 -139.61725448070737 -7.483159804785327
6.292138740929861 -139.15358080381432 -7.443862507288375
6.311805918879974 -138.8255826011059 -7.510173743065967
6.46017728750095 -138.28526242360311 -7.482323780567437
6.56645300090796 -137.93641865568205 -7.475123686647636
6.751270155239268 -137.09477919900914 -7.475539660435099
6.7444169019278455 -136.9901930063419 -7.473992562678992
6.8013196660230495 -136.9097225806397 -7.481224597494264
5.776444272656229 -140.9937233684758 -7.513037611914543
5.798236843270855 -140.86881242680076 -7.49914637220365
5.968264116153286 -139.98774302215702 -7.516522042361927
6.04894021608086 -139.8351582860886 -7.502399161089867
6.111616162605187 -139.48535973107982 -7.465026471013769
6.07369310674949 -139.39998929692857 -7.45243126218571
6.097984632848232 -139.30170029361048 -7.44344119133928
6.166635132524123 -139.19223102715972 -7.437312248213865
6.198028425018072 -139.008847317376 -7.516244767285339
6.269409159011916 -138.75801055075323 -7.498039528317297
6.350197973225622 -138.22761424137613 -7.463596272025687
6.382158461973566 -138.15044694911617 -7.462714657082067
6.551291319906083 -137.7363297689521 -7.463852615465998
6.546480348013444 -137.54166355896632 -7.4563986865506084
6.55159964568576 -137.3725019930649 -7.452876702526336
6.6388676144572 -137.2790581038534 -7.462819827186767
6.658144232392375 -137.0744859780569 -7.463107225503927
6.69157050907747 -136.9960209105619 -7.467135410308447
6.696477361982248 -136.8860168110533 -7.467780464360222
5.659104843768139 -140.89666283878873 -7.499138826266928
5.691689977984446 -140.85162721896157 -7.4946341350274714
5.868661812980449 -140.02961514864307 -7.515871355567192
5.898649219948174 -139.907702283631 -7.501776009758561
6.013215089050884 -139.61076351659773 -7.472449939582301
5.966026139632445 -139.4465361383494 -7.449562533149604
6.045478820549251 -139.3749259595136 -7.447408020805985
6.068747675423409 -139.31019710728947 -7.442021510516295
6.070046889433596 -139.17584635814785 -7.521522595552496
6.10244454100528 -139.09655607450446 -7.515443492203636
6.070167248224665 -139.01528584227643 -7.5020046812655
6.189942746953423 -138.77378573512337 -7.489765241247028
6.215909163791527 -138.7267900872875 -7.48826310859541
6.256414673391948 -138.4780185945943 -7.47048208701967
6.196598649571416 -138.39027412813738 -7.455434793744564
6.238292969661105 -138.29148908791757 -7.4533455673436375
6.273021923547715 -138.2224005869513 -7.452956860058665
6.2780889244904206 -138.10073441609993 -7.445535484265014
6.3492101525241615 -137.7481119802868 -7.43694080463221
6.447876797811414 -137.56438576379932 -7.443771517205753
6.509595291283163 -137.3116296963556 -7.4461481574283
6.492142491673104 -137.13059560834182 -7.441735871949639
6.602047729433935 -136.86099793007452 -7.455772979037559
6.616401406842396 -136.77696610583473 -7.458171714574138
6.694744329303372 -136.35224231046556 -7.475038107009193
5.772156027869625 -140.06310386814533 -7.514671835641943
5.865578909767744 -139.51635578982894 -7.450533573300629
5.864236843099695 -139.43973726847898 -7.441261717874644
5.907132872896282 -139.37702300089455 -7.437088904958549
5.923381573225601 -139.26410361469897 -7.425493152686402
5.955406512203426 -139.16401008332323 -7.507256404332274
6.006156690767442 -139.12019728880563 -7.507379235847317
6.020681302554341 -138.9257395221425 -7.485792360517823
5.9915524716245105 -138.8445001057697 -7.473138180954332
6.062430660200059 -138.78484664414881 -7.475260210463851
6.082502685729272 -138.7003743620388 -7.46898178067704
6.092526972024224 -138.5490642137499 -7.455638492509038
6.117444242892351 -138.47510046895204 -7.452224321971391
6.155746018579231 -138.401904435537 -7.451027594366076
6.1668364503206154 -138.3218009245382 -7.446116737577483
6.201499725404664 -138.22609694923017 -7.443657892201246
6.23652396608218 -138.11880119489894 -7.441107296995009
6.200218840407435 -137.97323573482308 -7.427547800870559
6.256228726945004 -137.91828207699072 -7.432184318947724
6.24273348622514 -137.8295991934389 -7.4260298868615155
6.34969791564993 -137.47881627742333 -7.428191170655759
6.387560598487617 -137.35123790286028 -7.430567401498711
6.5204325044962825 -136.7237072609665 -7.446689630649496
6.543596786817653 -136.64359886501882 -7.450730761411207
6.55130607848187 -136.57445977215303 -7.452851796771947
6.621183645431479 -136.30908767055266 -7.467478983581834
6.602544473825018 -136.2493322173514 -7.467053745268157
6.678524389930163 -135.96517565935852 -7.485589997494608
5.597221176166254 -140.09279659028573 -7.509205119586953
5.706682412415896 -139.9162940127649 -7.49120853976198
5.791981545568103 -139.6077914193089 -7.4566685978513725
5.816762655989702 -139.49241178091052 -7.44416298065678
5.801913422457137 -139.41657112870828 -7.434008839162691
5.837061350684932 -139.37911289501187 -7.4321122692963515
5.8179439186985435 -139.23085812499357 -7.501192420005504
5.911639003697722 -139.16392578039734 -7.502422940714255
5.875210207183417 -138.970933310644 -7.47416996498006
5.9251188896284415 -138.82773682374687 -7.4633382279409295
5.951026684309239 -138.76934196396368 -7.460048627944583
6.019519885728446 -138.6743385052673 -7.458495732028437
5.990583822410427 -138.56719333428182 -7.4443971159271305
6.032031691763147 -138.47127200137277 -7.4408678505909505
6.078707018544955 -138.34534646818213 -7.4363777498597745
6.054144045707457 -138.25481818995598 -7.426181020377157
6.171273161602215 -137.98786061583917 -7.424421261575087
6.350785487570075 -137.10182817968536 -7.5161473746853575
6.380070778063795 -136.95132098538406 -7.522490351052331
6.440433517628707 -136.76249056964173 -7.436224231692549
6.447243387235558 -136.60684392735402 -7.439554167973073
6.480318180609675 -136.4475966509674 -7.44710510291199
6.4878229956075515 -136.30063016035325 -7.452155838926862
6.56119298764758 -136.11318768814618 -7.466892466423609
6.5847854861411825 -136.0216361703678 -7.472976177048931
5.548756588704654 -140.0670938487292 -7.503122581906188
5.5764073852170855 -139.9783277069078 -7.492273819849851
5.5959370591781035 -139.9452939425607 -7.488813659242858
5.6486934950930925 -139.661453602163 -7.454122056932073
5.662694198948235 -139.5842463277736 -7.445103479045318
5.713530110401072 -139.50286686116218 -7.438296044445329
5.690029171902232 -139.42028313689266 -7.492764594965986
5.710147240056297 -139.2975150465623 -7.499241600572508
5.72983516893033 -139.2228045822273 -7.490884289625436
5.794372332127143 -139.14180398111182 -7.486797899392924
5.758899473602204 -139.03729808230756 -7.469348572829744
5.864895305691862 -138.74379003005652 -7.44681465609752
5.890745879488824 -138.66382448243624 -7.441487476300784
5.915736454236092 -138.54363852747056 -7.432668696615606
5.947353285621941 -138.48085688445093 -7.510743952444947
5.931889121190052 -138.3208448342438 -7.492811378719391
5.9539073201928385 -138.19071628476019 -7.4855442834180455
5.992076798603666 -137.96762943395737 -7.476598193019923
6.081489587371955 -137.7471694070914 -7.480969272159446
6.259626916222851 -137.13289553019877 -7.50095289280356
6.230570939594827 -137.05905731485407 -7.496807582844057
6.24565659318491 -136.92970737440248 -7.501225266754032
6.328722928622795 -136.65842535951415 -7.52159065558775
6.328822063865955 -136.6046275092185 -7.4578267345609275
6.461296443156661 -136.35120791132428 -7.447542960124968
6.498520342339175 -135.95945375773013 -7.4660355575595885
6.478694467927131 -135.90706664324279 -7.467986777470783
5.4298695355054845 -140.1590955654805 -7.510393813676121
5.4375779622752525 -139.99186311475745 -7.486982639218208
5.525498957401437 -139.90336978523038 -7.479231549729237
5.555417011818003 -139.73520932158291 -7.458154176327072
5.588244303639719 -139.47169755379483 -7.4952416908880215
5.592031305752146 -139.3988567307872 -7.502437218052737
5.625545154971383 -139.28892504142104 -7.489594174397917
5.641093953912302 -139.20024368150234 -7.47860347110837
5.687481257541595 -139.10612944732128 -7.470636969649038
5.69508801652382 -139.04699723784205 -7.463602951957785
5.7236070087135325 -138.85919786511872 -7.52162063680919
5.7451131126656225 -138.7028036703666 -7.46606446400546
5.754000841320709 -138.57619550017824 -7.490271483293223
5.847950302597285 -138.3189778046354 -7.4787621089024645
5.903570322018686 -138.14445611524772 -7.473519434020267
5.9128523192039735 -137.97866822170548 -7.463738571427366
5.934230145138711 -137.9445112195241 -7.46538855100856
5.954154632455948 -137.80839407922005 -7.461779139515487
5.998691986656633 -137.75811839855456 -7.467244818423856
5.971482523743733 -137.61961181533124 -7.457744440160416
6.098859383536176 -137.40370535355362 -7.4749796631261
6.105547443642271 -137.01436063890532 -7.477174828079768
6.24430259596018 -136.7364355887866 -7.505963912550941
6.277871061489586 -136.6448482897226 -7.514262367455654
6.3545930917605356 -136.3635072427701 -7.4347821310627245
6.411190790586551 -135.886156561814 -7.460048058742557
6.405334577903895 -135.82153288456075 -7.4662288224185
5.305793714525249 -140.27761063070935 -7.522282208112888
5.34810631175749 -140.1179605372207 -7.500771042983925
5.367317024364078 -140.0414875627494 -7.490672186354346
5.375415297005647 -139.9211480176521 -7.47393794164807
5.436533973688576 -139.8494195085518 -7.4670433759852655
5.407697476603798 -139.79672714302475 -7.458217988981909
5.4237432999116795 -139.7034233233554 -7.446307964178748
5.473848588344961 -139.4300214278799 -7.4963099285105805
5.5166806640835535 -139.37615656163047 -7.49204195251682
5.509596374679537 -139.2295605265329 -7.4696445778420975
5.504827460696972 -139.20506857236913 -7.46563366819992
5.579612079359665 -138.98530892921815 -7.519499106281287
5.603258250492123 -138.89916448334225 -7.509957969229874
5.638615822461466 -138.8098461809505 -7.502404908980289
5.698736506853562 -138.58320295900063 -7.482416276658479
5.7125592626718085 -138.49636233576834 -7.474671543166608
5.794436386683161 -138.09348688103012 -7.451273199626375
5.82732904920076 -138.0054079108188 -7.450843571062888
5.853803604521104 -137.8911951501434 -7.448666660403359
5.863526538478316 -137.82288973359266 -7.4590355367029755
5.913256408122601 -137.69893069150723 -7.450344276368543
5.8941061249473155 -137.4742876406764 -7.4413757820490405
5.999282899686122 -137.05800495685895 -7.459318409239126
6.0428923665165915 -136.89552324567723 -7.4698127700797174
6.098055009666273 -136.79021968819603 -7.481552765003893
6.187695510836024 -136.64113278163245 -7.500619837852788
6.135447609209356 -136.55563109930046 -7.496348904460848
6.184958944121545 -136.2286482196619 -7.520838693038825
6.329170184969065 -135.86954205234167 -7.4551389121815905
6.357513387383437 -135.7647508657243 -7.462783568462994
6.346740718806786 -135.69697067550882 -7.470080860112347
6.561353357489901 -134.66319622992268 -7.423854673074991
6.581985390235561 -134.56175179809404 -7.43089306642752
6.587337033505998 -134.49752571434445 -7.434945815746999
6.72183276004429 -134.25996113739768 -7.456595733154446
5.223367335614645 -140.2963587525384 -7.521915181569891
5.235756498740046 -140.25580194247587 -7.5163322685426035
5.2621790555278425 -139.92494514663377 -7.469117646164527
5.36886558043257 -139.51482213365998 -7.500639162085726
5.4266457777222 -139.4189164469175 -7.490414948936481
5.375268187688216 -139.3305772864028 -7.47222430548011
5.450477617666428 -139.29114879113456 -7.473075601933507
5.450649511895237 -139.1682100343149 -7.454985299136807
5.474308942526093 -139.03972332399363 -7.513840666458553
5.541462606456291 -138.95444908304486 -7.509537306519604
5.527155147095509 -138.90076071321886 -7.499496350859375
5.55995533621481 -138.6427534802774 -7.468394366958156
5.597817217233588 -138.60537434876207 -7.469454793309228
5.58504753631034 -138.4144983986294 -7.445344198386382
5.62773071596045 -138.35360681984486 -7.454379762672861
5.640303093991993 -138.28646097798932 -7.46072288635456
5.665732240453559 -138.16378401851344 -7.434995509864109
5.708394885312547 -138.056234263441 -7.467940470454334
5.7253276321913456 -137.99317407969951 -7.493833081507953
5.741874356896335 -137.8752024289243 -7.483736458918544
5.752151959561473 -137.78148997293533 -7.495380877642638
5.798478976322121 -137.56727944724378 -7.426912285553758
5.81500538800731 -137.470916058263 -7.446002402857736
5.859653084528224 -137.37758985421604 -7.434581320267602
5.884692560931446 -137.19038865432915 -7.515997611839311
5.8995504253768685 -137.06405565288034 -7.522004155127554
5.920305557399894 -136.96154903163188 -7.448758419181894
6.037601737303358 -136.64216669313075 -7.477986137967202
6.140151712562976 -136.2114800564683 -7.515676492053981
6.16345688351599 -136.14769958981898 -7.522931915729771
6.20666919300554 -135.92458591181355 -7.439468757388946
6.205384405557254 -135.8152418557832 -7.448197673589412
6.222772100933451 -135.7042854354966 -7.457344646145021
6.549011547319825 -134.63433098122866 -7.424782002782382
6.531536243032333 -134.54974795767757 -7.42869376375398
5.1894015616672915 -139.95330760716897 -7.470011863829696
5.186101398418964 -139.71229802467062 -7.491373374072131
5.20154401394814 -139.6486113505522 -7.509918530983715
5.254919351337558 -139.5156986642099 -7.491670141754556
5.313148146303335 -139.21485641596064 -7.523400891752687
5.365053833056747 -139.00946916448535 -7.494696243168871
5.420445243448408 -138.95889068801998 -7.493822414259136
5.41532622821497 -138.8263895935642 -7.472772405533553
5.466614329765099 -138.64219808084297 -7.454262919714779
5.538523691568832 -138.5569423031411 -7.454343709598119
5.490025947790553 -138.4286379560739 -7.496436425441939
5.54775847658933 -138.36216257738894 -7.433865715897857
5.559286517375059 -138.25995433378452 -7.481244396488616
5.568153951072272 -138.14861774438538 -7.4671255003105985
5.5993950344266175 -138.07332836833987 -7.481720005879441
5.645530107503859 -137.94197678696568 -7.481832074257509
5.650158635181482 -137.85144522564417 -7.477583264705585
5.64251342667778 -137.76899278293178 -7.472160804679512
5.727661794476569 -137.46411338703865 -7.482487464492103
5.7655445189789996 -137.27938502005748 -7.490832361300468
5.789383312218742 -137.1625744717546 -7.497760462666351
5.808023297047013 -137.08791194417978 -7.503477256542324
5.832274444055939 -137.00042010685783 -7.511195793018673
5.903235399962153 -136.90913313872613 -7.447540279630104
5.976657343004209 -136.37635506760404 -7.482850868295429
6.049670200185854 -136.33977839730954 -7.495262160668563
6.016431104230428 -136.20061476492327 -7.499514326539902
6.166405292028545 -135.78155946072755 -7.4465497401161596
6.157816449976659 -135.7053493324972 -7.4509996776593415
6.165532975447482 -135.5097184660257 -7.465978925079033
6.433475810663473 -134.45589024562796 -7.428888946805422
6.518609955319068 -134.29608340164194 -7.4432817354827785
4.993000039016417 -140.0812220498828 -7.481657333747185
5.1005843928652155 -139.7922072210048 -7.442886620513301
5.149231139607448 -139.7354904919471 -7.493107092691399
5.167149478807097 -139.60177599752137 -7.499541388427934
5.1746096902042575 -139.49720850260576 -7.482507920324768
5.195827983978163 -139.3885070124413 -7.4662327397985875
5.1776406234883865 -139.30107352077923 -7.47151947258576
5.223675525007222 -139.17791398893195 -7.506490421232048
5.229111656479307 -139.10005852198077 -7.493250871052521
5.265737238149556 -138.99949865890116 -7.480429714026458
5.294840502635468 -138.91393428293463 -7.470113522243296
5.304833684537194 -138.82129130293652 -7.4732034347568845
5.337257633989788 -138.71541596807492 -7.5101630273429905
5.384729915860326 -138.61509194996202 -7.492802920787606
5.3918321058958645 -138.5637915095126 -7.496318526682137
5.436632252448716 -138.40343228326012 -7.48298470119653
5.4451948025263555 -138.30855553204972 -7.47334268339322
5.48031950656998 -138.23717037470968 -7.481304385318077
5.501083734058227 -138.149592917066 -7.483500367338375
5.5060067785213 -138.0158586002873 -7.4951426404367245
5.505662298646728 -137.94463890504738 -7.494494272461223
5.55370359815214 -137.82793273706466 -7.505301605285497
5.57448574249614 -137.7545709371326 -7.478458566367666
5.562963441210267 -137.60468612916213 -7.450515450833647
5.603648130163749 -137.53943303521746 -7.457828147239196
5.62111850895977 -137.41945132429083 -7.460716892988666
5.685087305294065 -137.31731060241137 -7.474259493889552
5.675024142573113 -137.24304613524868 -7.473542091831898
5.711369030194293 -137.1591636562398 -7.48260050334573
5.7412529358955435 -136.8372525393796 -7.501835065998294
5.793908515216737 -136.76122639538272 -7.481896074830284
5.790460754224998 -136.6819143014402 -7.520271161404899
5.88998961584503 -136.28362673522687 -7.47564234998849
5.944010827714463 -136.1873933456578 -7.490157524551279
5.966458276532418 -135.95898253499178 -7.512362430703699
6.0013486290008355 -135.7856660213186 -7.4303748566673935
6.0515331372626955 -135.70295399148088 -7.441101490176005
6.058392024195801 -135.6234623705765 -7.447673843361587
6.085245026646385 -135.48120264746152 -7.460978300360108
6.064357213140124 -135.43940749826444 -7.462420297959008
6.135440186606642 -135.28903087579374 -7.480622973920314
6.154257255607373 -135.1869321001952 -7.490571562664837
6.163111185587081 -135.09616373377122 -7.498891216246414
6.160407252234764 -135.00122873234733 -7.506758049773905
6.192331879244391 -134.89164307837763 -7.51877125109046
4.939471820207201 -140.08033838649249 -7.479873426437651
4.9379087275004805 -139.94187027051044 -7.458822164506999
4.998692826960173 -139.7990256232515 -7.439650120546932
5.088575469634915 -139.36591203759102 -7.454190009981232
5.110377825268517 -139.2695866531154 -7.511153649616366
5.129388163099163 -139.16789898798152 -7.459472035942771
5.198532252045889 -139.0104651145369 -7.473989098145963
5.207264690763348 -138.88603760197034 -7.5142579307331205
5.233871793141851 -138.80801666946044 -7.508614340329776
5.290695178095918 -138.70571173536754 -7.500501204125315
5.252040058026708 -138.59692295592163 -7.476096858716238
5.254083070562806 -138.49119079573217 -7.499661998559358
5.330057657484057 -138.4242260200067 -7.465337467468834
5.358570251551714 -138.319301990169 -7.483432530862813
5.390026697732028 -138.22160441213333 -7.49275271824877
5.380984314340237 -138.0932318285506 -7.477956118549081
5.472840906286258 -137.9338355325101 -7.506111949189444
5.490266678767401 -137.7968033564876 -7.471951954250115
5.486084490699601 -137.71981006673877 -7.454193653536709
5.511009658474574 -137.6475157914955 -7.4407754880257535
5.532284900695709 -137.52699606281996 -7.443085243294008
5.566876952761251 -137.4165467883686 -7.449766050230941
5.553261119772016 -137.34240200173616 -7.489027824487079
5.631761903691048 -137.23556114612137 -7.465096048540603
5.6125223771693395 -137.15265312508066 -7.463541006058224
5.636276424859818 -137.05484327846207 -7.471604403629257
5.630666016323793 -136.92230767311946 -7.476805123157963
5.6841102301208615 -136.85489817458983 -7.490372922215512
5.723003809022485 -136.76002246888254 -7.464021686290343
5.678551301676001 -136.63146270612205 -7.5042231887698305
5.722153020846761 -136.58019344173755 -7.435088424457678
5.819471658912757 -136.41891944321367 -7.458427458129159
5.8183869867085125 -136.315047974198 -7.465132867173737
5.829837466842534 -136.2561467262719 -7.469635360087902
5.821797201943479 -136.16570234604956 -7.475549896910013
5.850119499477911 -136.02429900154155 -7.491887370424822
5.862829624406524 -135.97109198612492 -7.498434966134584
5.942473012010567 -135.71647056272926 -7.430058674960843
5.999347552430194 -135.58488432702663 -7.445266005995157
6.0377925253462 -135.49892672376097 -7.455389126004599
6.053879017960897 -135.4014277604141 -7.46456281558608
6.104199265348203 -135.09835042782572 -7.493964774682235
6.119103406208716 -134.9730307117808 -7.50597186359074
6.119193835714487 -134.91307015283778 -7.51125953053661
4.858777337619523 -140.10250180375058 -7.480948831205007
4.840719988593979 -139.9960618527792 -7.464113707072338
4.8214848781603745 -139.901831334059 -7.449143983777238
4.914763675745574 -139.77935449431524 -7.433613194881309
5.008153742249566 -139.34751499897828 -7.498702472010862
4.969525518579351 -139.27192654351407 -7.49762771628086
5.030077362399284 -139.1777186104384 -7.485399546333297
5.083827766120407 -139.07665315486318 -7.472315187744972
5.105322378137041 -138.968048598174 -7.519268682947511
5.07953218443201 -138.8799613965201 -7.497948097597584
5.160439794711394 -138.7632000343628 -7.488605935919474
5.138662335422463 -138.69115317997478 -7.4722380947589295
5.217824242167902 -138.46004744259488 -7.4871638101452875
5.212804754758437 -138.3941678075739 -7.466676189691457
5.226661981228238 -138.3190425104687 -7.487133799640175
5.252980512082246 -138.15781042251643 -7.473076759229061
5.258364586271698 -138.10378696426523 -7.468684045659421
5.299431895361714 -137.9858601961006 -7.467818741157085
5.338913280112272 -137.87201470366767 -7.469480406425784
5.358039059644023 -137.7564951896034 -7.468484366042399
5.364716753006371 -137.69443132449948 -7.468089549515695
5.3812992807438205 -137.58585678692788 -7.460858000350227
5.411718489730125 -137.51034564789526 -7.458869822638254
5.443739807929053 -137.41741443365544 -7.474846890071457
5.469779074209027 -137.29775322843628 -7.486189037693961
5.477555305019907 -137.19126243114476 -7.48279121406126
5.495303281604337 -137.11820135072608 -7.44221459263836
5.558933319646389 -137.01484697709984 -7.458803127783104
5.5602473658522085 -136.9415284876166 -7.462799458518887
5.576085333092244 -136.786010875095 -7.475218007913475
5.601385323704613 -136.7259645716877 -7.483870162240484
5.657886605519825 -136.63556652461412 -7.500346740805973
5.65046490457916 -136.5175060587183 -7.508620147491899
5.668036393826681 -136.42957456842183 -7.516623311647261
5.708956738902741 -136.3090279360121 -7.4501508368658875
5.724972836453103 -136.2454813130625 -7.456138156930918
5.7608198699529 -136.12613714156143 -7.471388750919865
5.779316139455462 -136.0519582678283 -7.480588336915462
5.790909908934148 -135.93289742583994 -7.493479857490273
5.799191163524019 -135.7751401644051 -7.510401825854021
5.871201059518157 -135.6885506931513 -7.425834462478225
6.0415798659166065 -134.8700671337981 -7.50931662261443
6.003174014479756 -134.80615073097283 -7.5123963923972195
6.194303313443383 -134.29121523027868 -7.427324706223262
6.253438187515423 -133.7642813611563 -7.465733591339871
6.277535087267884 -133.65831306493521 -7.474117343915275
4.716985104060059 -140.14236774470405 -7.48384204366416
4.77054178854536 -139.82929300678342 -7.436593855983655
4.850142942598732 -139.73359334139698 -7.503618336865319
4.914482893002158 -139.4084242125229 -7.520157817007841
4.935731936173134 -139.33204633866134 -7.506502217046675
4.931519446861748 -139.210161454373 -7.48195459713446
4.933357473802873 -139.15195173057134 -7.491576176779009
4.939733997866059 -139.04583505298334 -7.512719928873292
5.013743681214875 -138.95797136834614 -7.50406928364179
5.07801518915987 -138.70079432993754 -7.521487761137859
5.092802813540693 -138.59718421050738 -7.504070692363974
5.140903607886142 -138.4544624754437 -7.488788716312509
5.166547832379331 -138.34307233099395 -7.477019618211239
5.161527179919487 -138.26302722773136 -7.464750421707099
5.1697829250162375 -138.13299098795042 -7.450718697467414
5.163320219102776 -138.077036107913 -7.443269614459825
5.236156825742141 -137.98640394889458 -7.45253437531959
5.267658415004984 -137.88801178081155 -7.453082646320423
5.316912799938427 -137.66533371511852 -7.455653713673828
5.325564321208492 -137.57951422704053 -7.456536689368122
5.352566305776113 -137.49431812515402 -7.462808223083545
5.343830157649544 -137.39404989059773 -7.462163017059325
5.39700920480016 -137.27855471704012 -7.477915378573457
5.425958411207661 -137.1609050534175 -7.489670208718406
5.403670201994912 -137.10349313081906 -7.4826352839105255
5.4276406761597045 -137.00961744071876 -7.49933531250999
5.487555644833017 -136.94073388055983 -7.4494984901437595
5.48581218663201 -136.81047114664378 -7.492038399255194
5.520541299585551 -136.70921444590093 -7.471139196915937
5.501347164264354 -136.61627836195012 -7.475407050844096
5.592308869453451 -136.41048301382904 -7.493223733704609
5.579485946161953 -136.3067023477752 -7.512120196643562
5.582971839537148 -136.21642396413202 -7.523170006708145
5.616109964406406 -136.07486283012017 -7.458804811084004
5.643197008394436 -136.0124027597919 -7.46824120212514
5.672408416968882 -135.89486869389256 -7.483684899042238
5.743107699411667 -135.83363948507753 -7.497989099493994
5.722962705508649 -135.65186623318505 -7.515287530436525
5.929924243625341 -134.85011956849965 -7.503189562085636
5.969716020879184 -134.776563417591 -7.512807814500543
6.069867901304032 -134.18882687138472 -7.428642915904355
6.1748036367851125 -133.86611018910932 -7.4553939730564345
4.546440417280606 -140.25648607020207 -7.499301945907986
4.594230535631039 -140.1614585475477 -7.48478016734597
4.63257200174529 -140.0934866628483 -7.474645746513162
4.658567799533164 -139.93643945596247 -7.450451167120986
4.716511922875359 -139.56027210784498 -7.465395362896499
4.7461993986447455 -139.51710404391986 -7.458938875561623
4.781396230158707 -139.37079687288977 -7.434431895894582
4.790652037344865 -139.2820096018159 -7.483956154313888
4.835865831547759 -139.1943346785964 -7.46990127275981
4.858445589518659 -139.0941166446809 -7.513393374750878
4.900550853199189 -139.0310003098065 -7.504486337009519
4.851154476769555 -138.88617665232096 -7.522913966520045
4.913839164506759 -138.8027275072634 -7.513639100138902
4.923794632723151 -138.74468617881698 -7.502304568842648
5.107346305950589 -138.14101872910254 -7.4368556711013465
5.133564460294167 -138.06240685565976 -7.434706250069088
5.287886548184349 -137.35416002035748 -7.4500092611043325
5.312912809567467 -137.14590554557242 -7.4652209745962
5.337794593177172 -137.04880277021428 -7.477089836438374
5.368072611784419 -136.9850364395635 -7.488245424660227
5.367416530939967 -136.8542333632991 -7.499176977626417
5.394139746512667 -136.757853228189 -7.494658324397626
5.402115305861946 -136.67435945894968 -7.485174758799615
5.413825954891586 -136.53625740779623 -7.465921297477279
5.446636697466905 -136.49280918152414 -7.473141190025222
5.503419765921924 -136.37398117822974 -7.492827233820477
5.467936552845755 -136.27024103593862 -7.499778648544162
5.5126998055674745 -136.18686913244 -7.435531881009363
5.530003743515183 -135.94604860315198 -7.462486529372997
5.5912763826126195 -135.9171418631075 -7.4722804247538335
5.652127785500678 -135.7900611038693 -7.492585187472552
5.638904398487238 -135.52459029945177 -7.521178449957411
5.841765651072675 -134.9913034919241 -7.483840348530302
5.812789316963655 -134.9279218828075 -7.487799641412302
5.837211707123382 -134.82250664488438 -7.499488907880891
5.832561650090789 -134.7330102344599 -7.507805583616052
6.033648152080709 -134.16468551580135 -7.428763959065228
6.106642701768566 -133.62711049513155 -7.469668573440727
6.163870839533789 -133.55377047497385 -7.477082022347988
4.523436097350039 -140.20745959046275 -7.491223724207336
4.5069122354639335 -140.1002464833138 -7.473952147059056
4.520931340275408 -139.98634166962097 -7.455983420221685
4.547494503786532 -139.85740491056615 -7.462322483575904
4.689385041622321 -139.57098724644274 -7.4661124530764775
4.625928596205395 -139.4752148707883 -7.513716742515427
4.741119470036928 -139.1860721471841 -7.521815094277719
4.781971625523276 -138.9095281214057 -7.5180982657540945
4.84321980790005 -138.78456595448407 -7.497521030554346
4.888101595027917 -138.69188901254418 -7.484301396268236
5.182172311775446 -137.0928478784612 -7.440219466419685
5.217117153492815 -136.9813371384318 -7.456702199442702
5.309202421231603 -136.74152002209317 -7.496244936579459
5.320550892439971 -136.6639898400526 -7.495482657696998
5.362546537690414 -136.5769884935062 -7.484404451593837
5.362903117454487 -136.4571626070587 -7.485145518790228
5.39388816609358 -136.37449970966827 -7.476317556900157
5.401329794691909 -136.24155120971434 -7.493831203798712
5.461679376960023 -136.13571615457286 -7.515826267187345
5.402669348844496 -136.09688750105968 -7.5129663699405205
5.512479408650983 -135.97820657321674 -7.457123737900049
5.563747477903226 -135.58233836929944 -7.507100159270848
5.7573013889602205 -134.9054977916208 -7.486262719861675
5.727729896397653 -134.8160912405496 -7.493059395953732
5.791083832162857 -134.75025916826522 -7.5034822705819035
4.382795151520975 -140.1483007704001 -7.4807080826451235
4.417963553909807 -140.03582274944966 -7.4628356652594645
4.467814885712971 -139.97679883657787 -7.4538312781088
4.486976415368288 -139.90159069557214 -7.442063502075247
4.599837911984524 -139.46576301499329 -7.510145836770481
4.702388731908447 -138.935933776204 -7.513484386769226
4.720241402340921 -138.92197907272546 -7.512355083726689
