ply
format ascii 1.0
element vertex 834
property float x
property float y
property float z
end_header
5.2872708450641035 -140.55344458379028 -6.484239577266417
5.2881159793979196 -140.3582986721089 -6.481410634498582
5.122623229339609 -140.6842250537745 -6.479005407665908
5.118852363723603 -140.6561337745715 -6.478579958571772
5.186805029817254 -140.56367044198313 -6.480270999494905
5.2594155056426475 -140.3683314969272 -6.4804774762107495
5.249841931681616 -140.26878722140484 -6.478503386741664
5.396357174140221 -139.82286575512933 -6.475743569103728
5.049782126746807 -140.6736307966224 -6.475874003888933
5.093580256814771 -140.6175778025898 -6.477013716612822
5.038218590068328 -140.29690843386305 -6.47053023446923
7.761347160583125 -128.5817403398839 -6.49338419565811
7.549230094659811 -127.31843726119597 -6.469617101319621
7.395888987934079 -127.1549749010506 -6.469690342282542
1.6037703261089042 -124.34901484815818 -6.51630910054506
1.52193688417678 -124.35563860895898 -6.517256525200014
1.5222974771709588 -124.00846614722198 -6.510714146033132
1.5404306380460007 -123.86664259202509 -6.508003175412499
1.5733737194758888 -123.75792506987605 -6.505288856113668
1.146410977768971 -124.11367330249962 -6.517572949319905
1.076251203514591 -124.30644171686946 -6.521941226964304
1.078452802649979 -124.14809841404347 -6.518800704825334
1.1615217590668987 -123.79756175095052 -6.511513426868376
-13.17729056437506 -163.6320340750205 -6.521058832751663
-13.279579082687086 -163.570968730372 -6.52622608211984
-13.449079611483885 -164.14287270860382 -6.506893491458946
-13.287114570836756 -163.43560285041204 -6.531492222590114
-13.500453684387473 -164.0441563160939 -6.512415674161012
-13.56902009742036 -163.52009507756176 -6.535002345951575
-13.66465365020543 -163.45904261546653 -6.539342339863307
-13.815010724316444 -163.4378101133558 -6.544018451072894
-13.7775042972503 -163.26664277505682 -6.5496374343383925
-13.93855724327788 -163.24999095087213 -6.554351787658984
-12.828581162408142 -132.24344487555555 -6.550340356706169
-14.079651043161611 -131.9660590428706 -6.537486246703774
-14.91893152183572 -132.6645178509068 -6.523323139932632
-16.889164830924706 -128.71817005789552 -6.520777693002423
-20.899386636300047 -131.4303876566721 -6.4588417581636355
-17.78670835198808 -115.86643144163104 -6.4745941843608685
-18.263922894458528 -115.99566563244295 -6.474198138056035
-18.601770869253198 -116.06355712436921 -6.473859746650488
21.533882336219335 -152.99953283190334 -6.369877160485287
21.40592617624462 -153.01656602728679 -6.372151270327032
21.444442064816883 -152.98565355914562 -6.371914436431689
21.626639853104777 -152.34131322724014 -6.380534420594276
21.478390062710474 -152.3121984597751 -6.384026682686032
21.56921775868759 -152.0513417383067 -6.387305114329173
21.491448651238098 -151.9016319685777 -6.391741008523783
21.295228145925858 -152.53175662219166 -6.3834704272928295
21.317460946512597 -152.23994530774272 -6.388566252716248
21.44547176123998 -151.63170989173395 -6.3979726662001415
21.452883092197958 -151.52288608581065 -6.400007969356369
21.501506199251388 -151.44468206080413 -6.400654830541196
21.17182557894717 -152.3625472167247 -6.389114132678777
21.208967179831106 -152.2107095953819 -6.391300197362421
21.371039904162146 -151.6889300446074 -6.398269770007413
21.4281559298067 -151.56214091077263 -6.399713906833927
21.395653460896902 -151.42271602203553 -6.403132363289811
21.406386944959035 -151.26389786395814 -6.406113784392557
21.4447407233636 -151.20620638836124 -6.406574376757519
20.92948729401518 -153.23400789835162 -6.377971598109611
21.09123655523635 -152.23223498380867 -6.393225168423978
21.04084453136833 -151.7737203450693 -6.40301576527464
21.06928021844164 -151.73853071582437 -6.40317007144569
21.285123622074053 -150.84999278982033 -6.416866233248575
21.2669202890608 -150.7292329499979 -6.419708493531904
20.784316006738024 -152.24005153105924 -6.39920798559035
21.194454917873568 -150.62651723013863 -6.423205050956249
21.338374237682896 -150.01007167271115 -6.433706051774483
21.270333068647865 -149.89348353093374 -6.437459509305839
20.805570779439165 -151.3054454558775 -6.416789530895921
21.03773395443246 -150.11539519490876 -6.436864704047225
20.792167503906335 -150.65682009674651 -6.43007945306975
20.994542455748565 -149.65234912463802 -6.447653412481681
21.101830935529847 -149.2025583120209 -6.455804814194473
20.961205444212155 -149.35437705431576 -6.454840697004634
21.023310320933376 -149.1129813256044 -6.459196554578177
21.036511787749145 -149.05312469239615 -6.460334788622684
20.48356600765065 -150.94760751019675 -6.430080958929488
20.865115713525864 -149.3448852808929 -6.4567498257262095
20.683757956398 -149.282866091915 -6.461320498561586
20.42629065230991 -150.04974567535376 -6.449439668847032
19.995322741120564 -151.243352426691 -6.433840802877328
16.375433121305818 -159.95526093370984 -6.39402185566871
15.354509945375039 -163.3500267699625 -6.383609138176934
15.285607526239648 -163.35700873198704 -6.385570262757211
15.308840019099064 -161.5213893146797 -6.4070592188392235
15.208493838650115 -161.5145960200915 -6.41032298891119
15.121033545823 -161.40779140876288 -6.414235668262425
14.992185804458861 -161.41682673216152 -6.418161017441457
19.900645424363987 -137.33762748509233 -6.371319914320982
19.835110135048083 -137.43215597798772 -6.373097337804971
19.82115229736292 -137.34633654555282 -6.3755985613819375
19.702162798805908 -137.33793663552026 -6.382630283253379
19.59699245705072 -137.3020016537151 -6.389479406710273
19.490068355388075 -137.5360744559693 -6.39110219584455
19.481824813231864 -137.31751788195515 -6.395738684149932
19.21202557533343 -138.03567969858537 -6.397114154018215
12.89032969609207 -163.39981846978756 -6.463378070913933
19.08793196519716 -137.43551159230694 -6.416108723056466
19.038076739963607 -137.24746161433808 -6.422714705851661
19.01824858846312 -137.07898286890986 -6.427056341545719
17.83878646672853 -141.89138839060095 -6.391207779515346
10.55564145911484 -171.8825583823408 -6.447043391488081
18.124728123649255 -139.66862677247548 -6.426874993747906
18.100134358537773 -139.6490602088836 -6.428834156745651
18.78198334181481 -137.1315745629585 -6.439401570661709
17.77966661979875 -140.3407941577036 -6.432092590621491
17.530948606391213 -140.88626241547396 -6.434244131054171
18.17611277177846 -138.171560891106 -6.454365045573821
17.362617939652498 -141.22901012922796 -6.436124045318586
17.987591109962672 -138.7628002456281 -6.453618940094069
18.136491641894175 -137.92175693261404 -6.461320410034795
18.318613999896073 -137.21047688342125 -6.464287370417659
17.204570178427815 -141.33717502147334 -6.443028191332316
17.368490219245295 -140.86393580089373 -6.444462469230216
17.97827810668722 -138.20578162459583 -6.464945901471908
18.06023010715719 -138.06380685450935 -6.462974898684652
15.959062100659382 -145.31153141364078 -6.451669711652353
15.813662404264917 -145.57015002340273 -6.4488924495722415
15.936314215779728 -145.2088729281447 -6.456648905381697
16.582514713050966 -142.1466175864644 -6.460835894561158
15.641956335268112 -145.4236627722175 -6.462846892517534
15.111879295642401 -146.25353009824494 -6.4556825652754295
15.122534725173825 -146.22053074665538 -6.456505773431662
15.072627400515684 -146.13957167762064 -6.462133772478198
15.203878054348282 -143.2238554567837 -6.368659727087131
14.9790338055027 -142.49150971131323 -6.403892662232597
14.954000992358765 -142.4836253533887 -6.406429863526209
15.323608877434298 -140.23275467314386 -6.385754573346446
15.249910958463548 -140.24222073595863 -6.392079971099896
14.771133975465082 -139.44650722493554 -6.426515200557878
14.631810261102022 -139.6572847239567 -6.439365937392263
12.225557858088534 -148.93273519942696 -6.46465935392348
13.506744077431403 -143.13561834412502 -6.4422446015671015
13.35194553857291 -143.53899126364956 -6.4552963505465755
13.867338456362479 -141.07810689653434 -6.376173676931319
13.924606682501341 -140.9717807150962 -6.366962006762374
13.328303822063374 -143.2371409093481 -6.422219068673539
13.680886321898164 -141.09750688656374 -6.396995015371807
13.5919046230491 -140.59766338962632 -6.389663916592534
14.44340007995196 -136.99905576273372 -6.417877713939533
14.647939085107105 -136.06515441779462 -6.388279639784152
13.363423754703039 -141.25126584568756 -6.4356083224733
13.378724354178596 -141.08007582348338 -6.428365743335726
13.273536364042483 -140.90318870226503 -6.432821733842693
11.339719537033785 -148.25852688047019 -6.3664448682926125
12.91544641599377 -141.62589611829915 -6.39689813783099
11.245836845989928 -148.3209119389422 -6.36504905517585
11.308353557936368 -148.27089862139806 -6.366680011758733
12.849136527255082 -141.46529557737477 -6.395547140861701
12.896620032855244 -141.3388356802914 -6.3816642274388595
13.025271127732552 -140.93253354268603 -6.458368638836802
12.614792209739793 -141.86668605051133 -6.4497444186917985
12.669659683882632 -141.40596666050703 -6.413407053815159
12.55363646786465 -141.52968519080807 -6.43548991498672
14.21946346767988 -133.51685414729948 -6.366445132629658
10.93347133139568 -146.916886597763 -6.374804783695095
10.886323768461457 -146.93947480727525 -6.373775680183179
10.872787269276266 -145.8435797670034 -6.423022224433793
10.946458209647783 -145.66572280914232 -6.44771598884694
10.933841979989342 -145.65399743604846 -6.449933280435551
10.847932245992167 -145.78582509337988 -6.4325049350289625
10.84661273826057 -145.67003293000488 -6.423741370994407
10.876240036482832 -145.63701048306658 -6.45435457490428
10.647371145810972 -146.01980853522628 -6.402026059190519
10.639172190284667 -145.98872852120002 -6.406880440613352
10.755238922391923 -145.76840501303482 -6.437709049834808
10.790787994466099 -145.71729343804492 -6.444592733108649
10.511718692514107 -146.1948586299968 -6.378027284718885
10.58799399243013 -145.91198473231393 -6.419385999429933
10.621483115780656 -145.8740674596588 -6.424541190612047
10.229670780824126 -146.99786819420282 -6.38414582436642
10.297376677005245 -146.54843043783757 -6.434548049403357
10.386318330074412 -146.53166303656343 -6.4348063616351885
13.497594343784622 -133.18570894395253 -6.396661485135654
10.287581084600498 -146.5441110816464 -6.4351776941884875
10.310008685377749 -146.40639089099565 -6.45060537697631
9.565145581137283 -147.94140179556922 -6.446268244196501
9.893681568742352 -146.77104635367778 -6.414479300818858
9.549688138410378 -147.91113772878714 -6.448955213154541
9.681764187122837 -146.98099478115174 -6.392599880204976
9.759567262876185 -146.91667149179563 -6.399265638672389
9.86924864274283 -146.18792715007015 -6.38008495500843
9.615847275293468 -147.03083527572625 -6.387393346279743
9.648171810971155 -146.72601461026662 -6.420898590475244
9.682870530584319 -146.6899060878487 -6.424745817782175
9.726842150591665 -146.4669757413789 -6.449115176121705
9.74002533705525 -146.28015907458706 -6.365358194273067
9.838651293341435 -146.138602350509 -6.386702868191175
9.489394416891466 -146.98368030094142 -6.3930386932390455
9.524248832159532 -146.84237265103548 -6.408426854670554
9.584215687860352 -146.6269440384603 -6.431817882970371
9.746137691524886 -146.24366531523677 -6.370620002623071
9.728158672978354 -146.13135041435956 -6.386047215251128
9.766643903564674 -145.75759897288154 -6.438453006499682
12.93613218949362 -132.73083572397957 -6.413378636007365
9.526524318218778 -146.66810540295353 -6.427388468163885
9.5217174179032 -146.63714123083645 -6.430720089990022
9.575404599417535 -146.20802477540616 -6.372496182832139
9.720532358926844 -145.8930557435689 -6.418860730456695
9.686597265625505 -145.80268636766198 -6.430332624445532
9.729752066057323 -145.7698650971377 -6.435888110723356
11.52903029775199 -138.11166902111475 -6.411147524682306
12.656584602526628 -133.46364512814117 -6.443670166551283
9.510613168542061 -145.95388168544932 -6.405357604651899
9.585789054092674 -145.81293271738042 -6.4262704948000655
9.6418660534253 -145.74581595955198 -6.436842306925216
9.642857513660497 -145.61788112588698 -6.367835703055191
11.334401029047326 -138.26882759312883 -6.429073771984423
8.851124425236874 -148.57836549030245 -6.409628321770853
9.285909900397197 -146.81934687946224 -6.410624431477808
9.27378067330164 -146.73608710023944 -6.41943588966956
9.589061131675575 -145.58448353487987 -6.370400171426539
11.315565420920551 -138.27162962256108 -6.429999788289607
11.457388901765336 -137.6453430002093 -6.3868384650228
9.31495912036348 -146.14434059647576 -6.374364546265466
9.401301066247468 -145.90848582156255 -6.408054649881711
9.42448375821538 -145.6624080096455 -6.440613822657292
9.437399833680939 -145.52524320850696 -6.458387974093144
9.441898773465986 -145.50590793036415 -6.4610060247147025
12.800540220686237 -131.53952435745117 -6.391414405635043
8.59531729467267 -148.86705502995719 -6.39142006565055
8.97532375045628 -147.1203882178906 -6.377119068750022
9.330873219760901 -145.63271693018515 -6.440665620324347
9.32791856378882 -145.5436301488261 -6.440389779241433
11.25555697848303 -137.49279532735122 -6.386354851707331
9.143808595238966 -145.96118434157788 -6.392161639300137
9.142273422701313 -145.93730997967882 -6.395124572698758
10.889100788790483 -138.4458420867519 -6.456905519643264
12.460349951578253 -131.85576713034686 -6.4140625742458575
10.870910201912354 -138.42622859165746 -6.456330226020813
9.903220100298338 -139.7154571396774 -6.412815012490403
9.93697829539756 -139.6218714214451 -6.404245649137663
9.945094058117716 -139.54019790955928 -6.3968537969769965
9.806147244722979 -139.68948369372492 -6.410658824136807
12.160334579028413 -129.98878486857865 -6.381968746695381
9.704206091604183 -139.74706080411733 -6.4156572938857535
9.744149777019093 -139.7073046937888 -6.412229760663465
9.632508560090036 -139.7141933367095 -6.412508605301609
9.585301338898908 -139.66805717483484 -6.408285040382161
9.5456594613234 -139.62400896524647 -6.404209170110198
9.840223613471943 -136.7704214340008 -6.387428178339309
6.761994504225167 -149.1261781500914 -6.390503296965187
11.151200548334902 -130.53083323361238 -6.435097624257166
6.534588584954975 -148.61838514268675 -6.426589213387013
6.516287271157029 -148.55107538464713 -6.431242708413506
6.5120979208754175 -148.48787169101158 -6.435538930525925
10.826726173576015 -130.18677465966286 -6.438767755969237
6.3404191762540405 -148.53566198109647 -6.432520506092708
6.466634914806117 -148.09552142235236 -6.461756985175552
6.446087210462644 -148.0832841159942 -6.462615321649195
6.1784960584393644 -148.79714496781224 -6.41505275148677
6.249182302280074 -148.5813688286612 -6.429498294278606
6.29727941872441 -148.49748004681825 -6.435155489841809
6.375365702842462 -148.0909941137446 -6.462000921722643
6.3011302848557715 -148.10048871561312 -6.461389098925146
6.039220425149605 -148.31805441955763 -6.44685441578336
6.057213407187853 -148.2513615355137 -6.45125382653127
7.884257656306306 -140.00736069205547 -6.389240214247998
7.937586744264593 -139.98040689111338 -6.389821277923907
7.741509094776829 -140.07392091947588 -6.386919176693859
7.794666511119576 -140.0327718329936 -6.38681324981886
7.6112138516343375 -140.15721019177897 -6.38563485899653
7.670072955077217 -140.10879775491495 -6.3856223334921465
7.5494197797122595 -140.1546123727114 -6.382364568048192
7.453863863061571 -140.13275530273654 -6.376226455988922
7.376170021763317 -140.13047289288374 -6.372075032450564
4.6146364730342695 -140.70440636344145 -6.4575119933537914
4.584759755760621 -140.71701391238742 -6.456380109014387
7.710890615027109 -127.21790477039575 -6.462983501943206
7.756435550237409 -127.14163570241043 -6.460165573704534
3.607967899287889 -141.05341294017646 -6.414098781623137
3.6347004849207556 -140.97581822017852 -6.415170815903293
-7.69441102574822 -162.5811637616423 -6.432783837137557
2.403620443009169 -120.46621591595243 -6.426593283714231
-8.07370794686721 -145.46248483092734 -6.398332170578851
-8.08787494891165 -145.26459553310042 -6.4046969961356535
-8.01931864384808 -145.12380639972935 -6.410278103571873
-8.169752622744067 -145.33768251143886 -6.400885299813319
-8.080192125128335 -145.063398000539 -6.411081000670226
-14.667491314669764 -167.89948531363297 -6.383648518053355
-14.670491542339324 -167.7331532550699 -6.3901648828412645
-14.727196365359326 -167.61416241593722 -6.396766127599908
-14.478181536893054 -166.5723758591482 -6.432958314307033
-14.785253733870068 -167.504825728258 -6.402274277191045
-14.680151175821223 -167.24140729196745 -6.410881189930839
-16.031349758693768 -142.44892166390633 -6.356952740055364
-15.766946495044866 -141.14583183586288 -6.391744419882332
-15.897330945162164 -141.03717294784252 -6.392260010536631
-16.229966330867388 -141.39230821597533 -6.3791107938075715
-16.29523865596585 -141.48088286393158 -6.37586808236799
-16.30325289985242 -141.19224454446368 -6.382442838255537
-16.76217936056248 -140.76087781975883 -6.38466310107682
-16.84381654817723 -140.45542139588053 -6.389671982464778
-17.333686623837718 -141.69891117406206 -6.354554352551415
-17.270825154479194 -141.6016628868589 -6.3576225237563655
-17.256213916562057 -141.20917959015003 -6.366842773352988
-17.39097153637557 -141.489623761911 -6.3585022153019475
-17.225274771567 -140.01069366025445 -6.392834994422968
-17.67545096204442 -140.76806940421554 -6.369973284982277
-17.936024046306322 -140.43345341446636 -6.373233565833223
-17.906706688000227 -139.61310311788077 -6.3903247133422845
-17.815252465590138 -139.2206532614619 -6.3992422814069165
-18.171060992205522 -140.1990291045641 -6.374452792615697
-18.122260108954418 -139.4796909363854 -6.389397882895999
-18.32973171585646 -140.07671661168249 -6.374303735028987
-18.277251599347203 -139.97728344835693 -6.377333942570411
-18.293113633876267 -139.77003532433486 -6.381258390656194
-18.14065411537986 -139.27286940947525 -6.39307160059266
-18.09417177414389 -139.07421744005254 -6.397508701545126
-18.390519500532537 -139.6529492545552 -6.381877049157633
-18.259752585645227 -139.35412206071868 -6.389872424196898
-18.409520047111883 -138.9173136314037 -6.395752392091379
-18.483759726538572 -138.79995122967853 -6.396573920222809
-18.624100995828687 -138.66798924304155 -6.396993784167712
-18.26113677406858 -137.35036139969117 -6.424383564657272
-18.305025863952597 -137.23159961264886 -6.425786171088643
-18.663405271398894 -138.5523781796181 -6.3982684864458355
-18.74531806873232 -138.42734165547685 -6.399401826454205
-18.826423408460734 -138.3113195539005 -6.400020589033806
-18.829770647829992 -138.2055936960796 -6.401993121251865
-18.490184371988345 -136.8679751267692 -6.42843372455086
-18.90315820500902 -138.08451246951094 -6.402769068463285
-18.92645749906693 -137.96979672913113 -6.404549128452841
-18.961587083072118 -137.85489588222234 -6.405758526221622
-18.90000531744874 -137.64474230087484 -6.410151194185031
-19.007496117537524 -137.73470535475002 -6.407261418938152
-19.09571024661791 -137.4922550367143 -6.409906164797119
-19.202555118598667 -137.3662424989643 -6.4101608912060755
-19.184947894933217 -137.26239858054507 -6.41228192660403
-19.334975691441407 -136.89616637802845 -6.415588418306241
-19.45720832980167 -136.75544198754034 -6.416144371026741
-19.442319716304134 -136.5380759691837 -6.419644782633268
-19.651012127200886 -136.37677805716183 -6.418780857384426
-19.292949328804017 -134.99368372180385 -6.443037274167473
-19.823337450141242 -136.2199174743987 -6.418778659793809
-19.801256788693117 -136.11153661570376 -6.4204587539495135
-19.855815908574975 -135.98161309956646 -6.421735246632698
-19.90852865894782 -135.85408146351753 -6.422566163252184
-19.995144363621314 -135.71543531172566 -6.423474304357413
-19.957187995148217 -135.61581403113033 -6.425190755086309
-19.92968524533798 -135.51022696550626 -6.42724852260614
-20.402033389138335 -134.91160486326362 -6.42847221851466
-20.863238177243545 -134.17664358181995 -6.43098416416003
-20.720932307187972 -133.85770795659346 -6.4369747031141955
-20.904166101891075 -134.04103499833107 -6.43227871076736
-20.861863123425493 -133.93553026853817 -6.433883989697376
-20.913409855650993 -133.0601387386711 -6.443252653820574
-21.410112962416346 -134.26536029233975 -6.422282527780228
-21.11054997215194 -133.12178122975124 -6.439695378079062
-21.793823984342584 -131.60654482192965 -6.445810384309229
-21.8495183211197 -131.71265480687782 -6.4443568827938655
-22.05003283498768 -131.3821216834094 -6.444815577732523
-22.021349214432487 -131.26491841639705 -6.445979179279308
-22.06780757775515 -131.1158187129366 -6.446968079085009
-22.183994915116966 -130.80364280229082 -6.448168810929084
-22.11695661146013 -130.56040043781638 -6.4510100283467455
-22.269525977532656 -130.63710328833594 -6.448208932959962
-22.453584360407877 -130.01847500428883 -6.450812833136501
-23.414234876523476 -133.5509173906052 -6.403380233613599
-22.559851767230388 -130.250310008027 -6.447699891067328
-22.550895398643444 -130.1150598293015 -6.449147653683331
-22.636403565872254 -129.80504343055043 -6.4504490394162195
-23.10664505188583 -129.05901104395852 -6.450102187755558
-24.077895136415773 -127.16725448536883 -6.450212575230719
-24.56406672500572 -126.79141840368945 -6.44639147095158
-25.45818621620803 -124.77529287637545 -6.445400931089317
-25.569926413736166 -124.55651041280333 -6.445342757953493
22.491207947221902 -157.24396744580898 -6.275096633375031
22.36208157471362 -156.81003191989873 -6.285243159758661
22.40886848146817 -156.76951065375783 -6.284824000749516
22.33139848396548 -156.50255872804772 -6.291015904925711
22.053280531313888 -157.19957110317074 -6.285767504484761
22.18139015891716 -156.97166175762632 -6.2866052604574
22.17246212381891 -156.77768302305927 -6.290008041767141
22.348931649360416 -156.25406225553007 -6.294880799643852
22.1593783175363 -155.956521175904 -6.304037942006334
22.097689013050065 -155.38716036215993 -6.3151552438070215
21.354553549531964 -158.1614796145271 -6.286743846063105
21.96736346305864 -155.57690264560597 -6.314706836140225
22.01216215993874 -155.37983381181652 -6.3171711472790255
20.665378694860834 -160.5189931425982 -6.268752463719454
20.74339221784249 -160.38615060568497 -6.2686628273726805
20.7842490944162 -160.32520405483206 -6.268584419511666
21.491730898329482 -157.16858736791704 -6.299082055809295
21.987245083429038 -154.9475562997061 -6.32518806708474
20.552629703505055 -160.5923285948873 -6.2706002804220535
20.62518954351198 -160.58569822177884 -6.268915101522489
21.564919341127535 -156.46240075875698 -6.3088461823912025
21.813353047296992 -155.49293883055986 -6.319544246931653
20.483655791069445 -160.60815442073448 -6.272241213774417
21.60738771507102 -156.02457671330944 -6.315082658587547
21.811884215809165 -154.9596077111379 -6.328749801113122
21.891583616001533 -154.7727833599793 -6.330336085208979
20.20634223417548 -161.39146856621542 -6.268395054481575
21.420862801875984 -156.1533742992604 -6.317138170930081
21.692602798432315 -155.15570657555713 -6.327925927260591
19.984958054696147 -161.57186424864938 -6.271770604259252
20.08370857133455 -161.30634153533265 -6.2729098609497225
21.78902047264798 -154.28814210542097 -6.341051631557573
19.917860461688612 -161.5964644249189 -6.273318889748902
19.971922361726662 -161.24007136588585 -6.276690781612666
21.59554497308531 -154.39381803243722 -6.343254781668803
21.635941854708385 -154.35950993561258 -6.343047141197018
19.821445822433446 -161.55942566451978 -6.2763068458384375
19.884554306705276 -161.22169717657806 -6.279358089645681
21.612782144388447 -154.22446109131636 -6.345914007943625
21.247875704280013 -155.1493901243148 -6.337742597470011
21.516077038380367 -153.87258500786132 -6.354212334420364
21.560126242556482 -153.77234069574766 -6.355101220918396
21.60453039593754 -153.67650926784717 -6.355919771915882
21.66949434240994 -153.528239571571 -6.357326187406262
21.512756052377785 -153.65991105449245 -6.358154527588012
21.531324192422062 -153.46541646956837 -6.361282823133121
21.584550298096666 -153.31056999185742 -6.3630702197505045
21.47590100869381 -153.48365434703553 -6.362123713463105
19.103244707927445 -162.16711396235593 -6.28776231522822
19.564442664247625 -156.73039126939727 -6.351796293360561
19.584286469143215 -156.56158323378475 -6.353844207455188
19.472911457640457 -156.6874555627986 -6.3546236966025775
19.512615699151155 -156.55150284859542 -6.355683787335507
19.105919815045343 -156.92116997988677 -6.360288890801584
19.892025442856202 -145.00095525631824 -6.269463688967267
19.584646751023428 -145.38640146321697 -6.270953617846413
20.95308950970744 -139.2273857202925 -6.268150188678859
20.515667440176216 -140.2674630698962 -6.269587674615756
20.56777739340832 -139.82940497814704 -6.277162724481363
20.694639886351265 -138.80597309475326 -6.293667933329795
20.742103106783084 -138.695255220657 -6.293386684046753
20.813701025031417 -138.46506946468008 -6.294330122110262
20.72646981870872 -138.31214029310934 -6.302920561158736
20.02822146220157 -140.79037040515155 -6.286227612034146
20.600122299283818 -138.5119165229327 -6.306082508358469
19.882982155340862 -140.8682904681833 -6.293213801992622
20.49262643694868 -138.39675248630877 -6.315007997965647
19.21510585681728 -143.22440224573603 -6.273704113473238
19.826239284793587 -140.7161582199534 -6.300212991180426
20.290442613184474 -139.04803729651815 -6.31202107287931
19.867605344639873 -140.17832538024086 -6.310875627467804
20.547476159196478 -137.46501563544442 -6.331241648904731
20.167827920535263 -138.4498277980286 -6.332812936006421
20.236078443201656 -138.32707121562848 -6.331409679274277
20.31703098670308 -137.56862834474458 -6.342396142070914
19.68799291025389 -139.4544050784199 -6.338758712083678
20.021854467960722 -138.21586302176655 -6.346341579025085
20.05391539557013 -137.95949437623625 -6.349850972486577
18.670843833634095 -143.70529790533033 -6.29387243039652
19.646854373045905 -139.5121323790206 -6.33970474779144
19.896672107969522 -138.18431671240742 -6.354244145176668
19.930908496204708 -138.12154558128006 -6.353678894847887
20.159735661278916 -137.3005597710681 -6.3569346872634105
19.96132632102624 -137.4812694056791 -6.364945685228122
18.099248405686502 -145.05516635262416 -6.356041083250572
18.87612447981927 -140.93577766975727 -6.352237822012364
18.928302269430947 -140.67071712978142 -6.355519557043288
18.96347643361475 -140.4990739605821 -6.357385935580691
17.843622064886794 -144.93272124855105 -6.310695280331864
18.084894555618696 -143.89712235463475 -6.324280817265231
18.867491992586686 -140.40929230943732 -6.365293784334593
18.1203754420872 -143.20262361563724 -6.340581648688964
18.307036201352613 -142.62386536235508 -6.34431428688752
18.271911328541506 -142.1299656028532 -6.35913347814773
15.946724376247612 -145.24834820078885 -6.271163840432105
15.925749763975201 -145.26094620112863 -6.272260991357082
15.741143005548583 -145.55806875594516 -6.272388883082045
15.88889855574785 -145.01333063914188 -6.287108109405778
15.599046110582654 -145.38718696704305 -6.292697181839045
16.456407444293916 -141.79808687264514 -6.2751464625392845
16.158289226240413 -142.19555242040707 -6.2973556484455475
16.14934287020489 -142.17815132576382 -6.298542263856546
16.1943084728561 -142.0259998638279 -6.296481524738183
16.301064159852768 -141.25231050491254 -6.29572946968064
16.473620679968544 -140.70013203586475 -6.284319089221945
15.827530619460394 -142.9939136375746 -6.314147399432643
15.820734610672542 -142.78695416136165 -6.319017344989806
16.08631343138829 -141.84229857670167 -6.309157041337575
16.294357143358134 -141.02966520846317 -6.2982568821611675
16.33967813080896 -140.84416861217863 -6.295398228488141
15.772638636885127 -142.7777149090176 -6.323837039333443
16.165862891923183 -141.0483901712636 -6.309842502493431
15.577309814419074 -143.10361105338097 -6.335670937694972
15.73487987448108 -142.63783351445227 -6.330013522101336
16.119671614304224 -140.85432592661252 -6.315324315912005
15.507085051485172 -143.11542324623815 -6.34216548678221
15.490012476671643 -142.86817791517637 -6.3489267625774355
15.611349034625949 -142.70557282129093 -6.340532035421369
15.934317366044912 -141.03275106919145 -6.3310131657628235
16.010488283963667 -140.38178781438356 -6.326547020007575
16.369415111899325 -137.37639807845014 -6.282104227033188
16.367193097307062 -136.25462745150338 -6.269718215126514
15.966559971557935 -137.2844315944892 -6.312050741914686
16.14478903703736 -136.0748749293173 -6.28396284298391
16.155261543155838 -135.7689453532649 -6.278929896474705
15.826507217976923 -135.98430760720836 -6.305755105333308
12.434926452157946 -148.31554261356558 -6.312122511085343
12.373176717586057 -148.22722207929752 -6.322258884277311
14.14719436022925 -141.0394152343065 -6.3442692036652275
12.337822968255548 -148.25443156749748 -6.321855907300771
12.306156319679848 -148.22056750222947 -6.3261487249617785
13.495567641319331 -143.1086321904163 -6.353283154933983
14.010648892556084 -141.06165456486036 -6.3599947495198785
14.027517457604636 -141.0107620520135 -6.356734221776949
14.101408313281352 -140.88929825445084 -6.345332827585856
12.194940090696047 -148.2858685414679 -6.326398569580405
13.309228145213027 -143.21232988663584 -6.298934015322184
11.828900390520612 -148.46389675912513 -6.329093064528411
11.62672803903069 -148.94338443107728 -6.299002620646318
11.657019471215717 -148.73857197195477 -6.314319031710786
11.743143515690118 -148.43582907225903 -6.335167286230309
11.72435776013552 -148.41165160269097 -6.337946665513428
13.492192568767859 -141.0975226953431 -6.291470419172548
11.662044265683043 -148.51461379418137 -6.332277240828359
11.677051738011459 -148.43998941267333 -6.337699661102584
13.344115382969253 -141.27194510384138 -6.320779481115963
13.356468728928874 -141.02501652954714 -6.304664967016919
13.734012727274122 -139.6732445424152 -6.339488246435989
11.456569547123259 -148.63533327992678 -6.331062306377496
13.222984030291673 -141.231293200579 -6.334092536462384
11.250968346552302 -149.28568527714356 -6.286173479785507
11.389875859123977 -148.5713546676381 -6.3389468402031595
11.09772565027303 -149.57634750160847 -6.268226904001111
11.131757063530538 -148.92842423788602 -6.319844776358744
11.147986367538202 -148.56992896491192 -6.348464047134076
11.22251852001102 -148.34317852998757 -6.364152410420814
12.842582947508383 -141.80788638174283 -6.324362751187483
12.897623512450934 -141.61768745389176 -6.3000802958876845
12.80516382636644 -141.40292112407388 -6.294867809152348
12.919790706123806 -140.89012693147959 -6.348634623669101
12.925105572637673 -140.862249562735 -6.34610867169999
13.519065760028447 -137.85218587802785 -6.272836058379658
12.625471474221373 -141.39366615043159 -6.319387358027696
10.7646968541175 -148.83116859191188 -6.340848899398249
12.450248184641229 -141.55918485846956 -6.359636607078993
12.360918700550407 -141.59102930222411 -6.286718042242933
14.236190981267967 -133.21186179086902 -6.358894851455549
14.279162257923458 -132.94266120081272 -6.350631864696111
10.099550407646465 -149.97548427455587 -6.269024484767041
10.207537609337212 -149.35014320181668 -6.3164978426714296
9.974500090636448 -149.9026830562149 -6.278579815608959
10.889363671247992 -145.92720044240147 -6.326686013272319
10.841475056181105 -145.58623183575034 -6.3203955762643655
10.873941184516687 -145.4930281795522 -6.294335373670377
14.451087058649826 -130.44355939236274 -6.28595607659722
10.624239575017462 -146.43575758893002 -6.3395520831406635
10.634073901175933 -146.28767616546682 -6.265085493733297
10.785852261333376 -145.53575276702267 -6.3328943801617665
10.813643457203561 -145.51035170769904 -6.303009878406761
10.317241590466448 -146.95794037063757 -6.2661494131929025
10.352298517369908 -146.8417198063255 -6.283085059209563
13.880306342962243 -132.12106359228795 -6.353156437077643
9.509721664074789 -150.15734319349204 -6.2706322156995355
9.71699584726612 -149.10397038916395 -6.349976305730708
9.703655365229725 -149.03129166051642 -6.35611725829
10.362854019370378 -146.61990766374547 -6.316271625225943
10.38301649348439 -146.39564975472257 -6.349608446957018
10.395274569034594 -146.25915389027017 -6.272875127964727
10.381219374312641 -146.2352300546494 -6.27730796735932
10.26461582603404 -146.41343175695252 -6.348057909143876
10.290787650277458 -146.2649112141353 -6.2718614486402915
10.308278260538376 -146.19038343750853 -6.285530260226151
10.240658702689503 -146.15944957100533 -6.290882262340638
10.221291178158916 -146.08826422291344 -6.303693006491613
9.952282245973779 -146.97782127649506 -6.265899514588415
9.95439957560544 -146.70236672742143 -6.3063164493671575
10.175340892328702 -146.14421285259846 -6.293145523478172
13.990981892940667 -129.64901104267508 -6.290895118754282
9.673889701378862 -147.24429180095393 -6.363296668806111
9.410650730323976 -148.09126331627346 -6.27059937132929
8.80835549196423 -149.97542837260022 -6.301101512962472
8.894210843739353 -149.65473477937002 -6.32473017557957
9.556027748390857 -146.31329909641718 -6.357570469890421
9.671864579214239 -145.80677886496224 -6.338294037196789
9.688312438092767 -145.74535768915123 -6.349166591978202
9.703272052775477 -145.63252789541468 -6.282158477676053
9.216433947306474 -147.48518802109083 -6.338589571682146
9.477172608475666 -146.17071277794196 -6.269444392163768
9.50361557641105 -145.99108441395762 -6.300295378259411
9.59410155683035 -145.81247879674234 -6.333808992140215
9.63923709192738 -145.69650946721683 -6.310653859252044
9.58901141002846 -145.64441355789592 -6.360826661870989
9.129472519990165 -147.53277282679326 -6.333453681020272
9.491059402956491 -145.9926100714642 -6.2994936668715615
9.55738563264068 -145.65943644768333 -6.356739709018235
13.586313708083154 -128.46105152982287 -6.282380979291183
8.400835346574945 -150.05271509259737 -6.302836702366297
8.205522242388177 -150.4000519774285 -6.279205859111002
8.273837038948955 -149.85961341811338 -6.319989409198866
8.955576340709536 -147.251875740766 -6.363153222868808
9.159953392458236 -146.3985574447241 -6.336133740018542
9.35539455355203 -145.5015370889632 -6.279406909678634
9.325603887966011 -145.45013767027874 -6.28571606928476
8.146718549183369 -149.97175430808676 -6.313293793049089
8.245909630938334 -149.86708515717802 -6.319792683027093
9.274467615548396 -145.54063549843224 -6.265192079209692
9.327461681487193 -145.41019422262667 -6.292826414473974
9.071859357812263 -146.0255660910084 -6.271615902962402
8.785195647538233 -146.55118314151574 -6.303826609664369
8.495136968076876 -147.5616191172403 -6.327296244605387
13.211632602156444 -127.63590481077657 -6.279760432168624
8.20438344164768 -148.1065690902459 -6.268155384555855
8.206429220691525 -148.06805026427213 -6.27222365409507
13.187538229093112 -127.40453292167595 -6.275411188246156
8.148586115615078 -147.82718668727603 -6.296396026733386
8.199775302406941 -147.70558485444624 -6.309358595284069
8.259999273199623 -147.51373432361902 -6.329530672664616
8.293448944646665 -147.422970155891 -6.339161173575429
8.320002783422394 -147.39909648525324 -6.341949131339902
8.15377702798774 -147.50078491383914 -6.329410482832156
7.982424196240418 -147.75550179152964 -6.301500250746985
9.8734627601285 -139.70052045093624 -6.267683428283288
9.81565940293994 -139.7069949099343 -6.267998665499225
9.714964291322396 -139.83238661746446 -6.282123841539492
9.712104557752156 -139.77172487461098 -6.274719031442532
9.74844201218804 -139.68279820299455 -6.264346324020193
9.627187893095329 -139.70700727351877 -6.26565599469085
11.802650132310298 -128.6168214909619 -6.363157959961074
11.935323584514835 -128.1739623919816 -6.347059007192097
12.148755640779575 -127.43287074419018 -6.320499216981375
6.918530873344837 -147.83560825153026 -6.273304036933379
6.81121778167812 -147.76876142032202 -6.276850032838358
7.394770646079273 -139.13180685159492 -6.310737614142023
7.347814539682523 -138.88129458446912 -6.291862938690863
7.383394640479057 -138.79739530475132 -6.287410464179633
7.386686039490497 -138.69582583450625 -6.280449433891148
7.3977007952279425 -138.63854719568178 -6.276767039931901
8.49134423331038 -120.30485710704858 -6.276225919466404
-8.989723818980124 -146.8280255848131 -6.336915739826484
-8.848566017196553 -146.59094463023413 -6.347777233296398
-9.317020886933424 -147.8302376492007 -6.294545424689902
-9.34106850788665 -147.7631855582424 -6.296602989688007
-9.336524868092784 -147.46584722098254 -6.308022757072157
-9.288258875945932 -147.02091651315985 -6.3253275472475865
-15.045613224272685 -169.86384255267268 -6.311603708930764
-15.111763857269644 -169.74731233214396 -6.318415340393376
-9.72822077808651 -146.57361859024428 -6.334844132422936
-9.750079001777799 -146.50481246517003 -6.3367573369733075
-9.932459399387326 -146.45568505205273 -6.3358310170184176
-15.587642225125066 -169.8417569780027 -6.326117515512966
-15.209800962447538 -146.24734906432948 -6.2605171992118915
-15.57856931687083 -146.09127203753587 -6.25981379390856
-15.54079989351063 -145.8145308341631 -6.269144115293223
-15.519126123742115 -145.44100137758926 -6.281291161461688
-15.636218963156185 -145.54235924270313 -6.27647389079966
-15.569402882640805 -145.34918834322394 -6.283554216583698
-15.627215519483421 -145.25975568711544 -6.285187127204003
-15.672851015580456 -145.16699833226798 -6.287518582529124
-15.654181899672288 -145.07270477765115 -6.290483395584258
-15.688441725612961 -144.93378053812572 -6.294242530422945
-15.761664062932272 -144.6090103447434 -6.302845515363918
-15.86780846440982 -144.8028506693868 -6.295415400609478
-15.87181847934141 -144.7091916738284 -6.297925823632363
-15.747008556876132 -144.51511271947993 -6.30562571157952
-15.864541068425734 -144.33460301375945 -6.308993807780821
-15.804108346601009 -143.9560027080402 -6.3207236289459585
-15.8868559502313 -144.24322848223585 -6.311474884189377
-15.886911279056477 -144.14945989319125 -6.313944560020968
-15.922660228044862 -144.0537016542075 -6.316287193509836
-16.041878456590773 -144.42895431328404 -6.303628419751615
-16.093138705462668 -143.86084018836198 -6.31895332042126
-16.157848020805485 -143.766742068674 -6.3203223558391075
-16.089466289213515 -143.396140032348 -6.331530556431012
-16.218214199250795 -143.670468128911 -6.322209735112327
-16.214014858184544 -143.4876237896346 -6.327269152762963
-16.274265760445132 -143.58025448174052 -6.323585807781626
-16.52915258358544 -143.19764150464283 -6.3297842583249535
-16.660424104442576 -143.29448461658544 -6.325322265661676
-16.831371552187452 -143.09181738129806 -6.327934581782892
-16.809466392623165 -142.99766738134105 -6.33054950163947
-17.058288762068457 -142.79334896843292 -6.331850372813545
-17.116994697623475 -142.89217345676775 -6.3285778443595975
-17.0991078973367 -142.69017704622163 -6.334030815095106
-17.100266993445576 -142.50078214736456 -6.338807753092787
-17.116959163334077 -142.20306262712782 -6.34571094276437
-17.22159983065785 -142.09737487293467 -6.346813878111495
-17.383688170963165 -142.58665502682274 -6.331918474331472
-17.271509311813762 -142.2940767788425 -6.3412138409418075
-17.29230753551776 -141.99956988003063 -6.347863993970756
-17.266663619884646 -141.90407349986302 -6.350764476610854
-17.37629172118045 -141.79810227809466 -6.351344756795599
24.103545584232418 -159.83049232367162 -6.1962761660437655
23.94786513375604 -159.75573812507048 -6.2011055286929855
23.349003261021807 -161.41403348587 -6.189068053745537
23.37744434119299 -161.3234748889745 -6.189686448850067
23.22744226077825 -161.36448058737307 -6.192668496089163
23.027052572352897 -161.60475667683207 -6.19387472636466
22.54279121376448 -160.00888206092264 -6.2299453437568095
22.722485821080507 -159.42454008170935 -6.234693897603915
21.55628787220879 -163.65917842837214 -6.201301155985242
22.602452785178556 -159.37908277028268 -6.238300716945588
20.740598311712972 -166.79091635086576 -6.181151872233394
20.78300820329671 -166.66437380910725 -6.181507371918655
22.47631112601306 -159.55771950126618 -6.238423799379609
21.4440452077761 -163.61430180763335 -6.2049832324576
20.493958170684557 -166.8717589869259 -6.186871692189859
20.312930798534133 -167.37960137366895 -6.185355814046238
20.400228548539886 -167.11256575324853 -6.186361190076041
20.441689438404023 -166.97942895352125 -6.187063444112163
21.322566193413756 -162.88661111802935 -6.218229029748561
21.345304616516103 -162.77212896261113 -6.219342682143974
21.39737868543909 -162.70740054806203 -6.21879714203211
21.919943708321384 -160.65137255911355 -6.235332134463259
22.24172163509253 -158.4554268402319 -6.261279553166768
21.569752786293215 -160.55741064842715 -6.24544376876147
21.40673930213056 -160.82450856925962 -6.24561302803474
21.716475141182904 -159.52982827355365 -6.2571646732634125
21.776947858958852 -159.49850134547233 -6.256098379314436
21.437830075338173 -160.47705561748216 -6.249829482620594
21.492109455831663 -160.1762181168774 -6.2529967257878605
21.41968533830581 -160.18655088885959 -6.25455996169659
18.824799277229708 -170.14131918736828 -6.194075849032422
20.868937459916495 -161.43947284919975 -6.250413379390375
21.191922226896118 -160.21068174717576 -6.259966704493421
18.72613064950781 -170.13075256015037 -6.197021599351587
20.38895646644859 -163.22667012066756 -6.238426982064614
20.41468097619081 -163.10326863125988 -6.2393068456472625
20.456409628456313 -163.0206970896507 -6.239415202451038
20.813564025796666 -161.4883760169026 -6.251247377632544
18.622243966490128 -170.119306087237 -6.20045756071362
20.868825994141655 -160.7386897429545 -6.26048914324907
20.98140487078213 -160.2498719197272 -6.264603685476985
20.209593437240745 -163.20132286368914 -6.243620995739738
20.234592603724096 -163.0788456605758 -6.244493019502654
20.847693098097164 -160.2970696623969 -6.267296053885404
20.875596371186745 -160.20839028739488 -6.267960117786469
17.608702491657304 -169.6324211062004 -6.237202072004784
17.085944242397655 -170.28162081095354 -6.245743229118945
21.564350831464374 -145.45108400227153 -6.171044560596143
21.61668967360218 -145.30772708071655 -6.173518522909002
21.5216841546722 -145.35053889220748 -6.176686168838101
21.09254490333746 -146.10337847455264 -6.170853054855504
21.302024909732133 -145.55435230062767 -6.180322265045102
21.059231553343388 -146.02070049070295 -6.175500845368182
21.159385112470716 -145.1422773087401 -6.201900888061951
20.45204947285568 -146.4059470119306 -6.191120265006364
21.754181456974422 -140.9768186473287 -6.177392191225739
20.44811473085275 -145.98081161361782 -6.2069611610454665
21.425762803808343 -141.7851605685332 -6.17702268467575
21.460199835030487 -141.7221388477185 -6.1764708719166865
21.470711551381243 -141.66294551468738 -6.1772667189768296
21.497865785418583 -141.58093424719183 -6.177697950301131
20.36179359871713 -145.88897366726704 -6.214548173226893
20.486018904753784 -145.33270893333238 -6.228451914604292
21.380238767134777 -141.53121822794955 -6.186089187116727
21.517629613443457 -140.9198791604208 -6.193278695026809
20.057895669452734 -146.67212636737221 -6.2004538959841
20.22226081516034 -145.99384511141764 -6.217577329581292
20.771485892432707 -143.59293667868658 -6.16943773588171
21.319125920350036 -140.81670294884083 -6.207836836541565
19.952502139663743 -146.5333255907549 -6.2107948406203235
21.249635111005645 -140.79711061357546 -6.212358740846891
21.550646416136747 -139.58758027449633 -6.223794826524253
21.191807319807168 -140.71615153328952 -6.217928603692115
21.159537538464704 -140.6686563013602 -6.220973510099106
21.408943914200318 -139.82851640176338 -6.226610830662218
19.5804675866532 -146.98481492290819 -6.2117959286466045
20.070994599239746 -144.7731110982965 -6.180121049867923
20.860611319956142 -141.5615990619763 -6.216752144669386
21.080784421538613 -140.61319077676097 -6.227246031044407
21.146165471324494 -140.2411689361317 -6.232410689949741
19.766136374589763 -145.84323005103823 -6.24551031815862
20.05088238254381 -144.8042244542991 -6.180421690838537
20.04239658792398 -144.7201281480608 -6.183268249457816
20.444272214567967 -142.99998152708062 -6.204967313750764
20.77484972848047 -141.48935772289272 -6.223832416001843
21.008970956233327 -140.59608183961183 -6.231833891008498
21.04123091437156 -140.39637018161008 -6.2347972608204625
19.675529002761557 -145.65945640147365 -6.256631821786004
20.72429700491037 -141.5537339201279 -6.225335992360842
20.689776850935026 -141.43735436889165 -6.230287778223656
20.42756082308224 -142.23136816907444 -6.226046719503612
21.108120230522893 -139.3040791433221 -6.25712743231365
19.906460837291327 -144.1243137816879 -6.207749937792251
19.936232444475166 -143.9069870595949 -6.2117095381169705
20.813384385357438 -140.19905308791394 -6.253477895463308
21.017734423516643 -139.2405724968603 -6.264152849866228
21.066671451092674 -139.07229357416298 -6.265091535192293
18.901816873770272 -147.71747957986634 -6.215881251546534
18.967881903540615 -147.2391922093468 -6.231566556000544
19.83133052454987 -143.79638424652208 -6.221084249791145
20.031505049233473 -142.83606486156262 -6.234281121410747
20.120561274485382 -142.6361017122741 -6.234088948040563
20.646687487169643 -140.1825185535842 -6.263919936036526
20.677899562609234 -140.13323752243917 -6.263065927826142
20.977891994722903 -139.17474753652692 -6.268091072411528
18.94488759905039 -147.26072020442425 -6.231848757847659
18.96229798372464 -146.8743371825764 -6.246027313425944
18.79094576870305 -147.49046699521816 -6.230193131448046
18.85691746852352 -147.15509727014017 -6.240224476425738
18.908410160464086 -146.88462784134694 -6.2482227503349925
19.590837882368447 -143.83521311530856 -6.234585432189238
18.67572797882916 -147.39918991128113 -6.239352905907998
18.601152506880744 -147.00821916544757 -6.258284079023941
19.399818027840602 -143.4217671170022 -6.2571977212656265
19.258702541241135 -143.4533182639409 -6.265006417748749
17.318454857552556 -144.7115685287085 -6.181055025111318
17.33398958743765 -144.69192996944716 -6.180543223126164
17.752784477375158 -140.15197556344185 -6.171878154979314
17.48388306382954 -140.55961392465136 -6.193317896248994
17.720890538815862 -139.56755628039545 -6.177474415431449
17.2809859533306 -141.22579345645016 -6.205374347315864
17.67015595437341 -139.53367873274337 -6.182046589854881
17.844038950065077 -138.55784955189006 -6.167571392226791
17.295055539445343 -140.75496756214403 -6.208925822071037
17.79834401326237 -138.53632821229738 -6.171407434008539
17.223862328038532 -139.98506938819799 -6.220279269792809
17.164567323754177 -139.8731553551696 -6.225960452651284
16.54762512037136 -142.10867382351717 -6.262094031781124
16.80324406940362 -140.91869740947314 -6.252560240709954
16.888193905321288 -139.5757670951027 -6.250616362853723
16.936518239800133 -137.62241114413783 -6.2392231397222
15.582249647816031 -142.90695004341288 -6.175582503656031
15.406009440528422 -143.26448283077787 -6.192209529037257
15.511418187077386 -143.07066268670116 -6.182133756497296
15.570987685025939 -142.9253373399043 -6.176713776291861
15.651368270480988 -142.4867336142517 -6.171536820418027
15.668629952090875 -142.46517635778866 -6.169425337673134
15.40489033881444 -143.10769522705874 -6.195367919906971
15.517057884990923 -142.6203632414095 -6.187633875673999
16.70688560551772 -137.34799219406557 -6.255366545002355
15.327973015931569 -142.89963401905104 -6.208725326527573
15.315670333987491 -142.88606195444433 -6.210570765674378
16.653791304507457 -137.0918277295003 -6.25707743803701
16.70609226413542 -136.28842555431837 -6.244750593804462
17.106104458293494 -134.24988669029176 -6.189215078264014
17.0987672470948 -134.1188161832833 -6.187910592383572
17.149116559696395 -133.96833576407616 -6.182016154457543
16.588944817033394 -135.66376955693926 -6.245941999962115
17.104250385407283 -133.81223427537378 -6.183127648461939
16.528641163533315 -135.63366435869995 -6.2499976943470275
16.436900437528642 -135.8254074603587 -6.259122705209854
15.245032934786241 -140.17584550016682 -6.199785481075871
16.592211714747485 -134.34605890524307 -6.227320225582377
12.835664264851278 -148.94654135690303 -6.241562925099136
