ply
format ascii 1.0
element vertex 821
property float x
property float y
property float z
end_header
-28.12367560087002 -120.982091928244 -7.520315474903435
-28.10208682360468 -121.00145401327039 -7.523494964652707
-26.809460061650306 -122.63017683402876 -7.541290903650942
-26.789803871349058 -122.67377020990972 -7.507893689170094
-26.75465030492813 -122.73380995008391 -7.477904481965741
-26.781586383376062 -122.61128603651507 -7.557938951160439
-26.765224250847616 -122.63709541344672 -7.536141756234656
-26.88331238687763 -125.39765677909504 -7.403893368547375
-26.85911719859899 -125.48982886844179 -7.404168971508448
-29.220786418611752 -122.22000531860063 -7.427757635610172
-26.86195383402161 -125.25397012961392 -7.42733649845605
-26.818932830422863 -125.35549164066605 -7.4451652370920645
-26.77848816903782 -125.43004327782634 -7.424916003402499
-26.702946342310607 -125.49100316712588 -7.420859255106466
-27.755946691378078 -123.86854947040644 -7.382196560896097
-27.398693686523632 -124.44816031757577 -7.394470254884131
-27.02015716325605 -124.87272148735536 -7.461467908811164
-27.044887013969323 -124.9624823814068 -7.483001475649825
-26.90527826910786 -125.03477373341367 -7.4391397272877775
-26.89680328903214 -125.12646403489936 -7.405120357248827
-26.8234385430667 -125.20624537618825 -7.4354115774440075
-26.747937595271875 -125.27961054822036 -7.456108573957101
-26.68177569232999 -125.33615101812836 -7.41777983318309
-26.68361666228039 -125.43687585365885 -7.394212498762386
-29.00572916926859 -122.07729770001596 -7.445105477950303
-28.291219222021194 -123.11168200266512 -7.45533607799642
-28.137215011200627 -123.21070559483208 -7.381072599974119
-27.823548402765226 -123.70424856195666 -7.444626307150123
-27.76101496238386 -123.81107782051889 -7.38613058109336
-27.73961241036692 -123.85984335917327 -7.3846976125152635
-27.37442719099505 -124.29031246374574 -7.467632962160824
-27.380409075769705 -124.35590943627162 -7.427129963380808
-27.00682841076739 -124.75328684904667 -7.444970649314482
-26.989563040588333 -124.83774360253791 -7.411177074626198
-26.894795882361812 -124.90721425855753 -7.439050710849353
-26.878690813894334 -124.98572073978742 -7.432501778325615
-26.737767632671936 -125.12789201240871 -7.465834763875757
-26.683014395691092 -125.2834857812842 -7.437150241447598
-29.013299414594684 -121.90743430334727 -7.420393052721958
-28.945254184323428 -122.05830830102347 -7.451861124362083
-28.662074552230166 -122.39505928688963 -7.37684673364675
-28.216266129194917 -123.02988658755113 -7.4241995091770585
-28.13814276583762 -123.02441507623205 -7.38149083876288
-28.092375724230997 -123.14981303278142 -7.432914006569478
-27.992788464702166 -123.23927923499726 -7.389790456107308
-27.94079091948882 -123.32335975626938 -7.407295315907612
-27.9169285737175 -123.36296942716606 -7.463084398132685
-26.999834423380445 -124.69307899504096 -7.458630500082962
-28.92226623246478 -121.8702575505637 -7.421034517671156
-28.87297116780456 -121.97671827501584 -7.420554926923906
-28.66047589103038 -122.1965010827232 -7.443372547632121
-28.59865654560851 -122.35011602140978 -7.388058111736222
-28.51072391038271 -122.37461547088552 -7.4369412594522215
-28.4771846829002 -122.42225919607384 -7.380865316689566
-28.399412283176947 -122.56136753863457 -7.448503448519775
-28.371523071901848 -122.6066331216176 -7.393641148290451
-28.16169999369974 -122.8741539291933 -7.377310421261556
-28.103638655570936 -122.9509617280853 -7.4058508108447425
-28.06721711482134 -123.0104180106841 -7.44405753600454
-28.002827498873273 -123.09489295889917 -7.4674659274561135
-27.958761516474034 -123.18373199203901 -7.42793328686223
-27.891699685319452 -123.26385208901183 -7.462043569360475
-29.721150199655344 -120.65160949992425 -7.4120001320585365
-29.60815093910632 -120.73201417324333 -7.43934867395967
-29.20357484148261 -121.28630467678904 -7.423062668674753
-29.157391451221308 -121.34654486916003 -7.3966144317736156
-29.123519899622735 -121.40152032817846 -7.4153460273028875
-29.01185485247099 -121.57715621283847 -7.445329070501199
-28.825713467334133 -121.84499112410441 -7.431152889264012
-28.750849527665103 -121.90477171516646 -7.447790376883148
-28.59193995194531 -122.15537273873551 -7.424334855005393
-28.514947598508325 -122.23218677244421 -7.390018297938618
-28.468845263970167 -122.32498548652696 -7.434091816941138
-28.408705879308716 -122.38685352914206 -7.414725115758455
-28.32253003080649 -122.49145426956025 -7.440605698869967
-28.29406620260556 -122.56137495523745 -7.398501578715744
-28.178408211868163 -122.64260044514089 -7.377948101828535
-28.179587765666096 -122.76337449531117 -7.389404493484859
-28.061517989841036 -122.89682000612137 -7.423000424347623
-28.029972964106857 -122.97216561813738 -7.449624632475067
-27.931938267760565 -123.06492705531632 -7.462235043769085
-27.898441583804097 -123.10275384783003 -7.453714266393851
-29.6599024557667 -120.48706026189795 -7.417749649335568
-29.613995013540336 -120.5909113122373 -7.413564121951156
-29.57844842700308 -120.6581978558254 -7.427523748754314
-29.525075770939388 -120.7122007817194 -7.428001556804068
-29.449750557849423 -120.80611477828955 -7.40793371151341
-29.35181775361986 -120.90531007092085 -7.413778194826742
-29.323718095980777 -120.98913732893195 -7.444551547644618
-29.277481635736883 -121.03707311180244 -7.451723798889238
-29.09627560195792 -121.33736821816521 -7.403890661395861
-29.066776891391 -121.37118384314972 -7.435353793749098
-28.896381385767757 -121.54530988514877 -7.412624194261322
-28.861163439029216 -121.58446493810796 -7.432673592596829
-28.75064666722137 -121.82701142041132 -7.44988964258109
-28.686925001552535 -121.8811330260395 -7.4469804976291325
-28.639803565937566 -121.89649888676838 -7.459725763056802
-28.49211657674907 -122.1176573836617 -7.41510103594834
-28.456349627989194 -122.16978194507006 -7.391290960886613
-28.399120011967213 -122.24265184893169 -7.407033916609943
-28.34094037420792 -122.35184665688789 -7.434016514289361
-28.28404533506905 -122.44026045496749 -7.423741510866314
-28.221591122192603 -122.4928367638635 -7.383340659774732
-28.090830903075716 -122.66764651641256 -7.462199372278437
-27.570549280091235 -123.27381674363468 -7.415704200436347
-27.576102576867484 -123.35985970188773 -7.42471033609696
-29.63024974613614 -120.49117135024828 -7.412498800790448
-29.549179082956233 -120.53958364132876 -7.425402157907255
-29.55159924602896 -120.59126630822124 -7.405096805570263
-29.445880063873073 -120.72661502391432 -7.428680146327681
-29.399431096028756 -120.79521055488117 -7.397823694738789
-29.33020126902219 -120.81882522199682 -7.418094512091591
-29.29990562423637 -120.92281314495071 -7.446432502266126
-29.18563240038979 -120.98732486222129 -7.429533482861626
-28.84437755409152 -121.56331195398072 -7.432920383555708
-28.621845849961606 -121.86352085116367 -7.434210609070029
-28.60578913585861 -121.8745399375585 -7.443625237381988
-28.4463869530634 -122.09024630638321 -7.43608109939452
-28.30080126980052 -122.24346347678338 -7.457069291471198
-28.292281755467677 -122.26037596157371 -7.456707621078887
-28.21215725600465 -122.406872548146 -7.45708640270076
-27.623989940478314 -123.09883235317331 -7.461312150304932
-27.553842863635243 -123.16849046121106 -7.4170402285115475
-27.564377257274483 -123.24110615449817 -7.423515897424748
-29.228213522280736 -120.801442721695 -7.41903091194939
-29.13552968171234 -120.95589511251346 -7.39328951220126
-27.536557125037028 -123.03561118061589 -7.420860425315629
-27.54744382276051 -123.10655200343894 -7.420146908881938
-27.511476523840617 -122.91173585507242 -7.44028493764412
-27.506420822745977 -122.93351966876945 -7.429165296608295
-27.418871475431683 -122.92262547543992 -7.388777191183253
-27.379397149560855 -122.76190546973096 -7.406999544374791
-27.343133460011977 -122.63507925104264 -7.421682786463602
-28.12590571277471 -121.02799344912388 -7.436334514997465
-29.37467155198466 -119.2744824084904 -7.393227166149108
-29.317107557841645 -119.29332583756366 -7.422081664176347
-28.10922557128052 -121.01694301196147 -7.44117901382515
-26.78147732724927 -122.67911346253692 -7.472925649699699
-26.765325936035808 -122.75536122890283 -7.4641163031809485
-29.311680852858906 -119.22979756396563 -7.368787049104338
-29.26178486369493 -119.29134640539904 -7.393228806381002
-29.162623957685074 -119.31596409186244 -7.407502883243658
-26.929739959155086 -125.43767915541552 -7.307675913241766
-28.022972063478363 -123.73537189677742 -7.286127659529601
-27.89713929926189 -123.93885027316799 -7.283652017791807
-27.011895608924686 -125.0300357872163 -7.305130349705251
-27.008538443392357 -125.10721274442494 -7.299853890444344
-26.898155636376877 -125.19045893157917 -7.3800433640632
-26.87703429687041 -125.29609949302078 -7.321360010697385
-26.824873089569063 -125.2919380365178 -7.324790788457461
-26.685549776100245 -125.54233261552002 -7.369556443277362
-27.95890342856101 -123.67184417226768 -7.317468401907744
-27.865637562574946 -123.77627458140054 -7.324387106305125
-27.857947356009202 -123.82263627215355 -7.310517616924463
-26.99924867948093 -124.88648953226534 -7.304587585152158
-26.986794072581993 -124.94193291482765 -7.317235618418217
-26.850420820629367 -125.0847887604652 -7.335416016245454
-26.819643760021844 -125.18675972055028 -7.326198168572984
-29.420452198792855 -121.51310560029879 -7.299989385951048
-29.33309460919351 -121.58384863478894 -7.285246939972331
-29.070186006628887 -121.93852837640074 -7.286771154157074
-28.909875948289333 -122.1547965600714 -7.287700594045528
-28.79862315753278 -122.30015240557933 -7.298725800279454
-28.025658278767757 -123.35952791507242 -7.364988477456849
-27.954010213425224 -123.52067570663394 -7.330019188299881
-27.9088609553936 -123.61444276360668 -7.357410957980272
-27.827962220558945 -123.7052851268253 -7.335529529748094
-27.758650914736297 -123.8390887192226 -7.3737724391485315
-26.98113974949899 -124.8445091455032 -7.365608976863712
-26.922393521980084 -124.90450680610316 -7.337103200414144
-26.821877370989185 -125.00910715410515 -7.33242652720012
-26.81801852927963 -125.05960781609842 -7.2989279888715
-29.321623737083783 -121.4813702008467 -7.328891434041329
-29.261404053045638 -121.5494579370166 -7.305489904798236
-29.023712398900052 -121.9124615707445 -7.311529562845718
-28.972540604508303 -121.90562547601454 -7.361592550233864
-28.747158132801285 -122.23805328926997 -7.302563324840769
-28.582087593923973 -122.50559118997151 -7.33456950672509
-28.343529135737434 -122.76572004446344 -7.31414270380978
-28.3326950646059 -122.80233212624256 -7.323653049499825
-28.228229967142592 -122.90250438024407 -7.32823503841173
-28.179517854251582 -123.00082751422491 -7.3433331150745
-28.151399721131366 -123.03463753187519 -7.321662232117715
-28.102501384768868 -123.15130599312452 -7.362787234764868
-28.0239891883003 -123.27022066226606 -7.369479122951372
-27.96256568443979 -123.33153529016847 -7.3718408185004245
-27.938654964158587 -123.39249900151187 -7.364474271641394
-27.761477212474563 -123.56230707124345 -7.318411901320959
-26.972129432459337 -124.69056339785776 -7.381210027451439
-26.90011098945108 -124.80243288641175 -7.3325942126484485
-26.8055327148791 -124.90041488421092 -7.33026599660648
-29.821961753495028 -120.72239462416758 -7.331397631729629
-29.474172377810994 -121.12128309439937 -7.3307892929493175
-29.44805131661611 -121.12436650549232 -7.347926468830252
-29.26897297731993 -121.33570386802543 -7.365596086144618
-29.265720889270547 -121.45625842311546 -7.317347629883121
-29.192832294157846 -121.49694954264194 -7.289919192834237
-29.131930881913046 -121.55161869325245 -7.2900090037558085
-28.929948936229568 -121.8897798798989 -7.361978651503439
-28.824010783811307 -122.08224796412073 -7.307442623261939
-28.685180973255235 -122.16894359276404 -7.318523509803
-28.65930457323195 -122.20298062455836 -7.334933414187342
-28.47715332588627 -122.4153033517904 -7.312687984783714
-28.311472122404297 -122.64295193910536 -7.287360865365471
-28.28734091874953 -122.70183822510391 -7.323317181886429
-28.23908875455413 -122.80335394535133 -7.355063049099428
-28.185394630524037 -122.84668891354958 -7.34769176174792
-28.125003289121192 -122.95370029048352 -7.323094221522421
-28.11603493673055 -122.99952241623488 -7.287418358105703
-28.02475491563143 -123.095899723379 -7.3466684175058
-27.928295916336 -123.1859029331908 -7.3111340260326125
-27.92861049632547 -123.2671416373835 -7.327511345575497
-27.829662599131446 -123.34426256581027 -7.330595856591851
-29.740256548778813 -120.64690320912311 -7.346535060509271
-29.678248571132453 -120.71664983682147 -7.340738836971875
-29.60233593172096 -120.74089336646135 -7.341466180972871
-29.37304431410443 -121.10499747601969 -7.33484678607529
-29.19262826058869 -121.326549480155 -7.3672312526014005
-29.119440059217926 -121.46764785239164 -7.293842453919533
-29.061364111729752 -121.54837414273115 -7.317481404977738
-28.994529930335606 -121.55826421936571 -7.327733054528247
-28.840183000833814 -121.82261155024302 -7.303874025535499
-28.752926280920217 -121.92151103425117 -7.342926936991697
-28.707295992002972 -122.0251189075926 -7.3300045519135475
-28.61423399040169 -122.10624405153487 -7.304936759557382
-28.58143104835994 -122.14765007543015 -7.312377311788349
-28.488263260682846 -122.25076312679286 -7.345184921659951
-28.441987523814735 -122.33793145884142 -7.309732117385725
-28.41434038338874 -122.40529836990042 -7.322143780592037
-28.330213004222305 -122.47075713259076 -7.329188500362157
-28.26885987721302 -122.54570552166523 -7.322289692276482
-28.224073738710757 -122.63648185291876 -7.319712846980926
-28.174000792883266 -122.73897628310357 -7.369593771482804
-28.146020593149117 -122.8089049310901 -7.364956409228579
-27.937961170735264 -122.96080726663097 -7.318915080921811
-27.91638732583575 -123.0432161259382 -7.312496782911964
-27.905602662840636 -123.13184652705088 -7.302334715172116
-29.575226928032606 -120.70241118883811 -7.301221921916895
-29.519917941522802 -120.72868725478607 -7.30898431602118
-29.454569483722175 -120.75604820578769 -7.3523645207282
-29.375203705931902 -120.91158296012516 -7.331088905797499
-29.337720767163738 -120.9818566784001 -7.306296032761913
-29.2905371981415 -121.04229495718856 -7.317107428521842
-29.07258592953777 -121.30850835338572 -7.347698231338876
-29.026359702601653 -121.3727409153131 -7.334298309388673
-28.90120151371996 -121.55367605043652 -7.358783826214312
-28.726922114125912 -121.8079478070605 -7.321806171793167
-28.684335458698584 -121.8636542369873 -7.332477445570668
-28.603929640652822 -121.96113527265109 -7.316606091657313
-28.58528563936324 -122.02053170785122 -7.3091092806174816
-28.502640914549055 -122.1302146735886 -7.321211377153764
-28.45284001567974 -122.17445001241194 -7.346752134807629
-28.351009931079673 -122.35597091336821 -7.330241692468117
-28.28293202194096 -122.41337973122913 -7.327039688824634
-28.22086637587123 -122.50916453162753 -7.324344329219817
-28.183786815449096 -122.59546623151289 -7.278578277072674
-27.929409197377694 -122.91484184211636 -7.332258741640556
-27.895680621937267 -122.98199706680128 -7.305990894385473
-27.735831160223835 -123.14522876362763 -7.321165640734458
-29.503050709084274 -120.63468781786064 -7.333290667892947
-29.4662331234892 -120.68696568041506 -7.316303487422654
-29.406576398462843 -120.7451559882653 -7.315816617960261
-29.339863163455366 -120.9038940498298 -7.287825040529796
-29.26182823797756 -120.95886009280522 -7.356565353006968
-29.234004467002045 -121.02952605211348 -7.364384807454271
-29.02747724436272 -121.29171842765415 -7.348056719916415
-28.986282302379227 -121.34160989392406 -7.31485413246238
-28.629322318198856 -121.83025080621088 -7.3351857790897945
-28.441119612231706 -122.09996982877294 -7.286898252175634
-28.407160603898937 -122.13011933067936 -7.321459829006502
-27.697482538356077 -123.01971671289627 -7.332293884691593
-27.619680169738402 -123.07300173850264 -7.300517373973252
-27.588999725759265 -123.16135507774413 -7.30292894650159
-27.612047332467156 -122.98195166061727 -7.320837325598855
-27.581349686406348 -123.01309982034846 -7.32143057347221
-27.54700465266381 -123.12871540734685 -7.3371165674749825
-27.493949403179787 -122.9066316279227 -7.3504267579816185
-27.501752996421487 -122.9222637262265 -7.342725203778544
-27.405598442605992 -122.97904670683378 -7.305310534458693
-29.403586663393654 -119.19161345883826 -7.310526153041735
-29.35687409599753 -119.25459954609612 -7.317834214392604
-29.295262115379902 -119.31979816053764 -7.305347180123339
-29.3293720053589 -119.23268959830455 -7.338588429561102
-29.260454008924228 -119.3300104337939 -7.343501804007497
-26.965563147741708 -125.26971544732871 -7.186095505496713
-26.794922172836703 -125.52028520144557 -7.19570820148215
-27.9611369311565 -123.7902138556399 -7.278405429083007
-27.88432678280464 -123.87630870114921 -7.248437705990959
-27.045236854446674 -125.02327757175996 -7.231894630444237
-26.97469200721127 -125.09257132833781 -7.187837764336784
-26.969213644980666 -125.22134598467238 -7.205819905378227
-26.83174372789755 -125.28055036978971 -7.244577151389722
-26.80532899169817 -125.36951730889147 -7.233449263784972
-26.812117536308065 -125.41416629424565 -7.235756203177541
-27.85583910935413 -123.78839810513504 -7.2618071588298125
-27.840421135126906 -123.8271914983329 -7.254939486700349
-27.020755680444818 -124.9168440667209 -7.2591434733473506
-27.004304751293063 -124.96077009098184 -7.237542095060415
-26.954831280701846 -125.0850906878609 -7.252560398030901
-26.798591704019298 -125.21759738119405 -7.25465581377685
-26.80307395699135 -125.27008221177599 -7.267448138238562
-28.44208437478499 -122.80007027325735 -7.25927256410366
-27.791203774230105 -123.77297438335239 -7.2501217960937865
-29.332829696916725 -121.46881967305163 -7.185463666368358
-29.2803639001416 -121.54511243259002 -7.214163109494379
-28.54839207313723 -122.50088340383029 -7.233127109031405
-28.44117229253937 -122.6135227014665 -7.223626067636237
-28.416470185348132 -122.77538553852955 -7.2707878993622295
-28.25986116024965 -122.92748925799923 -7.235089871178765
-28.15431264518335 -123.08087817251878 -7.218213599574683
-28.051234451651037 -123.14005162159671 -7.198056249758913
-28.020953861461628 -123.20367280134967 -7.210762254870562
-27.83179933778506 -123.47654261089262 -7.190906153990836
-27.05207535827863 -124.61372846107777 -7.243094142915236
-29.265763328004994 -121.4448576283754 -7.204503329664456
-29.222256372521883 -121.49914162750129 -7.209647617799562
-29.147183485707114 -121.5734645922567 -7.206667703947984
-28.737308685839388 -122.04807101133459 -7.18044341353234
-28.715750317273073 -122.12433181833359 -7.186482544785595
-28.540941861134343 -122.3769131680777 -7.2568433071533995
-28.497720185075472 -122.45984613352988 -7.247009266401166
-28.403367959325703 -122.57610371243686 -7.2370605788028435
-28.231768502948835 -122.76896424368698 -7.247263960091178
-28.211798402399594 -122.85105403448414 -7.2417073523261895
-28.114141401266902 -122.96118569637771 -7.2476088473366165
-28.058036227778928 -123.0164364506203 -7.220973198260345
-27.994677987368817 -123.11633248076825 -7.221056931940415
-27.949801210805585 -123.16942801331484 -7.240932719649265
-27.836387662606327 -123.32308925407875 -7.228939118592677
-27.808901826379437 -123.42991233681397 -7.204253036766902
-29.44488502887824 -120.96554902279864 -7.235172316458724
-29.41461370865142 -120.97554537422903 -7.24945036780669
-29.376328876048376 -121.10685125724261 -7.187771110717603
-29.187455830815615 -121.38990887424274 -7.214486255591449
-29.090822901205744 -121.5452194963497 -7.219998718073974
-28.819690981758722 -121.89151842221474 -7.205378538249976
-28.78145456881027 -121.8903545391024 -7.219556162397583
-28.69579981262904 -121.99449734093433 -7.201089919815175
-28.62847925395866 -122.08553089283484 -7.23140667383735
-28.586483086852983 -122.13140008289967 -7.259734355459534
-28.50966159614443 -122.20387785381725 -7.181820335011565
-28.49770535214932 -122.29883567088723 -7.232439478033383
-28.409881539132314 -122.40112452718016 -7.210317022189497
-28.345019752653887 -122.48091477928884 -7.256434321369575
-28.19436750598282 -122.6603389366326 -7.238777931952406
-28.186748090640098 -122.73845585760316 -7.231105687206919
-28.022373862281142 -122.92549289541628 -7.188145640163976
-27.999657335269056 -122.9926922044426 -7.203303597847764
-27.923747429387 -123.05416241932366 -7.215725977440495
-27.914428119111033 -123.11036661152397 -7.244220584164317
-27.77177364696013 -123.20197510324758 -7.257777752011757
-27.74009844362852 -123.26091304749272 -7.24727491048531
-29.641979781126206 -120.61584679174196 -7.239361457643634
-29.564323474884134 -120.61289913603886 -7.260600698717029
-29.487768670788014 -120.71231403267822 -7.229345700654982
-29.404386828624546 -120.95025152301329 -7.23898887333504
-29.377735091217673 -120.973501890024 -7.256174667656126
-29.116812342109892 -121.35105536404684 -7.220756237368646
-28.909162504527814 -121.58030797877429 -7.223913498388163
-28.862631143618184 -121.57255750871491 -7.235311372028789
-28.672086461648302 -121.88047320787626 -7.1919153757673175
-28.664311742804596 -121.95690079131656 -7.211486873345198
-28.596935563790236 -122.06259434493734 -7.243492103984391
-28.486697386421625 -122.13110837442125 -7.235244581248402
-28.450795037913995 -122.16774909631386 -7.2301632897715225
-28.316895512623535 -122.38536025035167 -7.244048878515212
-28.28382854192231 -122.44056503243635 -7.244587502933366
-28.19903687876097 -122.53384606188258 -7.260463801288648
-28.166519062963985 -122.58271970792624 -7.2473485928074135
-27.947875538024405 -122.9279729934372 -7.26972947574161
-27.866669835263302 -123.03553078961538 -7.186579303041121
-29.450741659553405 -120.7025711478916 -7.257866432623394
-29.20708069862469 -120.97315701783866 -7.21592026799355
-28.85365963419335 -121.54785453248486 -7.255665848638254
-28.835126969789645 -121.54512085570198 -7.25540909280712
-28.457132991818607 -122.07385362563488 -7.244420679709158
-28.3886154641159 -122.13390889956355 -7.239976153893414
-28.102034052917297 -122.44710918501654 -7.235007539178988
-29.272869186189972 -120.76767440826967 -7.236347416937974
-29.191393854653562 -120.75705694069033 -7.250667592273594
-29.37000752239051 -119.21305845905528 -7.236697805685713
-29.32751301670591 -119.30919822164249 -7.225283729239997
-29.327942429482594 -119.24103074667781 -7.212634618146571
-27.01131185190474 -125.47548818781416 -7.1061175303229
-27.054616741889095 -125.16287667629749 -7.163463290072553
-26.98349223599935 -125.24218058502993 -7.154357227958474
-26.977623182053083 -125.27776185648136 -7.167129794157555
-26.789774069887883 -125.49808051913806 -7.133294414585054
-26.79482839228672 -125.6051499767197 -7.161505669170521
-27.098399637830454 -124.95264229686265 -7.148662603852791
-27.022140227514708 -125.0443020816768 -7.1733747902706835
-26.988261187651354 -125.1835226999971 -7.152337239199908
-26.781400676273794 -125.44288269859717 -7.157826708120726
-27.074765957443002 -124.78518323290143 -7.152744725754144
-26.78135448332152 -125.22605376028784 -7.1676526066318145
-26.78966713907866 -125.26377837661907 -7.176896265328246
-28.202872304019294 -123.25731829293707 -7.145309979992181
-27.875667999389655 -123.54936479178052 -7.1382465327677105
-27.105123191377 -124.6057647985134 -7.161890798305567
-27.1003189060717 -124.6703112589159 -7.1419013737385635
-28.981060339173002 -121.98502816620663 -7.137253569963169
-28.585546786089242 -122.57013804358617 -7.108732501519353
-28.29495883423486 -122.8295161893743 -7.129792129448379
-28.2502866551827 -122.8654948723983 -7.133598510981492
-28.23721253293671 -122.9705473371133 -7.1255326122953
-28.051972225010793 -123.1330332851129 -7.134748344144793
-27.850908406685065 -123.48032705099727 -7.152714913132995
-27.84797601067391 -123.56350392552068 -7.170218839338781
-29.46626275030108 -121.11740379659295 -7.159987398453038
-28.749427680105693 -122.09310782841004 -7.145167658608418
-28.729270455618366 -122.10267732809392 -7.150792562281409
-28.496377147736773 -122.4961394520572 -7.137629552946113
-28.213704940141426 -122.77655378683386 -7.159841582977922
-28.20105318217536 -122.86261559368225 -7.146276273488452
-28.081368031453014 -123.0364076644054 -7.156265974532835
-27.977705206557207 -123.08227191984804 -7.166029452991444
-27.829289162050298 -123.40729155288939 -7.139859803692305
-31.25489643956962 -118.59741237105212 -7.082755850614209
-29.020220484162092 -121.65679976278071 -7.153967241031201
-28.720963849694247 -122.0605154286307 -7.15570224029679
-28.649502621544514 -122.06724712117281 -7.169215033520177
-28.19951255583887 -122.72942345644537 -7.163773822403831
-28.162734975969173 -122.81360049399822 -7.158938603494782
-27.948640616246788 -123.06444020048038 -7.165728508093409
-31.062675641779947 -118.66352255924392 -7.094547415699917
-30.99262428617431 -118.7091855967999 -7.100246940102416
-30.89930770081576 -118.7337816759676 -7.105467465067384
-30.676126085106652 -118.83080856804314 -7.127706923197087
-30.450350429967166 -118.92540555960983 -7.125248342166082
-30.45445330216007 -119.04419124570443 -7.067781262938519
-27.056340795736578 -124.75903081308068 -7.021348478875157
-26.77559862366846 -125.09474255262326 -7.009743911538235
-30.582890788503768 -119.00908284879823 -7.032862209299773
-27.005177617797518 -125.24009061677205 -6.910235574223868
-26.789687751211353 -125.57551272757058 -6.9360318813076445
-26.7454862039428 -125.631542297109 -6.943917145357033
-27.00372211280624 -125.11192538197113 -6.929051250022211
-26.927428344683815 -125.17959494596282 -6.958039727227207
-26.913229433617648 -125.26060139186912 -6.895901902947311
-26.846659521261287 -125.31839196788573 -6.939855293432283
-27.047157085174575 -124.8223779452208 -6.973472531688039
-27.04463197891616 -124.8469681343446 -6.950055765934472
-26.99994661303972 -124.97277067003353 -6.90950637137299
-26.876853536809804 -125.14208414749822 -6.927890688879018
-26.840812950075176 -125.22185486607138 -6.935566785754026
-27.04897329011043 -124.68185587816903 -6.940965842420652
-27.035443476842595 -124.76201947375553 -6.934893131753903
-27.002460217135457 -124.5410373801274 -6.899746735101628
-27.013094236868813 -124.39854452488298 -6.894216027778042
-27.009064075783733 -124.47458538287276 -6.9124565035098025
-27.0067151486062 -124.34353212800629 -6.91854969154376
-27.025190309264236 -125.40806120607266 -6.839490571585877
-27.029075451307225 -125.2415462781243 -6.861530302284756
-26.98785965258722 -125.3083393268537 -6.832099724501835
-26.89745382371061 -125.38469307875799 -6.8467404668605365
-27.003820501509804 -125.1045391834854 -6.835562539654025
-26.954377743160233 -125.17372291628593 -6.8319725876694255
-26.866403484285044 -125.22759665631563 -6.874721011105356
-26.867025172440364 -125.35106250493641 -6.858877261976366
-26.987585137242448 -124.99201522768077 -6.847730975179155
-26.935556476004784 -125.06080774845023 -6.819143437828167
-26.87172190776874 -125.15733648644598 -6.826102769934473
-26.87113276642487 -125.19667319319458 -6.858120652628913
-26.99635740829643 -124.7312039565262 -6.86087993435513
-26.988194458008913 -124.86050285991722 -6.8288523001377275
-26.87603292371267 -125.00911441165215 -6.799068156507603
-26.785181842440316 -125.05291989833536 -6.847927820889479
-27.035145195907916 -124.53845115783699 -6.847452102921862
-27.01960130018293 -124.6222371615885 -6.828128145107667
-26.988670252242184 -124.68440655535707 -6.872236683684694
-26.898154784433544 -125.18041301336427 -6.715938663312955
-26.90249222226003 -125.27223665440846 -6.765222611510853
-26.884120307070255 -125.0524324225857 -6.774615208012396
-26.89234298548307 -125.13261706883915 -6.722233013571442
-26.765356724966686 -125.22380765087101 -6.773824209585938
-26.75718006683051 -125.26986925263186 -6.751112996536514
-26.861982175248066 -125.04929300382926 -6.779594304346924
-26.733657980758995 -125.0683537478707 -6.712876991819995
-26.79935180097306 -125.57588887776633 -6.6296461335866015
-26.917720180389097 -125.24598391967318 -6.641516381675074
-26.800373564063385 -125.41684944590152 -6.680862638092844
-26.912687850036853 -125.09087728884595 -6.6799637246976555
-26.880906951957318 -125.12352753409967 -6.658023004295168
-26.74478791747304 -125.2511499686537 -6.652538062702195
-26.716806278880902 -125.15506774833618 -6.665623852819948
-26.942173456564106 -125.49025371970043 -6.512258586549851
-26.91786199162676 -125.42047346316912 -6.53473131757424
-26.894717888541468 -125.30840190051924 -6.55064283366749
-26.72817591540675 -125.44049493025834 -6.5080783927067625
-26.698459118227134 -125.49967094970214 -6.524160852965551
-26.724217464038603 -125.29018520425524 -6.549547151572229
-26.735040194739373 -125.38162535796405 -6.557942564894014
-26.025278342024695 -124.7280541916254 -6.500086330240848
-26.017098761010914 -124.80741059970191 -6.493516810134378
-26.804848113525576 -125.69769019658331 -6.394308710378246
-26.725390323966664 -125.82149578007501 -6.413382355282883
-26.77326956468332 -125.57026598458727 -6.423366301399703
-26.69779788428017 -125.66498482715876 -6.460578164958733
-26.763117977236245 -125.46329995772244 -6.403380713665181
-26.7414473594183 -125.49627184445241 -6.468943611768796
-26.753949747273758 -125.35461587960572 -6.43668904393671
-26.009689735804255 -124.73572470230842 -6.463895855853135
-25.99601497143047 -124.8358279225247 -6.417692552211701
-26.807974728641277 -125.89975422126656 -6.345520293085777
-26.75630341798178 -125.56222726212046 -6.354246927450643
-26.720413018688912 -125.51542768033882 -6.348815522108953
-26.403953955198336 -125.58924170024417 -6.2884443099454055
-26.40833001101639 -125.6302433992029 -6.28873455638174
-26.411968567310453 -125.4402079245318 -6.3627967681900754
-26.399633815930468 -125.50249883457784 -6.3033956265738675
-25.97428090962233 -124.99452404895808 -6.344242652843945
-7.535200234662259 -133.2688845289624 -8.055170842514991
-8.323851856373047 -134.96931192214547 -8.057758996221663
-8.733854216370357 -136.10102193162552 -8.06078455828451
-8.963145762629185 -136.55862006175036 -8.060826468753342
-8.917140396105673 -136.48865098502264 -8.060871179606368
-9.054369553254393 -136.58859595209634 -8.05939426100712
-9.349034891360137 -137.09555393719072 -8.058796152294315
-9.278203388264032 -136.94072039340682 -8.058697659997478
-9.231725501915609 -136.53762229078728 -8.056062813543447
-9.435435807320275 -137.12871848242588 -8.057487725163218
-9.348264065052682 -136.98359759948443 -8.057753055955962
-9.328751736213686 -136.55529587419892 -8.054439217992137
-9.426909901835447 -136.57691697547554 -8.053064938042361
-10.379455323384747 -138.29808880160658 -8.05087921070215
-10.941111556940832 -139.7091125886206 -8.052367411503383
-11.051211092487318 -139.71217218288692 -8.050426508117996
-19.555739175448867 -124.49136668355906 -8.059934772131022
-19.573630956604966 -124.35643200621796 -8.055597797064836
-19.698619779360314 -124.47945422202744 -8.052884519751075
-21.652551565754777 -122.0118628370104 -8.058404253631833
-21.63169727364463 -121.94793951848841 -8.057556439924861
-21.61594526431268 -121.88988432275333 -8.056513185431822
-21.62313880791844 -121.77849622106233 -8.05197922260941
-21.759830127115485 -122.1422526426527 -8.055242610279592
-21.67461505521363 -121.91468637736374 -8.05289523226138
-22.81541435212946 -120.12744131998731 -8.063501019849596
-22.857431722390245 -119.95834273041203 -8.059870963759677
-22.853429529710453 -119.87562965705936 -8.061241081233426
-24.038466363927146 -125.01976540203104 -8.061051980051376
-24.04693945124531 -124.95671420276388 -8.056353812366853
-22.91333785826312 -119.84033941783902 -8.055057347707605
-22.939814120584032 -119.77708827067781 -8.053095492197656
-23.622681220401397 -122.343148887473 -8.06155523781618
-23.594889031034626 -122.2755548829457 -8.060704349343743
-24.236384559826973 -123.11507335865815 -8.053234716412181
-23.80937873201652 -120.91778669589462 -8.06111719770347
-24.02169038776619 -121.5041982557887 -8.054739366743421
-23.96570670790447 -121.43774542762773 -8.059129005868392
-23.82970263698519 -120.92678057538883 -8.058231370240442
-24.36195886848447 -120.54104664182144 -8.057712304333943
-24.36144425975361 -120.40904980651959 -8.05880211538217
-24.36314449641398 -120.37331608000129 -8.059010448050106
-24.395637958270406 -120.26403572194268 -8.055409810754593
-24.395318917923248 -120.13145201497825 -8.059604885315112
-24.417868349077434 -119.97589577877018 -8.062355985652792
-23.94624727070628 -117.9210696954199 -8.05334876710378
-25.181175586952584 -122.99073663304598 -8.059552385423888
-24.74547418317728 -120.52142349378371 -8.0592379348179
-24.56171343894227 -119.67267852624795 -8.057221600275783
-24.773884499438303 -120.51457418101873 -8.053061605904789
-24.62379192675726 -119.56294556100822 -8.056187041437038
-24.246832244942173 -117.72416497858825 -8.05476200466947
-24.784527636293603 -120.17386927567526 -8.062291972800216
-24.839344769512838 -120.0001040511045 -8.06203608245608
-24.65580413595326 -119.53313992082067 -8.053829931339582
-24.66192647186959 -119.50757531457398 -8.05514886083403
-24.311466487244473 -117.70666922517641 -8.053290867444282
-25.384069581690394 -122.48051097057841 -8.05818088500873
-24.856565974711692 -119.95376981840816 -8.0620962603852
-24.91483938026206 -119.86474363032404 -8.058194545549126
-24.381003207165165 -117.66543469314092 -8.054292417891121
-25.335032153668532 -121.46453603832161 -8.057485706450763
-24.951232534179788 -119.804867941007 -8.056870877270953
-24.98250594655662 -119.69325009132275 -8.0626985853799
-24.475629391035163 -117.6302513288823 -8.053894096495451
-24.446910402732083 -117.61906513679929 -8.056174027337045
-25.00072157667679 -119.67128601339803 -8.061825017650852
-25.064962529528195 -119.60149875114865 -8.0585730256572
-24.587266569778933 -117.51473115701648 -8.061635821484497
-26.169141347939128 -124.35467292587711 -8.055676548632746
-25.085185816458793 -119.57575641792945 -8.058300639105834
-25.12155509097929 -119.52055726337349 -8.059225154066786
-26.18676632514434 -124.32527676722971 -8.05186467818117
-25.15763823919811 -119.52648743659022 -8.052339314168522
-25.17611442818705 -119.4671455510701 -8.057518444377553
-25.095771750647728 -118.98091826334111 -8.0574146798639
-25.281939974318547 -119.35460149597284 -8.057533382314375
-25.20157536258457 -118.93170964405014 -8.054360672181474
-25.324400519734926 -119.3421033542644 -8.053176749543653
-26.644858380883168 -123.55433958885672 -8.055375937442825
-25.633204055870998 -118.7141303079096 -8.055738517199716
-25.642059068186548 -118.67056619837857 -8.062951283211131
-25.750455316024027 -118.68927059683347 -8.053012955263187
-25.77918619435573 -118.63714767408057 -8.060903047169278
-27.092660380855296 -124.43738776881416 -8.05475072988659
-25.820807290876683 -118.64146144626856 -8.05800542217447
-25.94252018178757 -118.59022746082468 -8.061981489402546
-27.310338725725163 -124.48376788736083 -8.061829506643068
-26.019647480497767 -118.08301831836617 -8.056733392930303
-25.826907314281645 -117.25455584534015 -8.062109752191153
-25.92787189548428 -117.32992186080163 -8.05230220484039
-27.185730955526775 -122.59095113718111 -8.05333758875199
-27.247242617904188 -122.57454551537309 -8.052810594214815
-26.52640051466601 -119.1679976456704 -8.053283234976368
-26.180864372152353 -117.28450952317137 -8.057546184353523
-26.681121150586534 -119.13837384880496 -8.061161554126501
-26.27365748821699 -117.32915640604433 -8.052448124102337
-27.544023461912825 -122.88950231429435 -8.05413531823491
-26.33023230817504 -117.30014903231375 -8.056305933393205
-27.730866576541843 -122.39798321850212 -8.056563571477781
-27.043098534019695 -118.93820525148617 -8.058971532467774
-26.994129074245926 -118.57564935117435 -8.061584752001949
-27.17665293179398 -118.99761882529872 -8.052637859589398
-27.138385331069728 -118.97116502683929 -8.056413464391165
-26.463375977775723 -115.96275136166422 -8.057389185617616
-27.940207411478866 -122.26620158800242 -8.05783158411044
-27.195358706390152 -118.98839554926087 -8.055943617899741
-27.19179856434408 -118.96538791606183 -8.06097621937658
-28.085121430127682 -122.6476196257776 -8.059331995296187
-27.21716729877614 -118.18681498056642 -8.053056611682983
-26.71340911969731 -115.94543149999467 -8.062931275953892
-27.259451898054323 -118.19050534675904 -8.054105362498936
-26.877219959964574 -116.08511202701015 -8.052852018322024
-28.246698696978626 -122.4983493179433 -8.055353153971877
-28.466128859532255 -122.27309603344037 -8.053696614840884
-27.622012939259452 -118.30107583880442 -8.054456456220521
-27.709697772221766 -118.33010055922111 -8.055248487819288
-28.63492337933828 -122.10273281783654 -8.058461438024041
-27.368357490013164 -116.09424003375855 -8.061506997978572
-28.68410518403289 -121.98516250595429 -8.053920758853803
-28.38268517130298 -120.74287502546701 -8.056740543415494
-28.37954786163863 -120.61624515539998 -8.05873773834432
-28.355633653568127 -120.57478114860147 -8.053900982960473
-27.448217357577036 -116.11695089848723 -8.06127205571647
-28.759503113181527 -121.92777721623716 -8.060421011818955
-28.741417219911792 -121.90526197529302 -8.055452009365904
-28.798720871026916 -121.80192870798732 -8.055843603361144
-28.05912249189456 -118.49499152318693 -8.055246412812423
-28.828770449454694 -121.79965460332984 -8.060652959024488
-28.56336912448204 -120.26388912021895 -8.05647053269435
-28.923710879860895 -121.53169055797176 -8.05809890212224
-27.17844435592862 -113.24660068259203 -8.052988354648681
-28.97048204401093 -121.45331215281313 -8.062056544905303
-28.98674539601903 -121.33116857527526 -8.05924968614286
-28.792129335286795 -119.9170790762872 -8.054113080984822
-28.778709997987015 -119.85191761832158 -8.057438398249989
-28.678300252417237 -119.6681747437041 -8.058319307281224
-27.291844925981884 -113.15009396928076 -8.060216544781634
-28.910220552556563 -120.08215391411784 -8.062650277711226
-28.800094345680172 -119.82974360519125 -8.06311456188128
-28.30912235939375 -116.48189600357024 -8.05347876286786
-29.115327141881465 -119.46725586775223 -8.054730089779117
-28.485312650036597 -116.44987985716529 -8.0624703810173
-29.136544589073157 -119.47774561270019 -8.056703960188933
-29.56296988278012 -120.77468358925833 -8.057400938166356
-29.581320232135294 -120.7164052722176 -8.060836656526703
-29.44734728870924 -118.65276510150227 -8.054961690009074
-29.471366080238184 -118.61253386770797 -8.060658979815031
-29.97981563332516 -119.4473532585602 -8.052285652216181
-29.946791228578135 -119.20863940979083 -8.063245008389522
-29.053348295190883 -113.70119537855531 -8.06306352756369
-29.96413368805517 -117.39176250628134 -8.052451081556839
-29.941860870890494 -117.30901838023819 -8.057409672560828
-30.020029036763475 -117.36967590616423 -8.057263667670396
-30.16471877832686 -117.53850030416496 -8.053742974349493
-31.864342888734235 -115.08236566755605 -8.061783856881881
-32.50358981318818 -115.72249299005045 -8.052879317541606
-32.533216726431824 -115.73218516286062 -8.053454828198735
-32.580027100653865 -115.56745417261352 -8.062475498292166
-32.615887536912055 -115.58994183936879 -8.06271352239049
-9.149084176820278 -133.1950602511212 -8.028014933048683
-10.523117855717384 -138.0218619082094 -8.04616308795844
-10.391290488924124 -136.88290617732923 -8.038984053331395
-10.554676005859154 -137.05793492998495 -8.03769151833756
-10.525359334729071 -136.97230582194655 -8.037415090196477
-10.467188697992757 -136.9197688280503 -8.038057098943735
-10.97289080691664 -138.76899377416723 -8.044314483369847
-10.994988723693469 -138.6180876333017 -8.042701033804867
-11.251569654794261 -136.91042661837204 -8.024323218318004
-11.298639083645517 -136.97197440409437 -8.02406204287017
-17.271803122891505 -141.3444586615879 -7.953214315128068
-19.69110342970264 -124.38817331013861 -8.05074250135463
-19.655084506756136 -124.34460106477393 -8.051315736198056
-19.626310870288428 -124.08323536991597 -8.046191086410541
-19.650600995751297 -124.04104269804374 -8.043849133026395
-19.862590279860445 -124.2678108327097 -8.039649160596053
-19.889887343441366 -124.1364142990096 -8.034975643734649
-19.89230877741939 -124.10537856039875 -8.03394362306427
-19.40683090484106 -121.67840285281751 -7.963607344645796
-19.999654704068003 -124.11016721094961 -8.028977552141663
-20.098946891190035 -123.97361339372402 -8.020910418842972
-20.032906205886277 -123.69092360550457 -8.01694956160547
-20.572311347546975 -124.9527714604862 -8.025523468662335
-20.27764710949011 -123.63633764878594 -8.003873019235538
-20.20511548660077 -123.39799190573156 -8.001663747613218
-20.211194593460704 -123.26314013131953 -7.998381995571559
-20.63643785420278 -124.94017105372967 -8.022171106188262
-20.560621348705684 -124.12910526676897 -8.00313787940464
-20.436061140742183 -123.3552320465494 -7.98949233343274
-20.353648653614975 -123.1554201392344 -7.9889935069512275
-20.609941333586725 -123.6681771956821 -7.988894109084115
-20.52564327937234 -123.54975174715443 -7.989991498655514
-20.460944879988126 -123.13938206736812 -7.983272749457028
-20.753470966571598 -123.99483144096459 -7.990429806477691
-20.624772880366628 -123.63438940789833 -7.9872286459365265
-20.665915645660796 -123.28359180418632 -7.976819009398832
-20.635979433692377 -123.12084213656857 -7.974343225536221
-20.869770565493685 -123.5677163439121 -7.973884620204821
-20.808302482238506 -123.27115183972194 -7.96966013174656
-20.713086269048073 -123.11489114312756 -7.970588990127261
-20.86009180178897 -123.22465872042284 -7.965930923187474
-20.98121680671691 -123.36450148309325 -7.963507618075774
-21.03579472645512 -123.26748411943251 -7.958626641663904
-20.952496427526317 -123.23210352139633 -7.961665167909296
-21.07528086977454 -123.06174554167346 -7.951804415220821
-22.00384408007417 -125.90678241627721 -7.993539647379369
-22.019392820123173 -125.92630156656766 -7.99355571565062
-22.51684410489421 -126.70459634151946 -8.000934833470968
-21.6771086400096 -121.80397351494206 -8.048859219276306
-21.71047188597548 -121.71225001475946 -8.043038149960639
-21.654565812862145 -121.6711412225291 -8.045967512764678
-21.789914722589806 -121.79812300691688 -8.039772418923167
-21.804074157476922 -121.70667498385681 -8.035478033094636
-21.781615688267813 -121.51743406157152 -8.031158811926678
-21.689231503643466 -121.3006504133728 -8.03176299709646
-21.664388167773318 -121.1625498694632 -8.029972577747564
-21.872922545361206 -121.81496532099713 -8.034123091201181
-21.884855817604006 -121.56991382835581 -8.024787161063431
-21.832629862600548 -121.50098845609779 -8.026590584947318
-21.781990089480328 -121.11293290761333 -8.019532874118317
-21.743871496787342 -120.98325784857333 -8.019519630996953
-21.691367806231938 -120.93265540808848 -8.022446175613137
-21.92538742428077 -121.54605602253632 -8.020704735897029
-21.934839471585622 -121.37545175902768 -8.014701561597562
-21.905417299310614 -121.27753928721725 -8.014287387075028
-21.8819911976531 -121.20404572835595 -8.014055032617675
-21.806426657354347 -121.04844452392315 -8.015986258947672
-21.814961121174534 -121.02237666707697 -8.01478552461063
-21.831976331874614 -120.8996216516181 -8.01078088181558
-21.838049732927942 -120.7670640936646 -8.00769722926376
-21.768285555218622 -120.56146366732871 -8.00987841051382
-22.024819904382962 -121.43562030004888 -8.009533083059244
-22.035100775887567 -121.36792109103209 -8.006691268865604
-21.99723594224862 -121.26755340275099 -8.006804173010899
-21.974445175170672 -121.16291080219733 -8.005698160411006
-21.96369157498012 -121.07221365314666 -8.00434201104063
-21.906730423778036 -120.85905209244133 -8.004105056242773
-21.88983787693389 -120.76680029678438 -8.003605751404658
-21.902734912058953 -120.66695556750021 -8.000878330868797
-22.162810537185663 -121.51543885777328 -8.001302737919605
-21.973991952706072 -120.82486445932798 -7.998023857880726
-21.963726212446826 -120.72575111223938 -7.9971283738381045
-21.95414064896162 -120.47788603343535 -7.994190930184435
-21.82396915385391 -119.9261725112008 -8.000662258035794
-21.818027131896486 -119.86303060221371 -8.001166052071676
-21.836717227269133 -119.79611697811778 -7.999761933722543
-23.736726523254813 -128.75632133960008 -8.041466458991795
-22.540153651344916 -122.84141025186516 -8.042291021495638
-22.21953706656231 -121.32302771742006 -7.9910220707449495
-21.943698815805124 -120.22612365628346 -7.99265970891049
-21.891570509790206 -119.96314429085835 -7.9954250220954135
-21.87662248319796 -119.84758476078389 -7.996584034016295
-22.403700990386966 -121.81117230662801 -7.992940889361252
-22.227256666327115 -120.69667256782418 -7.975861631012224
-22.14363665034422 -120.60882222953876 -7.981000772047349
-22.10602307216582 -120.55086431694629 -7.983080742225864
-22.111252287682657 -120.41509323690244 -7.981109491395999
-22.01413193484903 -120.01726567607449 -7.986050193658884
-21.971859172655318 -119.908231547593 -7.9891684084315235
-22.016883126470198 -119.78070937406618 -7.985838375313878
-22.0183664598525 -119.76391733895758 -7.9859032852987895
-22.515010624078755 -121.85373204022059 -7.986102814481185
-22.26608183112792 -120.54299630474223 -7.970522770255033
-22.238011636653567 -120.39282109279479 -7.970940738889477
-22.159450877923767 -120.09637456349789 -7.975099752617051
-22.156584985145525 -120.02304419251357 -7.975175500630895
-22.086192064099617 -119.76149838912222 -7.980594513623684
-22.075614575320966 -119.71705610200394 -7.981634124289946
-22.04397798159227 -119.6327375733946 -7.984493311740016
-22.398530813625538 -120.71419282598075 -7.962512384353117
-22.396816699498615 -120.64696641252806 -7.961635581472561
-22.35050590427895 -120.53211933233862 -7.963600717623696
-22.342737028398265 -120.46259508403804 -7.963454945801372
-22.283725545564728 -120.37299793178026 -7.967101753192231
-22.307251395786913 -120.27720432563872 -7.96452217767028
-22.333462249351424 -120.20776268391606 -7.962126237579893
-22.17248307299295 -119.8460146599568 -7.973788626925484
-22.14869848544191 -119.6243878155118 -7.976524877832622
-22.416254786747125 -120.35433138042423 -7.956646229409741
-22.395067376885564 -120.24602735807463 -7.95754712916016
-22.398851073412423 -120.16947976937229 -7.956720802765019
-22.29235280410687 -119.70889490962941 -7.965119887701855
-22.279004044802456 -119.57421831124056 -7.9670173945390195
-23.096314013379192 -122.93379624136844 -8.003205647861018
-22.4443887743029 -120.23687293402838 -7.953514049574339
-22.45425481551143 -120.16190787936621 -7.9525099073988335
-22.41363506407071 -120.09568051004216 -7.955434041739715
-22.374983517994988 -119.87094619329142 -7.958352468622494
-22.386646345860612 -119.63537376758367 -7.958451059205939
-24.50453160423006 -129.10814358304162 -8.038021683735167
-22.418017422232303 -119.59484047002562 -7.9565320407629585
-22.410525370257872 -119.5768365819369 -7.95712772004398
-22.448639373045168 -119.45944166402158 -7.955459965198824
-24.631469362586476 -129.34716997072064 -8.045830490092285
-24.227157666005617 -127.51714964786711 -7.976296007708063
-24.635937896181645 -128.95471573946207 -8.02850566069941
-24.6528399989496 -128.88687021229836 -8.02523062168809
-24.344153001990122 -127.64216094464847 -7.978547665598957
-24.888471673519735 -128.90514846166687 -8.02125132505591
-24.865484377610372 -128.87734665616824 -8.02042021803145
-22.961296134124364 -120.02301895823437 -8.047764334133033
-22.938866430766204 -119.96392126559554 -8.050801272864716
-24.892913796632588 -128.63340525480402 -8.009162821717373
-23.021905689479734 -119.86663401539063 -8.04283878743001
-23.02284051780789 -119.77795497580018 -8.044060651511499
-23.0225970913253 -119.72393996622665 -8.04507426715247
-23.627827541248603 -122.07174713964682 -8.045836974854872
-23.566292689100848 -121.96768720459339 -8.04753820664844
-23.11113873520904 -119.86160148763936 -8.033106308495304
-23.10432379978493 -119.68455322878853 -8.03698085904799
