ply
format ascii 1.0
element vertex 831
property float x
property float y
property float z
end_header
78.20665882985257 -149.31394584478264 -0.03951220736211081
78.27651147590582 -149.21310806810118 -0.024482783890312554
75.23687231161654 -155.71036104108975 -0.02474989557244256
81.12975713672303 -132.81579179733896 -0.017877797376942395
75.2039702875204 -155.6152907585499 -0.04308312211162946
81.03250587813679 -132.69142915602885 -0.016515953231979408
75.15168308600872 -155.50128916458843 -0.06685060858146996
74.67174347551716 -156.43019414926215 0.006245598438733069
74.6972835999613 -156.4076594807407 0.005944917019493401
73.10777511161359 -158.41999421534155 -0.06983762880397015
72.89778017850132 -158.69893010348196 -0.03884713594148459
72.96970201666436 -158.5637902289435 -0.05576041903155171
72.8176801588269 -158.82247975539678 -0.023939234179388258
72.81298991857658 -158.8032542777406 -0.02710037925943065
72.85055187209828 -158.67595703285136 -0.04489909225626243
72.9258268744187 -158.5065873822565 -0.06696861130535825
72.6996725177709 -158.68750250378974 -0.05088357766168916
79.55146518147694 -132.05509322296137 -0.04917404631264488
72.64574752730051 -158.68712655434803 -0.0536527099393973
71.57499840503172 -161.63878646515658 0.00380024072987295
72.33552686272286 -158.7706737171523 -0.05481403575811794
71.48054400851036 -161.58567432481743 -0.0047356057466168
71.94069651103398 -158.8519579730881 -0.057353036610020114
71.90963694114663 -158.8244537501593 -0.06273475598383982
71.87740532836965 -158.78106942492894 -0.07076637400501862
71.51984519467281 -158.93823871487297 -0.05645334056332474
71.55313296399898 -158.85593060443483 -0.06866992372968261
75.8746346995765 -128.53239522725326 -0.0031592804692499588
74.65228873493784 -128.49792652275255 -0.035461954294588205
74.77010379049281 -128.28279588797045 -0.02145356114692132
70.0688096472408 -145.5768968261213 -0.0025690448889565953
74.56963148376899 -128.0393901797449 -0.014115840883487829
69.9412023641065 -145.70343144384134 -0.028988280529856247
69.97206910538736 -145.65481435637068 -0.018579457181427728
70.02246983149776 -145.59659106175084 -0.006264714670006111
74.401074972187 -128.59710173272356 -0.04735319301055463
69.88391387794286 -145.7124870897936 -0.029737884604067455
74.22325510693152 -128.70742876098814 -0.057625824281552385
74.33458314427187 -128.5020232700906 -0.04402018356600146
74.2086120794887 -128.25115075555925 -0.03434182781031203
73.98024810050106 -128.14264909074808 -0.03467715894789869
73.78706624938202 -128.3711674542725 -0.051241461143707534
73.88633621863086 -128.21885831452218 -0.04076430217168636
73.48558558243747 -128.21022520528172 -0.05021363028956061
73.38132279869234 -128.43975001577337 -0.06439163937534231
72.92670078939322 -128.0896770845343 -0.05671368435481994
72.46265835160365 -127.79709515237445 -0.0516737311658646
59.23988504721032 -174.3103193594242 -0.06792893763395624
65.57712967019927 -149.02826469076797 -0.06345752850516417
58.96782730157009 -174.4455866030168 -0.05861808308771743
65.21973904010139 -149.96514486371302 -0.052905814034422516
65.22816170269088 -149.93681590450376 -0.05328817032284383
65.30266101050441 -149.81902080272937 -0.0628172401064202
65.60055713058752 -148.47936948025182 -0.015718436962758986
65.20390859322592 -149.88011271440521 -0.04536327229632331
65.20167761270805 -149.8362667296309 -0.042651005886822135
65.40297556473158 -148.97889514079654 -0.02470891010799292
65.48460164215238 -148.78954375559974 -0.023955748830563506
65.4956232343935 -148.7605820508972 -0.023411929766260275
65.04738477764376 -150.02307427584134 -0.019281967638844932
65.08096133661566 -149.97764821607797 -0.02429086689505522
65.27322372360022 -149.17268369061296 -0.014421008614153186
65.26694950665367 -149.04801951634684 -0.0033500099011369855
65.30062819773242 -148.99730322287976 -0.005909890196025502
65.06683259428216 -149.39038967059432 0.011959570909272355
65.12295541658018 -149.1625475116085 0.016669357355635572
65.19317956413047 -148.9395128787742 0.020288851148035025
65.05515716722815 -149.33083299406317 0.018379328911584114
65.07237068427301 -149.25824093224298 0.019935730842039145
65.08632948748819 -149.1722430066204 0.023366046453144218
65.12636708190269 -149.06263526670804 0.023667731404292125
57.920636678431414 -174.84041076596833 -0.028198826037468372
57.724242201088515 -174.23632530218296 -0.05466795483781195
57.74196452153072 -174.02081660054338 -0.06495544682683518
66.04153169922893 -141.19093641274603 -0.020234202157169756
66.09698966844556 -141.16994987688614 -0.019918428436847213
65.04793877308695 -144.66996150533217 -0.012411302435285432
65.04462095028222 -144.62009511684715 -0.006222359291461865
66.00481391415111 -141.20431748311273 -0.020281513452742983
64.95763129504469 -144.6153315988916 0.0021154122106972206
64.86080453681825 -144.64421321488723 0.0075093782893767
57.246978978060284 -173.96206669933986 -0.06144828341621422
64.75122968718732 -144.70785942901406 0.010231628379103297
64.75440475941103 -144.64265365038068 0.01742329198061543
64.64071754907359 -144.65984451208118 0.0260022262673425
61.854732528894374 -153.0538029488213 0.02670018003837038
61.902780719217105 -153.01146004218256 0.018533767180540117
61.94854271366646 -152.8721603484206 0.007565339173619456
61.947747058095196 -152.77848498739306 0.004795756333255907
61.826339950292706 -153.09248568822335 0.032036484792214326
61.84103345215087 -152.97457069622612 0.025986816867897167
61.92101522772953 -152.65476963471545 0.005026774224505148
61.89856220696521 -152.43476593581738 0.0025841604130723006
61.73331897421229 -152.32891444108145 0.023707132361646233
61.714012034300495 -152.2664854496167 0.025146196144650412
61.667092475369756 -152.23933964939602 0.03126957026105215
54.56891737837845 -172.93003418668425 -0.06659531562809451
54.39231719542329 -172.84916552156568 -0.06697427694310787
63.32951579253388 -136.94420828923248 -0.020989599907262457
63.38131026473909 -136.86071150912608 -0.015802450367189858
63.40207771792915 -136.77800467070736 -0.010015937810971876
60.72745204487665 -144.5860746755598 0.021785094034848296
60.79055171753922 -144.37331066260757 0.030414913098014917
60.68768406531197 -144.61074026799062 0.02369656699483147
60.712611381755465 -144.50020940649748 0.028733253109161305
60.738009894383005 -144.44052420838366 0.03047898527077031
59.98565547810017 -139.16834115106417 -0.06403186584043707
60.05629199623461 -139.0789902481731 -0.06138147778893277
59.879874025480554 -139.21678964661206 -0.06258050498873957
55.53467607029562 -141.8747089779877 0.02285165773829334
53.33159149667222 -150.11528298615045 -0.023195620284297336
53.35348158801743 -150.05587871632088 -0.02456994371030996
54.619744731783754 -145.12212296789573 -0.035812081141500585
55.44616762536463 -141.89741560978825 0.027140466853808887
55.55076297687353 -141.7380286338925 0.027883802260719737
53.33551777746263 -149.9962596094607 -0.02308322465549817
53.284657546710655 -149.8717329927259 -0.018898029450837406
55.31901328338224 -141.96980719943448 0.031679321755767376
55.32482467868011 -141.9018195116253 0.03427193386607219
55.43303311639948 -141.73885385249187 0.03482964085688778
53.11990750377484 -149.73065726055748 -0.0062918079722738
53.17995769328738 -149.55202665830387 -0.009672761147114795
52.974245150570496 -149.40157505708393 0.006153192563437049
54.306416861092785 -143.64822898961916 0.030765982415580817
54.26226098346902 -143.55789785973332 0.03669742579115276
59.036258723829896 -124.36248900933434 0.02739330209173607
59.10225439472045 -124.25285360662116 0.032437951137594734
58.93696013946813 -124.39775366079972 0.0263573987818575
58.80861955466953 -124.3631760981331 0.028480195336454406
50.42638794718285 -128.29327458749464 -0.03522071560965312
35.65844401218411 -150.74881909553378 0.030895544795264573
35.69581687039977 -148.90181217600198 0.02864759637489911
93.71823805657164 -148.06314614284696 0.10766241312629621
93.58649047145542 -148.00031501550603 0.09939734858872118
93.84580045756847 -146.9068432254239 0.1202008953374647
93.49216567105519 -147.93285380629578 0.0940855727319394
93.66556590524857 -147.01893780709798 0.10833425724382129
93.40830587467805 -147.82973457972173 0.08904528582664173
93.6009405021855 -147.10953937675072 0.10414700118568065
93.6283497604312 -146.77920368291942 0.10770089545314332
93.34305237841353 -147.71964575749647 0.08521751447267567
93.28112964389909 -147.64688792979507 0.08197782181071234
93.23918199264466 -147.5748530148151 0.07947759201009741
93.2128927141982 -147.50084150797727 0.07844164971225887
93.21816220771916 -147.3824073137898 0.07920856659357378
93.26161047174837 -147.25354224861982 0.08240324345013383
91.47623727499615 -140.66043555402442 0.05967338277601186
91.31045242081316 -140.47909512776297 0.0542178305673342
91.20063099589188 -140.6659215427659 0.04420943127341692
91.24849025405133 -140.41715834780703 0.05175541525191396
91.06931519283032 -140.32725463406524 0.043605690034470346
90.95511434685346 -140.4776547166366 0.034396857603124165
90.89524425568929 -140.33262067107208 0.0340456709637349
90.92732081773254 -140.22458595412863 0.03783097567502369
85.70297145116726 -137.39665843738692 0.02759340472063121
76.95809659850809 -156.59995031699904 0.06467949041838428
76.97818519001794 -156.5620278984204 0.06325334690627216
77.53375460800498 -150.69394192150304 0.06068856204686246
77.49361335046717 -150.65180444711876 0.05302774852155334
77.4850101486315 -150.5702721252148 0.05230634778652621
77.55562698179178 -150.5039644381137 0.0675926008317842
75.77280185276311 -156.05468579009943 0.10312687665114884
75.68119800241462 -155.99697104511702 0.08144722436873075
82.0624752516059 -131.2971376853968 0.09213421086898466
74.19363598769647 -161.47979834565626 0.07822072368008293
75.46661255006251 -156.41191422769117 0.10994032500533724
75.50418852599157 -156.39928146714618 0.11334322193343227
75.1935289509241 -156.69082999850622 0.11481426679232865
77.32621233323265 -148.45911812479284 0.1138529598004745
75.21273524850268 -156.37299721762403 0.06888181220715972
75.19843844951937 -156.30150258896145 0.05612047940842735
77.23085085552603 -148.41988720818009 0.09874418209911018
75.09614709671732 -156.34307983451478 0.048432719549621916
77.17177463904292 -148.3794050794786 0.0906959920874364
77.15905018360918 -148.32049250526518 0.09275578856092581
77.1485633337029 -148.2319634021237 0.09766580311896855
77.1943890477409 -148.14206871438088 0.11331605604220085
74.83465758768439 -156.8156257322257 0.08829059643017323
74.95336027036699 -156.5949619291482 0.06841474846174123
74.78887041064529 -156.8336817632769 0.08550964676723694
74.81287767277023 -156.7033079862064 0.06758368076925891
74.8709040158211 -156.54441544024886 0.04978425820234067
69.64356846018745 -176.32278830043393 0.037729624142917695
74.78323482537598 -156.48532390017724 0.029169768411189567
69.55815925438388 -176.27454959903068 0.03409829752063254
69.47290929575132 -176.2320216527095 0.031062832942642338
69.38494148044795 -176.2370349313875 0.030313403275496364
69.29447093229282 -176.28360604912325 0.03206862512374742
69.1127426530453 -176.36979040631434 0.034968063522579085
69.21218650051179 -176.1983140333488 0.026529637123779093
73.88893874755058 -157.26407989522312 0.05773347015770858
73.8442740438059 -157.25247701100213 0.05125330974738751
72.95095175374776 -158.05837701382438 0.12369991223401389
72.96005337351983 -157.96412077223835 0.10662263567760921
72.98659423556622 -157.88673781504377 0.09400694364660978
73.24005692160848 -156.6881962996086 0.11228414081650606
73.16045499303368 -156.66319356752098 0.09873786343458546
73.0077010832878 -156.83865956862115 0.12161239079850694
73.03167941388912 -156.75611315068988 0.1059621148126264
73.08475561224138 -156.69208418878367 0.09730366612357977
72.17252738352526 -156.07762293080813 0.06993797769849763
72.14650934423238 -156.04670976011914 0.05977519925319963
72.10006529248994 -156.00781428214052 0.04583896534832821
71.92161098604583 -156.288465496945 0.10642653574798566
71.9367872713156 -156.06491112156533 0.04850724374203397
78.08538474483757 -127.61033413939734 0.11314160595530454
78.19481492117364 -127.54784945334379 0.11973379234460424
78.00829447803618 -127.58068525040544 0.11182609248561826
77.98268075090347 -127.37915998564029 0.12118682076318699
77.84494507071072 -127.54246368359529 0.10829058011409676
77.766106661373 -127.50487564650189 0.10776007044492952
77.65371781072547 -127.5846698241797 0.09989550982411921
77.41847789556876 -127.94760769570026 0.07419186429313607
77.15086539283296 -127.82030739132124 0.07206205528194931
76.9374548656511 -127.63219933613347 0.07460131858502139
77.04278075266316 -127.56457419731404 0.0814934504239957
76.83310378770855 -127.69834295073647 0.06820881117232669
73.6715661179263 -136.37748522824788 0.06405758937578176
73.73360244919986 -136.32639839566232 0.07045121259877751
76.01655888844607 -127.4882888692891 0.054221392933266666
73.58955287465088 -136.37851985130754 0.0611276073840088
75.96227240811331 -127.3357162967464 0.06021055697390665
73.52329406616442 -136.2937170491061 0.06611709808817512
75.90203298929538 -127.2066878163784 0.0652191642214115
73.48129208939423 -136.22569330733975 0.07067618612416271
75.74214108427681 -127.13306760585866 0.06439043181544868
75.84662045158382 -127.05040140264896 0.0713990989608646
75.65643542811648 -127.13423380921472 0.06170687843257472
70.39603811245254 -139.93247584040935 0.07270730250670954
70.31821678877124 -139.95398488311457 0.06911605100395302
70.21571591632707 -139.9058036601498 0.07391175577299225
70.15163523747967 -139.7963243993341 0.08668494814243588
59.62871113315033 -178.321755996908 0.1269906940649259
59.53677952494339 -178.28132801686797 0.1257034284243248
59.452390940484065 -178.21121785180435 0.12263155292575356
59.16117784387506 -178.10596517259833 0.11957071554349663
58.6131558485169 -177.8280259515802 0.11008708752311547
58.545527165086334 -177.7307732152446 0.10573233416174488
66.9096278763607 -144.58727357271064 0.1304173821802892
65.57900260955535 -149.54958036811078 0.10119019143489916
65.62590744493441 -149.52393351230612 0.09196353926274847
66.81117440735271 -144.70955363291546 0.11862256017058037
66.87223971547056 -144.6552474390199 0.12233815319632191
65.39128161964356 -149.95274058502577 0.11931126179712104
65.51360273688242 -149.58020162810848 0.11456546306579951
66.75113995948291 -144.71473885894375 0.12300242238450165
65.09294979641827 -148.03613629356715 0.12707652935482594
64.52658186558041 -149.36608053595108 0.12468891092285195
64.5143048589002 -149.338426813 0.128934413869908
64.67342440359766 -148.85648928702514 0.1308715994196048
66.5127491608551 -140.50604915410807 0.04055941225374338
66.53604388507776 -140.45592190228913 0.045617286500394316
66.45625818784731 -140.52708514242585 0.03991023689544271
66.39230496233772 -140.5278619043963 0.04180992271721551
56.553035490521985 -177.12065202366216 0.0963141877658551
56.51139079040061 -176.98332583386792 0.09039420577165291
56.4273356398531 -176.92264418742366 0.08838772180984811
56.35647705220683 -176.8391023228251 0.08541065129954073
64.5501357274015 -144.63414554549058 0.03741384149278182
64.4364438979555 -144.70055551708646 0.04073584001404318
64.481693349488 -144.65532917730434 0.04146677449946701
64.0750472682286 -144.8413501555849 0.06065228122746369
63.851382243149615 -144.8797007058524 0.07919281632276154
61.63254637408177 -153.20001807442492 0.0630003241969399
61.64501849181638 -153.16368551332008 0.05994291944634078
63.81601953436913 -144.78025275713986 0.0932136124492402
61.59253569061907 -152.97164209931537 0.06087055494121829
61.68925417725387 -152.59360301528517 0.03625275716909848
63.59489315034084 -145.11681203953597 0.0815352168062391
63.608140224824 -145.04095031503434 0.08780106428465251
63.65622934048716 -144.9486577002671 0.09215187596138619
63.68453088497209 -144.8852988640573 0.09575027036334527
61.510748892514314 -152.92137222305547 0.07082144085134101
61.64069943276881 -152.53516169744978 0.04167084187372949
61.67835338599404 -152.38445599830678 0.03274831200871309
63.51881809760735 -145.09676512557505 0.0916417873997164
61.413515680741874 -152.9061042896015 0.08409611557956431
61.64396019743245 -152.2093493388845 0.03400115077634225
63.453475421164384 -145.08553688265764 0.0996819372796145
61.38247453741696 -152.84342925401452 0.08661328076458452
61.54344675215565 -152.12153181238406 0.046706421253694064
61.565066457078686 -152.05394507434784 0.04247541552606915
61.5871055597605 -151.9540854916987 0.03773890101313948
61.54798973831479 -151.89176471588925 0.04244857394428281
61.49818578016704 -151.84605417258908 0.04896051922056044
62.816954653557076 -145.74501969647062 0.10899113386288528
62.868757273864496 -145.67928678679868 0.10878399230897595
62.927721708036394 -145.61643034098384 0.1075953266148284
61.187771915676834 -151.81611742525456 0.09304760064599993
61.19075734517953 -151.76509520993102 0.09203042546673812
61.16855106255994 -151.68150625236484 0.09430972673388505
62.77156479998437 -145.75545953710505 0.11331720920634836
61.122811609091315 -151.71780957998124 0.1012633697876344
61.156489321968465 -151.63262503019374 0.09558450786564965
61.15256788816279 -151.58345372682706 0.09572726147714605
64.89931923169176 -135.6351941276282 0.05161307567409823
64.78368994252118 -135.738929458416 0.04500040333099653
64.83194670539811 -135.62271952010389 0.05372227487599357
64.72005359487237 -135.81450322949615 0.03984282552487395
58.76435025185942 -155.99154347173751 0.1307334303648191
63.47399555856847 -135.32377421646484 0.10172070561141577
60.71924649392856 -144.2731466255039 0.043291125803232244
60.74028476953038 -144.1866181268373 0.04735783688845574
63.047499724807714 -135.28236983765794 0.11407505455968492
60.68262750561155 -144.19661946731568 0.05165495810015841
60.408416548083025 -143.62399356949587 0.11456659033313099
62.308233860040225 -136.17311121223264 0.06405369273611528
62.36511293682705 -136.08935945807656 0.06879846819780622
62.37909911738317 -135.9901672748405 0.07601521192423122
57.84050425289374 -153.24753006128128 0.13118575181892123
62.19810912485126 -136.1637735749951 0.06780195358547725
53.716797264670575 -157.4824577587242 0.06208561281205793
53.8061791241868 -157.2145733265139 0.047370890175727265
53.617987578112675 -157.6553501913007 0.07448415206688175
53.660326918820495 -157.3672432673511 0.06215894874214367
53.68357944915364 -157.19033883032054 0.05492560908885302
53.34763547055983 -158.07087907212087 0.1068052473317469
53.370953151704626 -157.98791210058044 0.10235805992974023
53.65677616413841 -156.93161617351845 0.048748273519297
53.686257609499236 -156.85534280282832 0.04444256091012133
53.679619110270764 -156.72491280200381 0.04101407774812027
53.49312980848647 -157.1886685611297 0.06786613732572455
53.4931252715499 -157.1209209689257 0.06574208338863552
53.52939558253037 -157.0411988460274 0.06082516050796749
53.66996855182939 -156.66187325022184 0.039811022698573506
53.4446689600771 -156.86730747995765 0.06135967700812017
53.55127364967413 -156.59980940247988 0.04620661430606443
52.82757597122613 -156.1752860821694 0.08484607648653153
52.66957278575626 -155.7448860252395 0.08518664725304581
55.16889153926101 -142.0239633185803 0.03845940640981138
55.29214083223226 -141.4703938034318 0.05508318013703617
55.2550233325067 -141.3346171586177 0.06332619756692859
55.07190790620998 -141.89387179360287 0.049868175130984405
55.25133471186023 -141.25499150820536 0.067160229685292
54.98380485116344 -140.8419786315979 0.10161093310269376
54.06387027881206 -143.74925980175706 0.04315475722619522
54.83382445579747 -140.82383362588212 0.11123448106555145
54.000127719832875 -143.57954101905986 0.05297836089476515
54.68873683176271 -140.81311057725296 0.1201871956710252
51.40196145096513 -153.33099353895446 0.13271116938854743
51.40260823164626 -153.26218434640953 0.13181917998701498
51.37381849024723 -153.19643966499274 0.1331706096530061
53.55419247300779 -144.58487120528432 0.051107110485950846
53.62276114044667 -144.40317311462363 0.05180148057637246
53.639291078411745 -144.34009375954673 0.05258121689861661
53.65432690434494 -144.24132851216135 0.05455134594563216
53.64216388466014 -144.13122865056317 0.058715249250248736
53.46579401061984 -144.62062538418078 0.05602105025452242
53.31149606202107 -144.7716629431174 0.062210224833657124
53.65408420116697 -143.20527469252244 0.08820860383204931
53.42384653862859 -143.97029657083078 0.07816397719472357
51.562957140440744 -150.61260324737012 0.10484723770079607
53.17545349823527 -144.2980260996272 0.0848075555420158
46.07559827114267 -171.84239668648613 0.0806114152176407
51.44785387800364 -150.81461637981323 0.11325525159069794
45.92023932778411 -171.82099562754058 0.08382587310465506
51.38361140786108 -150.74623427364398 0.11793213803759617
51.39137508791096 -150.6766678711274 0.11732000084562721
51.25217742955216 -150.53437421154328 0.12749767601527284
45.74388801635053 -171.81734921680143 0.08846760173410462
45.67720308665583 -171.73267379957943 0.08714671545214547
45.66929841911133 -171.59923262216967 0.08278458494904672
50.663847944812005 -125.09975079487828 0.08605675450405048
50.73784982766884 -125.00744434562812 0.08872553829149643
50.78596307538455 -124.88503007766019 0.09280615759667499
50.81083684526281 -124.73065366896347 0.0988366574623396
50.56295644833877 -125.15787523607304 0.08548754345943355
34.98405136137532 -152.36691343824197 0.061489629026777015
34.914006358491655 -151.99106237359703 0.06259655472514125
34.939776986935065 -151.24197459943767 0.05924792907618559
34.65972399414318 -151.86495396537202 0.07181914315775018
34.79820370762315 -151.3648967637863 0.0649902558096267
34.808059680816264 -151.11892064857395 0.06397490163310793
34.84257060441739 -150.99320465148452 0.06232851019182939
34.939563369782135 -150.8679417823074 0.058426922602918374
34.31596296793882 -149.96204044497844 0.08074262946116373
34.1967894533513 -149.83015354320193 0.08521500704025509
33.76417393912379 -148.39645689054439 0.1021757894563824
33.6668636425569 -148.5196858172521 0.1057316939589914
94.7947560347501 -148.08538125339763 0.17392370060596174
94.46906874305608 -148.0439351620824 0.1536167133081252
94.01517912732677 -146.37497828107598 0.13382962430472767
93.91808016566159 -146.47722982574766 0.12699600941737943
94.0857892168836 -142.9674793398029 0.172261413661142
94.08390032116537 -142.87889606798262 0.17360734481718465
93.98716788662568 -142.8225522224399 0.1684098427250118
92.50965597795498 -139.1620102345015 0.14805806441019786
92.56846626512981 -139.02973085705048 0.15441395814236158
92.40997359048816 -139.31580430783686 0.13954062689405577
92.17559363139678 -139.15399335002968 0.12974884567683254
84.62109204012708 -158.30310922963892 0.21288066284955365
84.4557607948559 -158.30874016078883 0.19871794311720792
84.26338592523844 -158.71986529916256 0.20055142133386616
84.33906035893105 -158.66968582486942 0.20468736487732397
84.33860150138501 -158.40096924034583 0.19249320836144124
84.36860877476562 -158.32502736374482 0.19162621311702988
84.16813672925329 -158.909856471338 0.20127743526571118
84.20682072187672 -158.81018797446657 0.19989375317061597
86.77534515771438 -134.0678109352715 0.20997531710938788
85.37527912884364 -133.73766493243744 0.14820831053746764
85.14409404016595 -133.5255806631838 0.1446900555345776
76.41167840327425 -161.58083726867292 0.22362356449953724
84.23084787022758 -130.57519497508522 0.2232451763536194
76.14981927953615 -161.60179148593065 0.2079592674381192
84.00436751331681 -130.45178435884458 0.21779911108792538
83.3997686356287 -131.71386149484007 0.13445991909227573
78.22133930379167 -149.59678604622437 0.2263936758113565
78.21566217531368 -149.5709750631532 0.2263183075591717
78.19639430132318 -149.5086422792194 0.2248810161298489
74.6791647799712 -162.27499227973408 0.19714114640881886
74.58854234685337 -162.1949800647696 0.1829572592264732
75.64565083846757 -156.4640002930962 0.14294588698135113
75.67436180922923 -156.44019200107633 0.14354816895291211
73.90334386155229 -162.51045639092231 0.18783833682453377
73.90575686314236 -162.36995755264167 0.17095295762549645
75.27027549947358 -156.88743353792324 0.15539626569759601
75.2871621369735 -156.8692156382526 0.1548431191751849
77.28128381617194 -148.05839592796343 0.13615937878115103
72.93150281331366 -158.26506409883052 0.16118944099381927
72.93879049934854 -158.19943926171774 0.1493805697263071
72.94054178430062 -158.11489106653772 0.1335450549076762
73.3076851902259 -156.739096442342 0.13026468242825184
72.73322609960245 -158.5176039450002 0.19630318224410992
72.78490718647333 -158.43692019342316 0.18422075379465896
72.83682794596682 -158.3545964416759 0.1718924083395008
72.87796247050608 -158.26439324106244 0.15749711117226806
72.6363904700105 -158.67324197067595 0.22028659754917146
72.66077415274833 -158.6632807627348 0.2197398087633189
72.75701601718512 -158.3977680233008 0.17500145629546493
72.50684329847618 -158.7059044185463 0.21927445993580208
72.56446785941185 -158.5965149564296 0.20148249805479868
71.93524588895794 -158.85745978373825 0.2215805204999055
71.90113389877757 -158.80679490264035 0.21044191475320595
71.85698716920903 -158.7722382980443 0.2019915365889744
79.91424087605621 -127.38102196542626 0.1888036736385461
71.7872002709741 -158.74799029385161 0.19465762056927294
79.82047012920981 -127.3712959862822 0.1860286418745054
71.67118795531019 -158.77164173311658 0.19521680402229658
71.73419491812233 -158.74525120588268 0.19225294674405569
71.51240288577452 -158.92383693266055 0.2199115464653123
71.56072264102703 -158.85966639862338 0.2088602377881621
71.6078436445433 -158.7985992805754 0.19836472227581758
79.74210751454822 -126.81672030619292 0.20995104037176748
79.66424560849968 -126.76525034707905 0.20985670502337594
79.63886798123514 -126.56537175120442 0.2185007015506244
79.50321788430668 -126.67626404453388 0.2084226704484613
79.11008107063466 -127.5456404066548 0.15158500765949978
79.08006261562248 -127.37682380991058 0.15899591307579386
79.00247578214015 -127.33339718630708 0.15818281221718067
78.95580870443614 -127.19538239292918 0.16353527455791483
78.89077331029624 -127.11049153571511 0.16524081232128274
78.88169321317673 -126.8530650548829 0.17782224688050863
78.81074285751885 -126.77529720114296 0.17900418062893375
78.70557976807507 -126.80223542412804 0.17426499945129414
78.72704157507827 -126.4360499478044 0.19291266458381995
78.54419107077648 -126.71762132010124 0.17294385479784746
77.716334280007 -126.38274521177814 0.16224725794961703
77.39420340823347 -126.56470693764287 0.14263721042432276
69.96067165420862 -145.65394808110776 0.19071438180242506
69.99701624754016 -145.56852893434328 0.21235067839130006
69.87918525207895 -145.79923958114517 0.15477280647830072
69.87023024833138 -145.7537636821661 0.16702744057769814
69.91153941317319 -145.65599943831586 0.19150900896909695
60.85990048712873 -180.40878205768462 0.2268021486329328
69.77106146802822 -145.8007889975638 0.15802243943361005
70.90377542910947 -138.80857101884044 0.21788811371391326
60.202571822102215 -180.32658505735878 0.22521355008650712
60.188244608723195 -180.06164219560267 0.21192882123126444
70.86153601283763 -138.81053941942557 0.21698362435594132
70.8182874350835 -138.77491515150516 0.2205150646104801
60.16215268825842 -179.8324811804838 0.20026520688308191
60.161035164950874 -179.53972213213885 0.18554069115091743
60.16806637205489 -179.2176573924229 0.1690294971626567
60.12199902047403 -179.03949766750756 0.16037743328239484
60.105245878924634 -178.7887891385741 0.14764802309664793
60.03342891184435 -178.68338743277303 0.14285181957801218
59.848069196718335 -178.8699969242063 0.15320297969432506
59.81657234365364 -178.6702156801383 0.14345475679288033
59.70668091997993 -178.39491339923183 0.1302884224131915
58.81802672646179 -179.43064299729437 0.18809817680367003
59.11503286475204 -178.4712862069664 0.13798041586741605
65.28479819655425 -149.9882905821724 0.14346344039365722
65.26332895708133 -149.90557670803958 0.15350055429683218
65.28247790492625 -149.82304478385265 0.15381265095559593
65.13959858059421 -149.9989261442571 0.178650935019683
65.23581334895613 -149.76058377408953 0.16916984948610536
65.06489006141337 -150.01468277309797 0.19622928842426113
65.1938363348869 -149.51538552393404 0.19649629245082578
65.06459920875344 -149.69498736596853 0.21521032177715016
65.12946388974746 -149.3201913287254 0.2271404890305473
65.13174160939128 -149.2768170323166 0.23016582768633298
64.41753062924445 -149.4792480871871 0.14044826650354225
64.44804356509013 -149.40396398437738 0.1385825358831887
64.49398820535856 -149.2840175090694 0.13660092825306247
64.41591258360262 -149.455250648722 0.1421572774679829
64.44338355388427 -149.2687101781569 0.1479772681997873
64.69138861102982 -148.1848862819027 0.1876219763370155
64.706357219434 -148.0572210395001 0.1976948766206541
64.7111375485025 -147.95102830035492 0.20789357099611583
64.81667755274268 -147.77349977962044 0.20751835657212325
64.64454500123075 -148.09326773357762 0.20578550826725173
64.68530717277989 -147.88334241524473 0.2199751513735113
64.49582670905991 -148.14438281852196 0.22921290252451
64.48335561904456 -143.72667874688216 0.14900242860943824
64.5522221203562 -143.6487835924041 0.15239240497415252
64.56509978356 -143.56016955652024 0.16202995891896843
64.33531423509064 -143.71572611579626 0.1632740444783365
63.419380940151065 -144.60850872882523 0.15169548974117442
63.304556891491515 -144.46077398949137 0.17887526188203817
62.72185766909541 -145.42774089583952 0.14802240953046075
59.461302726919556 -157.5932116713186 0.15208258961575938
59.42737397243126 -157.48185059448167 0.14838582407835532
59.33713717567907 -157.37495347847653 0.15033808310484753
59.266485665980994 -157.31098347073805 0.15319301046916434
58.63112356094014 -157.18709847916017 0.20636003485180265
58.5626457502792 -157.30024836856774 0.2193439434913833
64.43862426490372 -133.90003676852137 0.19946469739408768
64.46805925604978 -133.79350635522792 0.2076461980765738
64.52419929099449 -133.7581702461223 0.20988576256558056
58.68794242601846 -156.06841860379848 0.14204341918955743
60.36633530971213 -149.54523717945196 0.22366185078801903
64.31638898888154 -133.94164842391092 0.1978065454250022
64.36056423881436 -133.87595094277154 0.20241532434353027
67.31969775228262 -121.69533692779981 0.1846666029935109
67.46241670744564 -121.19999361062901 0.21185772955909576
67.21584576333301 -121.73215896840368 0.18147770329130108
66.92225852970479 -121.12121736544135 0.2099411907562554
66.65541860297692 -121.4802371940589 0.18894350959771078
66.72238028766097 -121.20055417379243 0.20383149239901655
66.79885730241543 -120.98047062378168 0.21611706110701423
63.213021726188465 -134.46718520708228 0.1745602718908783
63.16799434299304 -134.52299239124213 0.17115897614964815
57.7878039904822 -153.18568527748843 0.1355110356674527
57.452919706695994 -154.15383325118276 0.19515283254710236
57.52517719771763 -154.0163226475367 0.18364530774276666
57.44627502761877 -153.76334897949363 0.1852304795671409
57.192161844767924 -154.30932984208485 0.227146783017375
57.21099559241967 -154.2567973405064 0.22363712424586146
57.39427292582388 -153.7012894311841 0.18919600706714101
60.00599635014664 -143.0696604523147 0.18771205306547079
60.030519189144066 -143.00244905514478 0.19051896811125646
60.00810302890199 -142.92693540759413 0.19789429770519873
59.883357117744715 -143.12619723418288 0.19386759560048317
59.937288401840156 -143.10685167283378 0.1907761303025759
59.811818228622904 -143.13298360652817 0.19941582366295463
61.70535730417002 -134.3786847465724 0.2158438253655841
56.90944386752588 -152.87403389108772 0.2236291052679491
61.626936305838406 -134.37157380567427 0.21849487672580192
58.85232799190652 -144.62091052106325 0.18912000542540208
58.920489182042594 -144.57579682705844 0.18540702720122515
58.966089218803425 -144.49248279209948 0.18603113467035048
58.97355904367579 -144.38505776986779 0.1916514709462791
53.30438974402212 -158.94403010443955 0.14148058632315275
51.90514231968672 -156.28671552747034 0.15217059557273171
51.75118669482538 -156.11611526702117 0.15869175469362506
51.731588034265926 -155.9064062078874 0.15505601270223424
51.67068781124529 -156.06645115023062 0.16316033746742997
50.996092225319515 -155.57815588523016 0.19962958054282054
50.835754190063064 -155.75725178337578 0.21488352677762146
50.914140156400364 -155.66921915858597 0.20742858013727927
51.35786230112351 -153.40471349649357 0.1367793766066423
51.30942669990954 -153.1340213753986 0.1371082843283682
50.50263897636823 -153.14144304737323 0.1957371718745744
51.10294555450035 -150.32495778309885 0.13861037920952812
51.12218040494718 -150.25499511893295 0.1372923231867229
51.04611490185806 -150.39072448880637 0.14263409055065313
51.11184024049857 -150.18398928811902 0.13821083726292738
50.616884042341205 -150.4419654288705 0.1738852544589411
52.620175495131434 -142.3377432319524 0.18529102635384698
52.710605394355966 -142.30277777701835 0.18079580078085522
52.0536000966659 -143.93558513630765 0.17049216590127036
42.73102738299605 -172.70449105709474 0.2006736901383166
38.553677119608494 -169.40316539728113 0.2219874680107572
38.546002082752494 -169.2628852222016 0.21820151553282985
38.50542213062506 -169.14048211064153 0.21618183392477341
96.47471655847855 -145.7706975793096 0.2872290850654564
94.45937640860635 -139.24140921179801 0.25566503608274327
91.555409069951 -140.53122593994314 0.2888016013154078
91.45219791995854 -140.31291672750902 0.2874051783109117
91.20406537828211 -140.26370824006335 0.2727232286126038
91.13227925072275 -140.03239422125455 0.2740778019018617
90.83789150528015 -138.6075592107905 0.2937328577249856
90.82277484397292 -138.42422075129306 0.29799388051849807
85.26222404976521 -159.0517027845302 0.30229063462004424
84.69990655476887 -160.37898593406607 0.31930732937584727
84.68169043392069 -160.2980037846457 0.3134222196986267
84.89703750287111 -159.56195624106647 0.2950018036408839
84.85231720914084 -159.46934452216274 0.2865265806422568
84.85015323777534 -159.40223252682583 0.2833111587097814
85.07568020329593 -158.3862728162915 0.25657144013901356
84.5028946245187 -160.38401803590236 0.3032086308515858
84.36389866511146 -160.22295672510504 0.2831028928827042
84.79630474644767 -158.30357394206055 0.22820040192993996
84.07006669835084 -160.33037565143462 0.2645374351231984
84.11841281928508 -160.23138984297069 0.26328652911552286
83.9852275528353 -160.3725239735702 0.25972146906565907
84.1513628607732 -159.49760336475933 0.22853274391851341
84.19199493954234 -159.45840683850733 0.2298421019689687
84.08986961933758 -159.58826822931843 0.22788724686688333
84.11728019130594 -159.54089829919653 0.22764073213854363
85.36941955117015 -131.18475300854368 0.25197900058389
85.25461221474747 -131.20045058477962 0.2458671863491635
77.35160370125064 -161.54169245587832 0.2885059119142388
85.18992315141755 -131.13702487345796 0.2451522403372015
85.19214786807223 -130.97706482193564 0.2522257456450303
77.22704463098773 -161.5376929652029 0.27848916745581787
77.07084937590011 -161.8173249345665 0.29669819991213986
77.06852081795735 -161.72888698495473 0.28708748375652005
77.02491176285261 -161.82356654867723 0.294085300514604
77.02255478747799 -161.56697205732422 0.2661462963034271
76.66297923272745 -161.7804205423406 0.2631552520382745
79.940033892973 -148.5448389728786 0.27124033470550235
79.99650448653864 -148.4261217512515 0.2852898119214149
79.99330075096832 -148.33992602297383 0.28846206874039404
76.50127266732748 -161.57058729205252 0.22878979853339354
79.90253963535656 -148.52222920713191 0.26619861907154485
79.99317481339375 -148.28715273148086 0.2907994220463683
79.99556137146408 -148.21563176541449 0.29430852410350106
79.98879219275295 -148.14688164473904 0.296426943366914
76.39866464172354 -161.641801873651 0.22934989755377777
76.46697729935146 -161.59603431658206 0.22907606739643627
76.31090648516945 -161.82895187114838 0.24405849263618373
84.57026604820751 -129.38569255806652 0.2910254786901061
71.06826487468948 -180.01932987272406 0.25459945629969094
70.96693035422017 -179.82023359692172 0.24233381788152508
78.4229819399037 -149.77065444195534 0.2607005632103605
74.94755692930006 -162.92086333230264 0.28722506138706394
78.33890430549815 -149.7318457221946 0.24517279117648094
78.3061655833742 -149.68503095271456 0.2401604463155811
78.43380652091034 -149.21546736736965 0.2844670367684121
78.44556193137807 -149.18319694897394 0.28835288814441706
78.26359808062212 -149.64093970705204 0.23326843000170605
78.3780955246901 -149.25800069181707 0.2716058029272779
78.2106927296641 -149.4093339008129 0.23178391589930758
78.23010407581137 -149.3358806208168 0.23880437769776042
75.62103195756731 -155.81325285407834 0.2897346487939376
75.5387339391916 -155.7823201724738 0.2700639395856792
75.53912620911314 -155.67091114975568 0.25201923635619017
82.93179612711012 -127.06473131664922 0.32336694550702627
75.45632283871932 -155.7484755798433 0.24993797319400257
75.38886530300732 -155.77519569108625 0.24260463160103551
75.01125456696758 -156.59989890772297 0.32595370885291475
75.0285735146938 -156.58391907984492 0.3256070582586834
74.86007662403135 -156.6753016811003 0.317141684173204
74.88646001706601 -156.63142472457167 0.31290575912395413
74.92817461385911 -156.54977517858498 0.30395507310838
74.81260180682912 -156.67033426998782 0.3091926099744058
74.84004303257508 -156.5690243772618 0.29419194713396224
74.74063272524808 -156.67078633244216 0.2986659963377958
74.59775573122684 -156.60748396363232 0.26587268843064016
74.63969149392476 -156.56842495244035 0.2645036674416452
73.59426354804522 -158.78316016727246 0.306262494525708
81.92774173945409 -126.33138080431425 0.31648412095657363
73.55877670153431 -158.8938740436361 0.3240205026876011
73.52640175174999 -158.7180297440757 0.2888987769621181
81.7608587459493 -126.93680479431578 0.28138940294912773
73.47013538545636 -158.72549709550592 0.28596030739690104
73.39755901901128 -158.63964624387933 0.26455829922507457
73.20446807036272 -156.67097019024678 0.32598696624318624
73.1351054856708 -156.66701817694076 0.31686023474002134
73.05339518661646 -156.73827152669844 0.32539409075011694
73.07471307545113 -156.70673707816812 0.3198655824346679
72.66169671264532 -157.78442292788603 0.30196583415016987
72.66882045848867 -157.72382050839033 0.2888382071551374
80.6902383532785 -126.63961147266515 0.2539095007024452
80.58278673850903 -126.65494251380485 0.24889758130440454
80.46942458794398 -126.6854801969979 0.2433805396859503
80.27959753749226 -126.67840752405378 0.2366284539238217
80.38536706218528 -126.65280493475326 0.24159996625749502
72.00287496308549 -157.99968851674026 0.309663948696169
71.96269669317837 -157.97289297022493 0.3015044163470517
80.08371859416627 -126.4082642280614 0.24230808539406756
80.03624859780797 -126.27582685458457 0.24723150481200373
61.468084947883625 -180.9786558321224 0.2545549962221427
61.185374394670745 -181.5051136554682 0.28228216555925134
61.09732602933444 -181.4180899989538 0.27815697881155854
61.15842249222382 -180.54497464808088 0.23298862777543894
71.82924134863558 -138.85722885553406 0.2328665206371514
71.90066681198452 -138.7872528236119 0.24342005522428867
71.96320366091344 -138.53555464321045 0.27580268073415537
71.76735609595292 -138.79886445954355 0.23828464583036602
69.9794802174117 -145.26805111188517 0.2921654809520573
60.412964580746404 -181.3618970534087 0.2774030950785662
71.36508957751437 -138.56695346185393 0.25682035880428544
60.35201225942959 -181.1989980644103 0.26914286593389036
71.2766960272887 -138.6244076311534 0.24784107806103184
71.19069850971124 -138.55939859498974 0.25397561889934606
59.75582127093364 -181.8687916974775 0.30593490934790246
57.23351122970173 -181.94593482815128 0.3249963774138567
66.58431435885805 -145.2818227370434 0.31422431483687596
66.60059590601652 -145.21615224071957 0.3245222272726882
57.31042646351747 -180.9292857948766 0.27387225359057976
66.41645894648812 -145.4187861481521 0.3094031568981557
66.4787752583878 -145.37585985906017 0.3095695626634922
57.007719668705825 -180.76960299239212 0.2686852469352161
65.07487743315427 -149.3246172206775 0.23982313010615397
64.9460532283451 -149.46394197978543 0.2600787169337506
64.99625876365695 -149.25364274549517 0.26438402630149294
56.83620292109666 -180.8655439339156 0.27475698584176156
64.77005023128976 -149.97555957303237 0.2710770187241285
64.82260189709027 -149.60873335394308 0.27982111267731
64.97422425125846 -148.92209188206888 0.2989427710614032
64.68469561581794 -149.99160145641613 0.29134945749633046
64.77209565479728 -149.5615674884203 0.2952972030099199
64.78543900407368 -149.43969166941784 0.30066905877795214
64.94655935111226 -148.76754626650907 0.3204284006213507
64.96547350158156 -148.70273166642988 0.3226265998238469
64.66205150635547 -149.49743261488103 0.32643615844813323
64.7785467889869 -149.1348516276964 0.32615676019358775
65.33336874992345 -144.3453294117864 0.3188486428044137
65.38270658390648 -144.30836660471567 0.3191866142941924
65.23871680408713 -144.39955601751728 0.32083753928935255
65.28168341190869 -144.37953942962992 0.31918729765338205
65.07840569087975 -144.5662595110017 0.3139227271638658
65.09869161544952 -144.51879473208388 0.3185654411589889
65.11138106391326 -144.43680382688925 0.32917844446408373
64.93714437404584 -144.68377925334548 0.31298066815937564
65.04606598118468 -144.57614098502555 0.31606495697667025
64.85989789174512 -144.77883738387482 0.30844249800827694
64.871136611143 -144.67870469540892 0.32128034920665316
64.90392989144092 -144.60237624724712 0.3283756332921748
62.21125348179603 -152.9452019509204 0.28974075211501993
62.141372106807964 -152.89558465145558 0.30005155884551593
62.17515934640465 -152.8413120319543 0.29199434548980907
62.224605525807966 -152.71011731427305 0.2784387345533934
62.21204279090942 -152.66569952007507 0.2790891638254456
62.03337393770269 -153.028864315013 0.32440616354225127
62.06442722883124 -152.8161380042688 0.3105513364085579
62.1405177531486 -152.63083077960138 0.2905680743392085
62.09931751973825 -152.55911415243492 0.2955052312473101
62.167274480837406 -152.42472145036868 0.27934856313677314
62.077865780147825 -152.51537706424523 0.29795264391334353
61.91045069725159 -152.49228711780287 0.32696669615924745
61.97185664178148 -152.35852958515648 0.3122322767362824
61.86644106741078 -152.3084907684331 0.3296779469123494
58.79637849542541 -158.15943404156565 0.24911761164151436
58.73192158441125 -158.2543964341855 0.2611401698951883
58.758041536338744 -158.12443188801052 0.2504862415383591
58.68206156438613 -158.1114975798051 0.2566499015211756
63.06945292735645 -139.11729196041816 0.3312566668363195
58.279367416507114 -157.55171657572714 0.2608238066307129
60.0216576107031 -150.22402210106497 0.2609446754984279
62.831405990193126 -139.4359691949556 0.3112753070544012
62.81554002939035 -139.32178478229415 0.3235456594363413
62.67589478462777 -139.5580709891724 0.30743373480971736
59.922838306399335 -149.98463017489385 0.27833971639491195
60.03939149932707 -149.3981020363903 0.2733243365972471
60.084674579832765 -149.31075199822052 0.26908648081195374
60.05363632798954 -149.2261653383812 0.2756206717465026
57.78066077182546 -157.9174452527452 0.3294448882213483
57.93873014164021 -156.7889371459051 0.2519663512896908
57.972865426233085 -156.69439382791333 0.2437740717427912
57.94891159636434 -156.62490458230906 0.24261254601804416
57.841540280399066 -156.88475531087843 0.26642467119279334
57.884982799840316 -156.57198560747463 0.2462928587291746
57.85805960385696 -156.50362474646664 0.24558993511291582
62.28504080340734 -133.88005416214943 0.24038746406298706
62.02441313838946 -133.51532286007202 0.27453525362183817
61.979376095590084 -133.58703018317019 0.27011173019528845
61.76638292804752 -133.47614006250586 0.2836663462516853
60.93959489258964 -134.3817901969151 0.23624779209939106
60.96650189468042 -134.22971486184701 0.24691014451030902
57.10476517350272 -146.31901041016215 0.2781365852299458
51.411171134550074 -160.10302736175274 0.3098581080165588
51.46744036356852 -159.99560651731466 0.30197978203432796
51.48609562340611 -159.90582726342808 0.2972912909303229
51.49776545010707 -159.8195166153303 0.29318646782704905
55.0580452420011 -137.01943234788592 0.29573526083153556
50.30809091470202 -155.204954577897 0.24097553014821171
55.03768215489076 -136.89912438938111 0.3036853168568243
50.211620596989746 -155.14702624248528 0.24672350622780037
55.08621118105182 -136.3353227350303 0.33401246113856975
49.98754510911618 -155.49487513578075 0.2695337098317294
49.92586354039517 -155.43141117970367 0.27267145283950156
50.15985559491301 -154.34450499562635 0.2365104576415158
49.75644952162283 -155.6960101927606 0.2900992720109121
49.803478980227815 -155.60927333835892 0.2849842062468442
58.65234346194012 -118.37153578068744 0.31679140377015
58.52784664155018 -118.38818878225187 0.316013968498011
58.35497264545744 -118.2784089740133 0.321876942379109
58.19983935924162 -118.21786516851566 0.3249581027794306
58.09771650985213 -118.29584475923332 0.3216144782053183
57.85132508504721 -118.00587968058684 0.33605614516618654
57.409830701710575 -119.4978168143885 0.2658923086434797
57.7369163686054 -118.05527502880987 0.33417437250121695
50.0675760372022 -147.17979214712702 0.23861980271465755
50.09567328217878 -145.43087292196242 0.26760098025121093
49.95599433483912 -145.5475314006912 0.2749145381834255
50.02945070046316 -145.4907722335669 0.2709996943758186
50.012393632676066 -145.32915663569545 0.27560087254100885
49.73641013794785 -145.5652288918666 0.2899343830068193
49.430201691677794 -145.64671180028506 0.30974330374272196
49.46375880958229 -145.57357927992712 0.3088011009661382
27.791376132968956 -151.8417553080031 0.33206029100692525
31.78390970754254 -136.42414460296905 0.28296190968316437
97.26408309111066 -157.99954928169487 0.40861545024761403
97.72161556719325 -155.68581152542254 0.40041849552721875
98.08295199050059 -154.39879307554233 0.40712744110401067
98.31428435715729 -153.5581773625109 0.41336759923514266
98.3739895374922 -153.4664944476916 0.415846798420884
98.48039706647195 -153.08690342418913 0.4191436520622127
97.66260316768057 -155.57731649085912 0.3957441483816928
97.74864235871016 -155.49466701706098 0.399592221990986
97.94580278198646 -154.66612396728763 0.4020163619655579
97.93956643658233 -154.57134405241908 0.40019119772036604
98.1752240937148 -153.83239007880175 0.40699714860472946
98.12834241083237 -153.73409635184882 0.40351338866464626
98.38121388203263 -152.8869955055029 0.41137014054821663
98.60856554045336 -151.8368504065642 0.4185207435658709
97.4347745871618 -156.20743253027905 0.3900495988811943
97.46223652538922 -156.02513467837773 0.38913487421731285
97.5040318376864 -155.93893822873432 0.3908546760331091
97.63327059613196 -155.38035080840626 0.39140586555882173
97.6337987533791 -155.2846992689506 0.3898616224769951
97.69328196779247 -155.19778781641887 0.392803499047256
97.83064832433207 -154.7473279729666 0.3954762251083279
97.88347931542944 -154.47087723828568 0.39598058552665427
97.92732205877206 -154.28466988708422 0.39667053381312445
97.13941506708669 -156.81859044391007 0.381482588885772
97.27449439786552 -156.27081160707354 0.3815299926760367
97.36919263231096 -156.10159969959776 0.3848860474343738
97.43397619279429 -155.73546179695992 0.3837942141143489
97.64544811848465 -155.09720212564253 0.3882477355808047
97.64158447723372 -154.91046568280154 0.38574947184804587
97.69755327165032 -154.82499178756672 0.3885474144380867
98.5106708197847 -151.74222823169586 0.41148892963089323
97.05956153244209 -156.70386524297848 0.37450038457243706
97.55773594764995 -154.99158997587062 0.3819266092103595
98.38985383884328 -151.55284512791815 0.4029021107555746
96.94019987676411 -156.8715218809846 0.3698145708422522
97.11755744759755 -156.3360093063597 0.372524411022207
