ply
format ascii 1.0
element vertex 837
property float x
property float y
property float z
end_header
-46.88609713949931 -91.51349032540392 -5.573821839433023
-46.84046999305829 -91.46511129333703 -5.583463205036465
-46.97066688233207 -91.68250013810004 -5.539631842282755
-46.98866842791025 -91.5970695884325 -5.556488019893679
-47.07636098504711 -91.66731032029934 -5.541242054192471
-47.09134185428198 -91.59828067930913 -5.55479838361201
-44.126503916083905 -78.07657600987437 -5.5894204948978965
-47.23857795414136 -91.6369940309084 -5.543629642717523
-47.16625998933848 -91.58956103919104 -5.5549909733639335
-47.19364932240979 -91.46092987503137 -5.580089311976793
-47.27341020489886 -91.7657849399091 -5.516778927528808
-47.20548819772484 -91.45104146757245 -5.581799828787846
-47.37547836133982 -91.65404567932039 -5.535569090146504
-44.32333215171231 -77.30763041912556 -5.525312094381285
-47.74878335525234 -91.59623135733273 -5.5274880071625265
-48.50372558208554 -86.25787960933947 -5.602021539162905
-48.59672757957924 -86.33268946104374 -5.603044754238749
-48.5718943473322 -86.30669911085208 -5.601393010630408
-48.781468783880555 -86.4903547080019 -5.601759043535954
-48.74662859791747 -86.43886946659157 -5.5972206904560355
-48.91395186898341 -86.64216158854592 -5.60477731607332
-49.05388937774282 -86.82912914262798 -5.60756746025259
-48.95174945830125 -86.70671419634164 -5.609219842388384
-48.91340988589297 -86.25029011297838 -5.603123168568513
-48.86175573797868 -86.23535763611743 -5.609948828361148
-49.10996228175394 -86.81640914407713 -5.590148742124096
-49.12627649786032 -86.79889840145292 -5.582391071588973
-49.02754768253002 -86.37716668090967 -5.607291214851316
-49.28184195017069 -87.08059393656791 -5.589387672675112
-49.27581931305609 -87.07039596122962 -5.58941684888345
-49.19515865628131 -86.57708742350954 -5.610750890140277
-49.04977403323182 -85.92806502650778 -5.604313420723521
-49.06649484297027 -85.87594645991211 -5.590880244981579
-49.26691283370455 -86.58244220140246 -5.595511072692982
-49.24492545408822 -86.56574257586759 -5.597372297952785
-49.186296530706194 -85.97565935935242 -5.591026060292828
-49.1393272223724 -85.94046274433143 -5.591883866633017
-49.415447935429356 -86.86412830352602 -5.515811414379606
-49.28993071648727 -86.06583133294207 -5.59049008738248
-49.54486814135028 -86.93306475236288 -5.588091424862693
-49.588116006607244 -86.90654017553163 -5.573511835267005
-49.37034524207538 -86.0668997995184 -5.576314172155044
-49.64640218546164 -86.86875042868562 -5.55353965542139
-49.77129416823118 -86.64753334992812 -5.5955950831011165
-49.77139764173498 -86.382705895919 -5.5550356036507065
-48.128310175746634 -78.79740468639994 -5.555988178440189
-48.17250465085998 -78.83327054823317 -5.557604391494133
-48.20655892249774 -78.81499903124927 -5.555182543408637
-49.73465280114294 -85.15256260109433 -5.606020652728847
-48.33895162499747 -78.79093587021259 -5.549490199220968
-48.29554100347962 -78.75334857989235 -5.5477424340357855
-48.25242868534344 -78.69795722167692 -5.544560751905324
-49.86539758193705 -85.6864748370259 -5.5432724966151765
-48.4007907992165 -78.68751234131332 -5.5394775863937005
-49.962361861603455 -85.26270695181111 -5.596190706907417
-48.49840735737142 -78.68857996916522 -5.536733331902325
-50.22797026021173 -86.37980769941888 -5.586770479035649
-50.00368797277215 -85.25217489151333 -5.5897476235362635
-49.90921313476565 -84.66880957848454 -5.511993905867821
-48.61063794750564 -78.71573415887808 -5.535614743426097
-48.90727815961847 -79.50211833667271 -5.5891658034195775
-48.88921168552247 -79.44148002014654 -5.584920500314239
-48.87375370041619 -79.36919303440334 -5.579645367005398
-48.71143232224633 -78.7920797571817 -5.5387032116389
-48.679730947972665 -78.68976923701705 -5.531503211777063
-50.013147822516025 -84.29054770833203 -5.60484482416912
-49.97090587366365 -84.23832470942396 -5.6014303432023596
-48.97733769741239 -79.53588473230633 -5.58969341990485
-48.87253748200378 -79.14146959400063 -5.561616725446263
-48.78423856124903 -78.66306539969123 -5.526287303458904
-50.08935941227146 -84.28240005397853 -5.597493827765524
-50.05682515276071 -84.24624553025154 -5.595455552135257
-50.03683711535284 -84.08531354331973 -5.575866090488725
-49.11251243892981 -79.54934788814634 -5.586569288742385
-49.06664241775457 -79.54901191720721 -5.587966047712193
-50.22786276561784 -84.24403617969669 -5.580908631484617
-50.217889826731835 -84.17800417798773 -5.573178275155934
-50.12582230133278 -83.91086498114697 -5.545572805907152
-50.0867158640295 -83.6493705854335 -5.5136423957456575
-50.04149699092928 -83.63590717446425 -5.515310226178374
-49.14660351867794 -79.53479531541848 -5.584334289385706
-49.19878372756845 -79.5073448357976 -5.580530779625694
-50.25705934853609 -84.18339060860104 -5.570597355042004
-49.255982623841035 -79.45466069234007 -5.574564657359669
-50.40891053201416 -84.43713462897327 -5.5899772336053495
-51.528574524318465 -88.74662981220568 -5.534478561400303
-50.25530388137172 -82.84301070142956 -5.600352292947906
-50.175993252012375 -82.63019718837988 -5.581738064497915
-50.16743435965788 -82.5797041204898 -5.576732883943466
-50.30262194149332 -82.8449234485457 -5.597969345585909
-50.32595944604745 -82.68838031375823 -5.579937689240427
-50.250972300989325 -82.58628093205097 -5.573003219100636
-50.188272918690075 -82.50027151583265 -5.567051906890719
-50.232681394545374 -82.37732004479244 -5.551389173498644
-49.75833976744199 -80.06582312480259 -5.607341514196154
-50.64707788632938 -84.05453215271936 -5.5206659531118145
-50.3333686151219 -82.61522225769538 -5.571680150271856
-50.3503592653673 -82.48101101175209 -5.556341541999085
-50.28780256582082 -82.18328465824442 -5.5274687074027185
-50.46962560391355 -82.74043689085038 -5.577582738363633
-50.49865338962488 -82.61304331494907 -5.562394007733166
-50.41087650486511 -82.42221442688727 -5.5467475759214535
-50.56438132752501 -82.63366788945046 -5.560949971344723
-50.56128950086507 -82.55625649052305 -5.552878082320215
-48.855527516442976 -72.4783803536188 -5.574454321320728
-50.73941803082466 -80.46577018560109 -5.606392834100735
-50.84450571601329 -79.93821817009105 -5.561599531374332
-50.79232090147556 -79.82908001954507 -5.554835599783488
-50.75777669792838 -79.78751369113651 -5.552740361306178
-50.84014668644231 -79.83754887913992 -5.553886845690868
-49.11078129025725 -71.71536563693955 -5.534010930366055
-51.31937353125775 -80.33605377710238 -5.576072209063975
-51.221715306300496 -79.83465380719925 -5.540549338013058
-52.506995611131686 -74.94104217493354 -5.6043114917150705
-52.468845294803565 -74.77231894574805 -5.597305998622072
-52.636574220464325 -75.13411800528682 -5.610642051144686
-52.64952840208374 -74.98117981146687 -5.603307310273599
-52.537980809648175 -74.73358793654299 -5.594114070646133
-52.4884250053219 -74.45533073373063 -5.582333814703179
-52.489701011387616 -74.31635501825988 -5.575888166970639
-52.67108152601286 -74.81027517105179 -5.595026467975983
-52.55975369516901 -74.41279824854193 -5.578918700386065
-52.70737148997458 -74.59382939738614 -5.584306322584312
-52.83898621265109 -74.79504763638778 -5.590983730219242
-7.689591823599123 -94.06701717398842 -5.44260966580117
-7.692307736995197 -93.92640067811773 -5.434809739621493
-8.250430909683992 -93.28743812334768 -5.4167394493452345
-8.533837728536845 -93.65983350486937 -5.44608890187725
-8.583429043654434 -93.51525581492406 -5.439442386105335
-10.534392181841895 -92.8400418047946 -5.461921165493553
-26.302151399454495 -125.69142285563152 -5.4592197748235725
-25.861668610246078 -123.24405742289252 -5.475126378070706
-26.664408790115463 -123.84015755656918 -5.487191034597742
-39.49543402597435 -101.57455888542573 -5.446420005750868
-39.62761376196751 -101.56130864900453 -5.451892994674763
-39.607127259435146 -101.48603943342468 -5.454110228067201
-39.69539504307119 -101.55076431568025 -5.454634217823981
-34.03725064071806 -75.35562404986463 -5.505900220106414
-39.854010787202 -101.59570383990336 -5.458580461889583
-39.798957883745636 -101.58658408289713 -5.456842248688724
-39.78682300559062 -101.49596556530392 -5.460447997953992
-34.308373449660735 -75.44572947154813 -5.5098527905991075
-34.09714930015529 -74.42568406260251 -5.435682118698476
-40.079256914520165 -101.33995946934277 -5.477354073422163
-34.234405027410745 -74.19247228728521 -5.416650502367013
-40.16316063753863 -101.35018886188726 -5.479699234372942
-40.380562860383954 -101.1523361643341 -5.495656527791151
-43.27042914891912 -97.02226073398 -5.419106091421638
-43.25440971001655 -96.92853862782552 -5.426030787879125
-43.22718779513903 -96.86228412667829 -5.4302758137740055
-43.59943495191914 -96.93800899265729 -5.437990243577224
-43.79525027369566 -96.71068897399171 -5.4633984752254525
-43.78634061050343 -96.59723421554307 -5.472367978633265
-43.72324675927544 -96.40598709227753 -5.485797834365334
-43.87610462109215 -96.63595070614494 -5.472135327621945
-45.35396516377728 -94.7760922271317 -5.413443941165789
-45.375764806729286 -94.69351125957412 -5.424164006508218
-45.33638854729092 -94.60584649354838 -5.43377354079182
-45.511959649497854 -94.45210162102849 -5.4569743644340845
-45.58977905285302 -94.14524509538666 -5.496270504799391
-46.1221857978759 -93.09466037993569 -5.444639872550645
-46.20653151097285 -93.24561227595609 -5.422024105947608
-46.209061346085015 -93.12765458796441 -5.4409093756855675
-46.270718644127875 -93.10260216929005 -5.445982205010501
-46.60203798380073 -92.94110154813383 -5.4747919602224755
-46.49749398518522 -92.80441557109876 -5.496500610354003
-46.62820424543742 -92.86653883057194 -5.4870221084045125
-46.65314361369354 -92.79779704607432 -5.498199458979026
-46.69316470457184 -92.20815944243121 -5.435237786865914
-47.06948774240583 -91.90256295476792 -5.494327737996786
-47.37515269096088 -92.26451265499406 -5.413501940635693
-47.35632194043889 -92.16324888444353 -5.43449572188775
-47.26611372969154 -92.1052337861961 -5.449093076362866
-44.68624822334621 -80.02236129598224 -5.442920599797216
-44.66796449511781 -79.76564594955133 -5.414235249838168
-47.32402971768705 -91.86527688878455 -5.495222821257245
-45.013045680251494 -79.9147691194184 -5.428093100255931
-44.59552913866969 -76.6135889986269 -5.465174748673304
-44.797723236012786 -76.98139426318119 -5.490351487395309
-44.908461035021425 -76.11618821736391 -5.419465440084193
-45.12540343410203 -76.82633898624815 -5.471351732364077
-45.43120667620176 -77.24698043264334 -5.49835278556269
-45.515669465573545 -76.51165759509745 -5.438113905698897
-46.485880474443405 -77.22823724063744 -5.473157830917901
-49.10427276112748 -85.92240077445888 -5.491485204175536
-49.42523522517524 -86.85355811165567 -5.511258297957012
-49.56551679980944 -86.94864468676106 -5.488064795917362
-49.507198031312335 -86.87086187650371 -5.491527699774636
-49.44759182372338 -86.24344134242452 -5.489866852214184
-49.59300664718729 -86.15300460543689 -5.44008692497701
-49.68869644315024 -86.1252273984488 -5.4135855678133975
-49.683633866096365 -85.06581008318837 -5.461896561669067
-49.726569526189664 -84.96723778836947 -5.438163418392017
-49.785320212610905 -84.90061124738843 -5.418163231483638
-49.78163707810582 -84.44838737662852 -5.490399352188221
-49.899070198626276 -84.63551615046515 -5.507854386759267
-49.86471652452285 -84.54856290173284 -5.497772155477019
-49.83360383143327 -84.4550653054418 -5.486114393997828
-49.81249209908858 -84.33164285746946 -5.468408645855377
-49.91943844121228 -84.5646918823709 -5.494534011839298
-49.87143231164428 -84.1994244607362 -5.441020913344769
-50.02013650730313 -83.15406164955485 -5.451063885578486
-50.02185643578125 -83.11359823506463 -5.445369321447519
-50.304432003451026 -83.59447725087459 -5.489229335854693
-50.274769369645114 -83.54029154322346 -5.4843303034696405
-50.33457692113544 -83.60057565329721 -5.487646399275132
-50.330022802063596 -83.38090371222707 -5.458627572304204
-50.34162315311883 -83.08548579469347 -5.41782981216066
-50.33705447288974 -83.03996245037183 -5.411990796652298
-50.431679139742556 -81.82314700298318 -5.4808765729348075
-50.45338869385924 -81.83254678940531 -5.480781707633102
-50.530098007250515 -81.79296358993436 -5.472481536704862
-50.465440888862844 -81.68136330271786 -5.463717593030048
-50.44258284060526 -81.54028118055066 -5.449510393872928
-50.40044573184424 -81.51352519620772 -5.448742713219481
-52.04993564859775 -88.1967423572679 -5.413901646188697
-50.620532782299016 -81.30967650125787 -5.415271159702874
-48.60828391252871 -70.9209297840192 -5.510717792835954
-51.12084985561608 -78.88912591556686 -5.4701819180009075
-51.07068497433981 -78.69826716303902 -5.456898559694265
-51.136565085707424 -78.72539176840107 -5.456818139406319
-51.78493062380959 -79.3868762829759 -5.486057408989376
-7.336790788272467 -71.0131213881207 -5.39242962061876
-7.309695412764917 -70.0023190766261 -5.323690569380623
-7.527504158113956 -69.93792161786538 -5.318051744462033
-20.587776567799427 -126.38024786100917 -5.314637485115793
-24.947848120245343 -127.81684849889 -5.407413143153509
-36.14022397234651 -100.42971088612742 -5.3192722903656025
-36.571772841001504 -101.08764056327702 -5.3263143751127915
-36.61850310685351 -100.88920958903523 -5.3346417721165516
-36.59240804212526 -100.78285384903555 -5.336154421831355
-36.752870812619186 -100.95388476680952 -5.340172189452558
-36.58484065918162 -100.26316712339465 -5.350107517082195
-36.57953739842998 -100.18222864503717 -5.352079990578712
-36.52242338340784 -100.07708836875725 -5.351431245744227
-36.88632250512287 -101.25132124962899 -5.338430148574362
-36.81835142732402 -100.96257555583384 -5.343668466067084
-36.662205638876095 -100.30280033794806 -5.353634972848852
-36.587665724332574 -100.08633743282842 -5.354956085888523
-36.91132993658955 -101.03068639782225 -5.346685040326443
-36.77572408784299 -100.33701347878872 -5.359268124195406
-36.87124421744171 -100.35283186823423 -5.364376336339308
-39.0169728116951 -102.31126112332936 -5.397587066245758
-34.28178838242726 -74.09888867517732 -5.409085579212979
-34.324310061873575 -73.99955131871921 -5.401131923054346
-34.34735168888692 -73.92953676070043 -5.395566671805206
-34.378815659095636 -73.86840264754474 -5.390618715796726
-34.58643256399077 -73.70372964023547 -5.375798891756991
-34.719151685355726 -73.75185489573369 -5.377898279440606
-34.66310893416733 -73.38782160037016 -5.350941632394385
-34.796197398987374 -73.73758072513019 -5.3759509143804864
-34.727947868880726 -73.3585628969175 -5.347929090101012
-34.751585758597685 -73.28081774468653 -5.341766951084646
-34.90219976131041 -73.7619095585142 -5.376541663393585
-34.80777336671916 -73.14479949228819 -5.330744477415825
-34.88409527432077 -72.9261631545358 -5.313493412802371
-37.570619959439696 -74.42388095163132 -5.398081397988631
-37.61538301520038 -74.28722651415738 -5.3873189950484015
-42.77946954723773 -97.60923904987675 -5.352689713203523
-42.749281441794146 -97.5867214775442 -5.353319372725748
-42.939307895359605 -97.34036438676696 -5.380668165460929
-43.16648520710946 -97.54485701864915 -5.373269843411155
-43.15043910219887 -97.44203294432317 -5.380881454901215
-43.31619193229827 -97.27481804247314 -5.400497324728338
-44.85367531236845 -95.39416178422438 -5.324112558897683
-45.00023270406325 -95.00523580294353 -5.3756254936465995
-45.064404948280554 -94.92515716683228 -5.387235719230535
-45.145937403372805 -94.96841091486759 -5.3845104806169655
-45.10485083921881 -94.92480505951295 -5.388482957353356
-45.25266934632314 -94.77316392506555 -5.411120653448625
-45.811040892029524 -93.79082859906723 -5.326533754485146
-45.800920759814296 -93.74388026101595 -5.333594477242294
-45.74247880957379 -93.63011359534738 -5.349808887080647
-45.73983246085144 -93.47662905985598 -5.3738336698413365
-45.86950670216896 -93.67457259754886 -5.346449838131525
-46.03418853744672 -93.78987419216425 -5.331749801053674
-46.0115009898693 -93.54167733816116 -5.370903144206772
-45.975879460589965 -93.47056067657888 -5.381465852403416
-46.03898858957193 -93.60568898475033 -5.361252838130387
-46.00590411099003 -93.47190074378558 -5.38198674251222
-46.190234262981825 -93.62165445674589 -5.361282535837951
-46.342063199518115 -92.79434906015736 -5.314866625941417
-46.405122638426974 -92.7773217642135 -5.319378344258862
-46.37469537645209 -92.70430510861533 -5.333265177116613
-46.466786828446686 -92.65135443890742 -5.345123270409189
-46.4993188204568 -92.5450596327558 -5.366629368675243
-46.61516690799321 -92.67314340293724 -5.342482656471589
-46.58313177711907 -92.61714392513926 -5.353271743398052
-46.53002709261166 -92.50684732683177 -5.374530662307901
-47.30504682758903 -92.49853563973097 -5.369144984862821
-47.31787918120493 -92.38637261231051 -5.391125232994661
-47.3921536578288 -92.31079716996899 -5.403659982572224
-45.934924241711904 -79.6662356167928 -5.387863451863371
-50.026767406026174 -90.3849487162712 -5.371899050245112
-49.04410227743245 -85.76082370002314 -5.3569878549184065
-49.310437233539 -86.09844449118053 -5.383228090926775
-49.24397553246972 -85.82822780973038 -5.331758516834942
-49.20019670544574 -85.73332421403497 -5.316744618832155
-49.364013326320894 -86.0697245982757 -5.363662221829966
-49.32426044799631 -85.96923902409402 -5.348835101116925
-49.2723641949745 -85.80040309200974 -5.318358544463425
-49.8409321683891 -86.70807099083089 -5.370894703934071
-49.79709210893342 -86.59970223906927 -5.363785178869799
-49.82308017664417 -84.81459619735806 -5.397388327806431
-49.79762054429241 -84.55160311037292 -5.351739550401266
-50.98574066025185 -89.80212247664535 -5.334206150233347
-49.87103293758087 -84.63662209148484 -5.3582148040569155
-49.83953362658554 -84.56986086288134 -5.3498371063089465
-49.816983109496505 -84.5023258116371 -5.340013219491489
-49.90424654668275 -84.44182954931809 -5.317569995233506
-50.0426773566339 -84.52752887932148 -5.315597925572435
-49.202255523967125 -80.06586885856767 -5.340577145955584
-50.06200909746546 -83.70126849404463 -5.3407299073197905
-49.33798944291799 -80.15773801448482 -5.345605101608925
-49.276618338900384 -80.06536180045327 -5.337588130575691
-49.21966157594257 -79.82533056229171 -5.312631459511262
-50.14620730488422 -83.73625251348253 -5.338159252564724
-50.163670189262525 -83.68120327358508 -5.3274307033365496
-49.95838691377651 -82.74133112276641 -5.398107673775233
-49.93548401165656 -82.69699732348926 -5.393455982261587
-49.453960809953145 -80.21223675626538 -5.347060513017251
-49.406953242184436 -80.16636363205099 -5.343794910721069
-50.06929276599699 -82.73258023027438 -5.38916026164825
-50.06262625386223 -82.68014945516614 -5.3823335564691
-49.52641879258046 -80.21165700200243 -5.344004935956608
-50.27463018874629 -82.96717746200942 -5.406725829986494
-49.68940908019922 -80.4716008024304 -5.366378651444384
-49.64103122269496 -80.40720588864394 -5.361204265715188
-49.63054758272558 -80.30557031951048 -5.350218974706799
-49.609907818935646 -80.18636168096086 -5.337653286032401
-50.31977656259892 -82.9735696848568 -5.404243685533271
-50.32795834437859 -82.96119944147537 -5.401935624627175
-50.27792938713602 -82.8458447629633 -5.389859813631284
-50.23177145807267 -82.59754580310013 -5.3589288623825855
-50.2288303756725 -82.47079990802597 -5.341523583813267
-49.85897735167676 -80.52911746273358 -5.365418402652198
-49.8027831892203 -80.48523226132052 -5.362969536441536
-50.64695703863813 -83.92179405262418 -5.315308606951833
-50.62372206003451 -83.91987235595352 -5.317543377899456
-50.420032060968786 -83.0224342120318 -5.4033178402214315
-50.35759836838428 -82.67683846831497 -5.360789496262345
-50.35700627924273 -82.5761219077365 -5.3469616808804465
-50.364154485519194 -82.41392196284937 -5.32403296002057
-49.92726354464271 -80.54017601799461 -5.363592949328053
-50.40339280321107 -82.39102449005932 -5.318067112371574
-49.99775971619519 -80.58661299524381 -5.365598443387684
-50.05000287719738 -80.56329313866402 -5.36060845537872
-50.113039680218975 -80.51669030008526 -5.352534245424272
-50.49679030582273 -80.40857075841124 -5.322483043366025
-49.01951411887755 -68.48280208427927 -5.39134980333067
-49.20790737496929 -68.63025178885172 -5.393331369596089
-49.163560354473326 -68.40070364774637 -5.384136014566719
-49.159470185729226 -67.74567014360301 -5.354869614263142
-49.43700017234692 -68.41458856540675 -5.378076612621268
-51.605835899659354 -77.2933043557701 -5.3288294073425515
-53.34391661149721 -69.14215572817533 -5.321288116329832
-18.33284823065732 -127.25393684813147 -5.243809707033904
-18.935436345488434 -128.17308491191685 -5.256667034731537
-18.90018514525992 -127.03865374343098 -5.261928755268099
-19.122637318424395 -127.33099984335632 -5.2669629253334325
-19.22451235586562 -127.4718140301971 -5.2695960325929105
-19.23063371949921 -125.4760800089276 -5.279435674004633
-19.51613945422644 -126.48171856545828 -5.283621677163414
-7.437891464806945 -69.56715626090782 -5.293198995456285
-7.61275505632706 -69.48030067916889 -5.286088599065565
-7.745457191146301 -69.19858274758342 -5.265908179759408
-7.739266753381571 -69.03518392727678 -5.254779112889184
-7.798465247705245 -68.90307715345975 -5.245240306771848
-12.539080725830082 -69.21396309745488 -5.236062173609992
-12.597643331485607 -69.09359974805578 -5.227211673260493
-35.110078610337716 -101.50963209258192 -5.229714702070669
-36.42708200976496 -101.55429692545945 -5.304260439740005
-34.94403706700488 -72.89278945830634 -5.310250389395991
-34.988869345032626 -72.84102396974424 -5.306176976056942
-35.011476005232495 -72.76139344070843 -5.299847123357363
-35.063046888384456 -72.72018561205178 -5.296484545121225
-35.087472516682524 -72.64479444992298 -5.29044434655419
-35.107323467137505 -72.55795104208843 -5.283973657852325
-35.267363735353065 -72.43383499367344 -5.272937791751353
-35.356668242642165 -72.31560818488623 -5.263181451822239
-35.4507708892059 -72.32969952278864 -5.263469852311345
-35.54476503329517 -72.28948905448561 -5.259403079765187
-35.61863822141236 -72.22248660396447 -5.253526030145288
-35.68052565439938 -72.18952477957792 -5.2505918663169036
-35.6827875841399 -72.07437985726308 -5.241740485796073
-38.35519412145233 -73.34600346585218 -5.307438273883161
-38.40573144912292 -73.19934815213348 -5.29564203760946
-38.41164022356009 -72.73328273729273 -5.2599944998133585
-43.59575409958361 -95.81149293639291 -5.219123271285406
-43.719884657966375 -95.8647400907144 -5.220000418486105
-43.677953623482125 -95.84748492463731 -5.2197168815325625
-38.63462864408319 -72.37902214269083 -5.229997613382025
-38.794791702958946 -72.29225996298813 -5.221362185830186
-38.958049719626985 -72.3367218825887 -5.222578851421266
-44.17544471105881 -96.11073816357353 -5.213765664356568
-44.12445554485337 -95.94458088819536 -5.230774426484919
-38.98277420133553 -72.25171010950125 -5.215566128178168
-44.47416765933899 -96.1188109407038 -5.224665248880195
-44.63170418617084 -96.01514942058668 -5.242532915236829
-44.63643454593441 -95.90428761470955 -5.255814191149582
-44.60207568761651 -95.54640724128157 -5.297202322859383
-44.671203281089205 -95.70076454686279 -5.281400303060604
-44.62845774069265 -95.55735181077912 -5.296781001685154
-45.34741708312248 -94.35444681482615 -5.22296906155259
-45.45010672396785 -94.41742778509489 -5.216757418082535
-45.5382986838306 -94.35254158912483 -5.229933944189965
-45.590289160249206 -93.97234875779854 -5.291272638008611
-45.53206611960795 -93.89544299059318 -5.301218586958593
-45.80416454199645 -94.11325174787851 -5.27515608221015
-45.74602355756571 -93.8850906889628 -5.309832359975665
-46.02700699683093 -93.99356913692789 -5.299049765955274
-46.040475752501976 -93.2620763989123 -5.215932197502681
-46.08486018546619 -93.23321558232774 -5.222844582729932
-46.198316090694 -93.08552476457781 -5.254700380255983
-46.20105119732633 -92.97619365365321 -5.276070734341765
-46.251431844938125 -92.99854236477 -5.272882296998037
-46.24128497336852 -92.85884996440525 -5.300056204662216
-46.19587195961192 -92.81921246012055 -5.30659782571957
-46.29890695704653 -92.94020880765743 -5.285431360800786
-46.499543732978545 -93.18081993694302 -5.240819412370304
-48.854756876711875 -85.3485071541148 -5.27797837457897
-48.81089690808394 -85.16453002250442 -5.231407544646045
-48.927379906594936 -85.33877546666407 -5.262092208294012
-48.86703318238929 -85.31132481141678 -5.264957108100629
-48.82800033670639 -85.16820273611955 -5.229617402797706
-48.98746826724129 -85.43048342582495 -5.2771301629945775
-49.20195568791024 -85.70911716096441 -5.310012106883984
-49.32332975135499 -85.77644482467277 -5.300940353493802
-49.30213129421614 -85.64965369314913 -5.272963613801684
-49.24491884264502 -85.51864577449447 -5.25037517376477
-49.43012805592349 -85.72286669668797 -5.263540367184429
-49.38296861374983 -85.64587770233588 -5.254406564330393
-49.415279774949276 -85.59794554953726 -5.234991002644204
-49.50557593169723 -85.66722730012606 -5.232592755938086
-49.54272156012698 -85.64852738001348 -5.219510570833243
-49.46322880417063 -85.16679132041665 -5.246219242276858
-48.11929024105164 -78.64159059806515 -5.217052636969407
-48.08712949375989 -78.63627744251676 -5.217458824644254
-48.1845661879401 -78.64259351403072 -5.215084485548946
-48.30686273026809 -78.72165649687472 -5.220170688140846
-48.245974046650026 -78.67757395997259 -5.21711557621707
-48.4069401512862 -78.70264303426785 -5.214661127486248
-48.48672396073566 -78.70708326170208 -5.21246903273148
-48.599298149273054 -78.7360477017987 -5.211897757990144
-50.192464160665175 -85.74746874221698 -5.228331200045992
-49.89026335762662 -84.35929688423613 -5.3037577267839175
-48.8440559064746 -79.16987676354876 -5.252651879533268
-49.954582470752364 -84.03219803705535 -5.233367276959646
-49.04075583721138 -79.5680214318499 -5.2905350643987745
-48.974189182132044 -79.51982811706432 -5.287611923506631
-48.913670764430435 -79.43894089186952 -5.280706760485621
-48.89555641781417 -79.22522400820452 -5.257053842046316
-50.07535557248599 -84.14735012081213 -5.24041723768001
-50.10431001886254 -84.05647421617566 -5.2195799849540965
-49.10561377720923 -79.5523156497283 -5.286206064292602
-49.217220043492716 -79.5899683006987 -5.286050431068549
-49.17633579598944 -79.51392156423745 -5.279071580495238
-50.27738025996125 -83.60190237016502 -5.303168785656265
-50.33440011623642 -83.35165359049775 -5.256628360712964
-50.29151613880505 -83.2336736575673 -5.2413669123646605
-50.260992231170114 -82.23108461090132 -5.305850426564232
-50.68460577075325 -83.82179356532691 -5.295642211885894
-50.375988418853346 -82.30437668947748 -5.3080035817826605
-50.35670169338234 -81.80948730134962 -5.240232616793758
-50.658373992889004 -80.23021124564872 -5.294999312052328
-50.908081499282304 -80.21496091523431 -5.28102830532627
-50.836397114098226 -79.91428600658323 -5.251486627011362
-50.95870789326762 -80.00673835223472 -5.255668367106796
-50.87012338827995 -79.91447638898447 -5.249880633346166
-51.03503375094952 -80.05936402152288 -5.257614254507613
-51.046370866650676 -79.68242090625087 -5.21567021070897
-51.64866866629209 -77.08013084286341 -5.310702611447202
-53.058874065528876 -68.415357494023 -5.29413269222745
-53.063911757546975 -66.67820023318326 -5.214845619514761
-53.59549549119142 -68.60046887149349 -5.291341671107087
-7.296375661901038 -68.31806452339637 -5.208054939607897
-7.711717950530534 -67.66170396069577 -5.160014932031698
-8.274253834713832 -67.61058604245764 -5.152778087495845
-33.59654895519522 -100.34494677159316 -5.1542991268418925
-35.210200635144616 -104.1136610790806 -5.159270212917564
-35.43887955763198 -104.15212142707377 -5.169417558362705
-41.36490641233284 -99.74556463792281 -5.124376349349874
-41.44970053907461 -99.77795430960386 -5.1257959001214495
-41.54907128384053 -99.46752877284638 -5.154047556596367
-41.80440922746428 -99.34450148941882 -5.175055534757105
-41.78330426532045 -99.28606021639719 -5.178815595797452
-41.79417337481635 -99.16109881823779 -5.1888123643313815
-41.87865977639029 -99.2890205324275 -5.182781529047968
-42.04302581266552 -99.03586384787728 -5.209500439694162
-43.773528169499215 -96.50890461860541 -5.149569113023952
-43.77218801241306 -96.42505968497892 -5.159229907740101
-43.65703094023602 -96.12834865143238 -5.18699103166735
-43.89822895219899 -96.63561872863085 -5.140800951488054
-43.76467720257079 -96.35792018730471 -5.166418832402691
-43.75258550299485 -96.10131210525194 -5.195039294527787
-43.98577171065566 -96.49248269121848 -5.161126166509725
-44.18214503797782 -96.59643414255709 -5.157184132900948
-44.16116629583674 -96.5639936762073 -5.160054688856467
-44.16718637969341 -96.45252644160247 -5.173517053037283
-44.22215057957268 -96.57658747174003 -5.160943675799703
-44.20513455707715 -96.16056241903077 -5.209261633038061
-38.94250024763549 -72.0409136705931 -5.200039732701269
-38.98694728960415 -71.99113051477453 -5.1954589409676455
-44.237486554248505 -96.1595200638599 -5.210598865213863
-39.024288682782064 -71.92721084498301 -5.190157857178453
-39.06026065925438 -71.85983349804934 -5.184328633897695
-39.098300978015985 -71.79604447693053 -5.179017995764119
-39.15281904138837 -71.76451910689235 -5.175683639629217
-39.212650301367816 -71.74388674835649 -5.173386343896521
-39.343023679145176 -71.72486410686413 -5.170057194160317
-39.41385698178533 -71.58923463729641 -5.158562820014166
-39.472287018664616 -71.57274547183964 -5.156313252575148
-39.675023424608156 -71.69636630770738 -5.162904656330992
-39.74066702973188 -71.55447372190127 -5.150952989010051
-39.78031144144036 -71.49058874745997 -5.145539236072324
-39.91862273174763 -71.24858434554366 -5.124594686863684
-39.97885063752478 -71.14224653544352 -5.1153451957701
-45.26206375469103 -94.52620611153831 -5.19295942433988
-45.407024619198836 -94.48766874636291 -5.2043832949017474
-45.57662049240714 -93.65959147486745 -5.121526452555905
-45.69406536692981 -93.61744854069408 -5.13477535886759
-45.785941502151864 -93.5884810524174 -5.144040816494235
-45.76901931188355 -93.52771770176747 -5.1550294586942655
-45.922006418127985 -93.67421408600622 -5.1322460045640526
-45.86869701137313 -93.58983375792661 -5.1467714817508305
-42.15592019692115 -72.14562498705997 -5.158013957048167
-48.541079186529345 -78.67487887821531 -5.206916487957352
-48.60768121456491 -78.68116512920784 -5.205331549905439
-50.26471158947479 -85.7131863413812 -5.205693708195914
-48.70531406955106 -78.58419521431128 -5.190811763080083
-49.93847463785077 -83.85154190602151 -5.200298829248097
-49.927619517808026 -83.71161804684179 -5.174208206867576
-48.782073697443614 -78.53072408530592 -5.181970158074145
-50.069780110384016 -83.9466913325229 -5.202919836602167
-49.99271408572022 -83.90692321577691 -5.204605239297477
-50.03371434886647 -83.7737405338135 -5.173916876697277
-49.99832416452146 -83.69074150647373 -5.161900554632327
-50.004894348839784 -83.56402076534427 -5.136312255479558
-50.106570920388634 -83.96906605784271 -5.202667472815161
-50.14362674587034 -83.91997056835936 -5.188742986829007
-50.074018310054186 -83.7471717628058 -5.1639551485710316
-50.01364332750637 -83.51858468460091 -5.12635264960546
-50.04255486088618 -82.88237210605409 -5.205455785531116
-50.123678298720186 -82.90454009667599 -5.201956665587362
-50.14312471207636 -82.83161240821872 -5.187875381842337
-50.13322495759334 -82.7667900047825 -5.177766539220969
-50.34926269511074 -83.0224947397945 -5.200841353032541
-50.340404810293634 -82.78539366095218 -5.1620727712495285
-50.31209262476008 -82.67150736555547 -5.145515386772555
-50.214582542183834 -82.53950856036103 -5.1319032646379386
-50.24500446951705 -82.44168270582578 -5.112542345154144
-50.406787601192924 -82.87835093572922 -5.1714149581371975
-50.390096698808215 -82.82583353796628 -5.164209209997055
-50.41685534125881 -82.70333826901226 -5.1412384599578
-50.35193735279118 -82.60493697978549 -5.130664121353849
-50.497896550101885 -82.6568426017682 -5.125894404791454
-50.846503858885015 -79.42953654092805 -5.197446730936387
-50.88693790903689 -79.25013175365828 -5.175678176513968
-50.82350474351044 -79.05963600510368 -5.157528002054734
-51.08094541127635 -79.60972039083144 -5.2059940189719
-50.923816525997275 -78.99471584575845 -5.145599394200205
-52.12428130125052 -75.56537118151917 -5.175969111134845
-52.09225005607048 -75.52032862369194 -5.173515229891361
-52.254170456952856 -75.49334628149343 -5.166007497102206
-52.276120678824945 -75.31501516085216 -5.1513047219570485
-52.99718196865049 -66.48782948260907 -5.207641872564482
-53.108521020756385 -65.77095543563745 -5.172572420280284
-53.04978516194996 -65.67255656475568 -5.169426889787255
-53.06029974184611 -65.31184943875704 -5.152735753283183
-53.03022148505586 -65.1017891752185 -5.14390161301406
-53.00360194055105 -64.86823667964708 -5.134009267730892
-52.9811890040101 -64.60713215428035 -5.122703963463679
-33.320401730762256 -102.8947058156088 -5.085693934064189
-28.935861741270713 -78.10754860685118 -5.021287378147148
-33.477754342998416 -77.88101755185617 -5.101920636268452
-33.49847950722021 -77.74921302674468 -5.090034093853474
-34.31839162500887 -76.89934865200853 -5.024410087509775
-34.92669398347069 -76.74015218801229 -5.019053993507519
-35.09201994042856 -76.81368527596874 -5.0288910858764915
-35.274596966591474 -76.90417508407933 -5.040668539133923
-35.5031132648397 -77.03920265216784 -5.057516004828117
-35.70580194456206 -77.15253642857455 -5.07183436864355
-40.765012315839236 -100.42307507169461 -5.044103289556802
-35.9039689174969 -77.26219369742915 -5.085689540749224
-41.027218556086744 -100.33205760115132 -5.063611026682191
-36.03335096011116 -77.30852183454795 -5.092250484055387
-36.07551330474429 -77.27608977481383 -5.089674045570642
-36.10359462168553 -77.19267595916638 -5.081839075046438
-36.151203778399164 -77.12403466126203 -5.075736480703062
-36.199614590526195 -77.06092153862242 -5.07015825058717
-36.21079537651385 -76.95942308368043 -5.060197854980598
-36.3815085105915 -77.05403851903148 -5.072078903479927
-36.50859410458163 -77.06885527842825 -5.075333295468562
-36.56454919003959 -76.97695146159654 -5.066888569777138
-36.58884271619267 -76.88863407167638 -5.058334837264993
-36.61227385934216 -76.83607216440868 -5.053371877874245
-36.609814373318564 -76.75608973386917 -5.04526187380806
-36.580468824290726 -76.64696856153891 -5.033879081619263
-36.54351927613438 -76.52878302250184 -5.021438353880241
-36.54128962589369 -76.44668219564181 -5.0131166693577445
-43.599678370203875 -97.04407192167369 -5.080068108779888
-39.98432112162572 -70.99673505161076 -5.104073870500005
-39.93325666400965 -70.71510291819592 -5.082833302226591
-39.989543857945215 -70.59656465588851 -5.072798449884975
-40.078813085098716 -70.46948444245754 -5.061493626384351
-40.18198410898819 -70.46236176026095 -5.059367304943524
-40.294573949606516 -70.5680076373731 -5.065687391448613
-40.34773783459602 -70.52564194146393 -5.061653450349699
-40.39686778463418 -70.4723123901335 -5.056578470987381
-40.43686690624187 -70.39486887123873 -5.050001551725398
-40.4802764723013 -70.3249941776809 -5.04371804174741
-45.613156596740566 -93.72249574964059 -5.111242518746221
-40.52185070331825 -70.24957116861904 -5.037263023512594
-40.561897793992706 -70.1686593148928 -5.0301616707387895
-40.60577763389926 -70.09712971431023 -5.023958258937687
-40.64402172633785 -70.00886838809322 -5.0163002269331685
-49.81045670123136 -84.67978804046933 -5.066110438442761
-49.89472213943587 -84.62508110639767 -5.037865065398626
-49.859478610711264 -84.56173399154967 -5.028612010009691
-49.82423381017851 -84.49729413967134 -5.01883455397145
-49.86807112790221 -84.05487616060313 -5.075793890240909
-49.950721117406985 -83.86451310245006 -5.021493461404764
-49.0819130050983 -79.75705808637181 -5.014338717660005
-49.329602432296994 -80.06733891238497 -5.048171829382361
-50.094883819441925 -83.35976762081071 -5.085771138336272
-49.41775452823721 -80.1133490588655 -5.050540683456587
-50.197581739646445 -83.12772196233352 -5.02824529643488
-49.515337775511696 -80.13758115573091 -5.049115818714976
-49.71694235586893 -80.33480247877417 -5.067327088088741
-49.68432848058016 -80.30617370782818 -5.064922453946579
-49.66356043083456 -80.14452024925244 -5.042351907362219
-49.60955387560082 -80.12388971603227 -5.042198903607385
-49.79016119434144 -80.42580289920829 -5.076598458728128
-49.74728552715099 -80.374332586621 -5.071455901329173
-49.686980201934645 -80.16453243063623 -5.044059201107942
-50.28602420420362 -82.3250262173275 -5.089055730563201
-49.88904278384481 -80.47654794354222 -5.078428756350773
-49.841903053415066 -80.40739875557485 -5.0710419235408635
-50.47034177672869 -82.53546488072078 -5.108125995726722
-50.461970070899994 -82.50734642193693 -5.10415790752352
-50.336239772823234 -82.09332091665769 -5.045053958964595
-50.29069968602159 -81.98126778734623 -5.029700984689749
-50.31288123960033 -81.94079536156838 -5.020860190605042
-49.99754449245497 -80.50240588189864 -5.075959925354138
-50.37367198088519 -81.92751139839004 -5.013382313642017
-50.091606151217746 -80.48749108719426 -5.068310601256751
-50.76022492781844 -80.74076593298288 -5.062621292960937
-50.852978711833146 -80.6802495793102 -5.04788723069989
-50.83637483522125 -80.59214715022527 -5.036564312575575
-52.33352374415803 -74.78218314350903 -5.107515439078589
-10.785347860997007 -65.40633380223613 -4.9804432898686475
-10.943288091199292 -65.1536056242058 -4.961336621581265
-13.232865980615166 -64.7402594596973 -4.914268259509331
-21.70909981138895 -79.57929624220047 -4.950462591521339
-21.732720688118732 -79.48891105663724 -4.944207306620237
-22.121264803797132 -79.27702622216265 -4.938536000077647
-27.75559011865448 -78.32895710368496 -5.0112289431247605
-27.935656449670187 -78.16638316274016 -5.001863725970674
-28.147747331815353 -78.19009797915133 -5.009158824060755
-28.066557234883025 -77.9823221935406 -4.989384900148382
-28.077541126576854 -77.90554464110011 -4.983032688879042
-28.03320165427367 -77.70825245393935 -4.964967490959026
-28.420639013748314 -77.99977588674643 -4.999520285876025
-28.487539000500416 -77.61700618994156 -4.9679778526661895
-33.80143222653693 -76.37519339066831 -4.964896703785193
-34.15467337744019 -76.60112401087613 -4.992771420552523
-34.33213509424196 -76.63783683571852 -4.999322352446535
-34.37749325097372 -76.47591189117627 -4.984322300371254
-39.912307479332625 -101.62527850938461 -4.911529972330907
-34.537668780965085 -76.69759956407069 -5.0085605644889615
-34.66399563297452 -76.65249162957754 -5.006239289434907
-34.59362030674485 -76.51342893069337 -4.991504312640071
-40.150596104307446 -101.39940988408692 -4.9404131183995315
-40.47785359508747 -101.09951103316106 -4.979274126458485
-40.40327618453649 -101.02103402984051 -4.981509584193743
-40.536306981156436 -101.09782939561228 -4.982046343029609
-40.595597704186595 -101.09409421087645 -4.9853486883286156
-36.557524469614705 -76.38572069109206 -5.007126241124958
-36.58743600625979 -76.3395396590057 -5.0028283883388065
-36.634704555830666 -76.26989796912967 -4.996321525348238
-36.6877089071407 -76.1650269755689 -4.986273162407694
-36.766219934967566 -76.08521263184429 -4.979041936294738
-36.91760206637001 -76.05279096839341 -4.977459071627696
-36.84051700472093 -76.04559148294699 -4.975830701922625
-37.04831944484413 -76.11921327567482 -4.98571508178288
-37.101897370311654 -76.05545113123758 -4.979755169109161
-37.154835233119506 -75.95381755702715 -4.969845948969732
-37.202055577080856 -75.88619955317688 -4.963365690042963
-37.2466992797589 -75.81219947914603 -4.95645083316151
-37.27682608263602 -75.71966660123412 -4.947524986208755
-37.27065809185099 -75.62494412757391 -4.937656957871239
-37.2290536143603 -75.48726324786134 -4.923301874706687
-42.661019917370375 -97.66172400059743 -4.961137262815794
-43.695598296351456 -95.82014018592406 -4.912805237222847
-44.254557512086606 -96.03320394883886 -4.915688503674094
-44.36599690237082 -96.07029956749912 -4.915882033762631
-44.38166118628248 -95.93781924956951 -4.936616999538191
-44.35894153588856 -95.87123484010071 -4.9455577092549365
-44.58642192421298 -95.97495853302543 -4.941026501839766
-44.665241443668336 -95.82184042699514 -4.967944199256281
-44.64387013073993 -95.56475851845829 -5.006302164159201
-44.79932144759543 -95.62470966273646 -5.0041829989396565
-44.75981322802406 -95.61348045701003 -5.0042463260216445
-44.850099809957634 -95.59994960924264 -5.01010316374232
-45.18281848999843 -94.34176488693328 -4.972495578332094
-45.20777993879335 -94.18506860879174 -5.003421667480092
-45.302267656459314 -94.30797764138447 -4.985143257046956
-45.27859165755076 -94.22319590047424 -4.999970427665203
-45.35582800744429 -94.2478953170611 -4.999137941506323
-40.77021310363796 -69.77305541460716 -4.99584256295817
-40.83595151030073 -69.76281001917316 -4.9938136786961085
-49.878051240590594 -84.5030739459247 -5.010946578468088
-49.83745557270245 -84.45638843195044 -5.006377923711012
-49.81733931928602 -84.36930056772725 -4.988110407796729
-49.84809126195821 -84.28958787976647 -4.9629431097235175
-49.85363955422554 -84.25558852124834 -4.9534774776601775
-49.85937839235563 -84.11111176584677 -4.9159647971891305
-49.941187222312536 -83.8030534167428 -5.008958341732238
-49.84255062783932 -83.63411603020499 -4.983762000326358
-49.8488201073022 -83.48927493836223 -4.949552841112151
-49.85148205037044 -83.4333422761518 -4.936252120048974
-49.05971999315403 -79.72347369287952 -5.01043058363568
-48.96931526510208 -79.2885306719751 -4.950062570145338
-49.96140409968566 -83.82022873443168 -5.010049882472521
-49.969013753348555 -83.66712227243264 -4.974345465944413
-49.95151484747166 -83.60549905800968 -4.962678641963657
-49.913377081740315 -83.49382435521831 -4.94216021354117
-49.11915241994589 -79.72734852996226 -5.008176600319114
-49.07767143493104 -79.37482893524984 -4.957884495316552
-49.0070943662789 -79.3369938554116 -4.955533477046044
-49.2308803830485 -79.38628900857562 -4.95230846314774
-50.21655369138337 -82.96519703693275 -4.993875689752951
-50.18777150244993 -82.83718420641792 -4.971507035864702
-50.31980536590056 -82.85823480054945 -4.9610852828338885
-50.26920527664694 -82.61815130203308 -4.91870268889827
-50.339220087163156 -82.7076098189686 -4.9289451220984235
-50.44603827460371 -81.5284749379594 -4.9385279813286855
-50.42686449604514 -81.45698059396686 -4.927759849267934
-50.509447987485274 -81.46398158494273 -4.9220579844801575
-50.57808591116338 -80.25564855973576 -5.005429362729682
-50.66427552082659 -80.2121097425461 -4.993785215902488
-50.75649085920125 -80.18928059297599 -4.9846559804878545
-50.86771776884166 -80.19150398972693 -4.97781404193883
-50.83410955827689 -80.16021748944947 -4.975535423771724
-50.97429715465648 -80.10997118682815 -4.959284199216019
-50.90113195335366 -79.76853826601234 -4.915480278884558
-51.379821260492754 -77.5087034663695 -4.959230554518535
-12.403470454659988 -64.36000773400768 -4.893525588299687
-13.379317733673474 -64.49272188047998 -4.895326079211626
-13.378485069595754 -64.32622186527955 -4.883344207008525
-13.475808009027745 -64.21546571744038 -4.874605868886954
-14.482920150807693 -64.07404698669455 -4.856133887768976
-14.599424333385315 -63.63403969160498 -4.823316103846619
-14.732389183196602 -63.55675551213009 -4.816577813284261
-39.2483059695634 -102.27845873961611 -4.828901446899735
-39.20894277070401 -102.23162506293086 -4.829990000871316
-39.35330424419158 -102.26445744549962 -4.835421286459974
-39.42646281475865 -102.30753475827638 -4.836015202460596
-39.85229131172435 -101.62492452690759 -4.908658979255133
-39.94628190100239 -101.67695061439325 -4.909606285635662
-37.19815850301802 -75.36175807423375 -4.909981665887596
-37.219330919023236 -75.29683329119779 -4.903767868155894
-37.24614950520794 -75.23797277179087 -4.897902773532049
-37.2663069277567 -75.1743510669236 -4.891795842533517
-37.30247577207318 -75.13142169229644 -4.887653952224205
-37.35494696138552 -75.05499627260927 -4.8804698300297975
-37.4101874896165 -74.98700015763721 -4.874170350997454
-37.636787461101015 -75.10625834339612 -4.888878276411377
-37.53937186974481 -75.06702101562801 -4.883643081909334
-37.6674591715059 -75.05644000107705 -4.883907266073331
-37.70139261922134 -75.00683133168403 -4.879286997864664
-37.72420166797189 -74.9410301870644 -4.872552447265802
-37.77493986945361 -74.8676445058835 -4.865532398058926
-37.843177502048576 -74.77022425429347 -4.856074328613682
-37.86278162977352 -74.65175360503872 -4.844019563498219
-37.84072624341113 -74.52156544369244 -4.830105900906876
-37.79797248194579 -74.36465142849994 -4.813525407404366
-43.23126042462336 -95.98970127278088 -4.854714912265402
-43.359178950861015 -96.08463612019891 -4.850952174376756
-43.277011571717765 -96.0020119061623 -4.856554606176829
-43.44687241538069 -96.15611051805091 -4.847121580689351
-43.718197418162006 -96.31978138973525 -4.8415701847540324
-43.73461397914401 -96.19832314364642 -4.860519752429029
-43.88740063314294 -96.147500355641 -4.8775718755874555
-43.978703362523625 -96.13947894595945 -4.8841589525401385
-43.997770978414465 -96.03394050783471 -4.901031069372679
-44.08329226638566 -96.33031920049484 -4.861781649012549
-44.09311450510253 -96.12540766507202 -4.892892778395218
-44.37638163390218 -96.13230912754095 -4.906881158893131
-44.46172453147008 -96.26471291126663 -4.890830911965558
-48.19824378581437 -78.58461506488459 -4.876212206810261
-48.276378639223644 -78.62825427186706 -4.879897763645649
-49.66814052854611 -84.37958881380958 -4.850796762079495
-48.378163867591766 -78.60456461969643 -4.872524737706447
-49.75720671063392 -84.52882231002084 -4.8761047588643445
-49.74975944519446 -84.48124221165182 -4.864196745944991
-49.701457588681535 -84.38548743198368 -4.846278211108818
-49.69850954109711 -84.31062775326082 -4.825468957758558
-48.47330223217485 -78.63157064091875 -4.872908080097893
-48.57870735426284 -78.59650575647987 -4.863492389544631
-49.913018876082816 -84.09289859409097 -4.902551751292613
-48.65096011978153 -78.56644531288595 -4.856092517721589
-49.92952440906852 -84.12609315329307 -4.908213053120611
-49.96788833693399 -83.98864691394844 -4.867095570428962
-49.880955427271935 -83.81513395420298 -4.836617119054382
-49.92543854054922 -83.74807093847264 -4.812318563650172
-50.00817410140308 -83.81326974528554 -4.815908056328418
-50.16940866468498 -83.38228984801255 -4.882399422359459
-50.0456472558997 -83.07413934710812 -4.828015493741389
-50.31233173481292 -82.45819262266973 -4.881905639134533
-50.331966784874446 -82.28766557553755 -4.84538276839181
-50.46657484750096 -82.4586667508176 -4.865221303512824
-50.36719658922034 -82.29526651895884 -4.843183426141074
-50.503256044268454 -82.35562818511382 -4.840580789537812
-50.360901994322774 -81.03224116344633 -4.859127600927642
-50.33295327097355 -80.99773614518975 -4.855275172056444
-50.505608015981196 -81.35601992870039 -4.903727182544304
-50.51517602733008 -81.22662410738778 -4.88052306477775
-50.47360367036198 -81.15781183660573 -4.871989466540311
-50.44088445365742 -81.04383000823147 -4.854785780730691
-50.51424957126536 -81.16686004790662 -4.870251419303586
-50.52138577799088 -80.96919809025964 -4.835280506302883
-50.82020377871931 -79.39746657831381 -4.867481380807543
-50.92034070967277 -79.57322203289108 -4.886392885370629
-50.87883833784656 -79.50277917134412 -4.878921791333211
-50.863585674992784 -79.4614946348733 -4.873981643833689
-50.88852154581929 -79.32583554084889 -4.852975817242519
-50.84382996999784 -79.25718083131369 -4.84587112129554
-50.83672504849468 -79.11054107361105 -4.825222171191944
-12.01064516072423 -62.998794767786855 -4.798841837610682
-14.827105484832302 -63.451290521065786 -4.808123717295392
-14.749020830921275 -63.03989889313013 -4.778899554597914
-14.858627278358412 -63.29770462920774 -4.79669285828364
-14.970010822705248 -63.03494535026464 -4.7766218663339055
-14.810643860575198 -62.550494003484715 -4.742721291895744
-15.07265431313688 -62.93547496032584 -4.768489533170735
-14.86733268246914 -62.417283839187135 -4.732509327756289
