ply
format ascii 1.0
element vertex 834
property float x
property float y
property float z
end_header
57.62250115479887 -220.65112666796745 -3.759319768473026
57.79920643872707 -219.70526877766076 -3.7796256131898374
57.8869913365669 -219.6045459182093 -3.795939707259234
57.890345540745265 -219.51226483952914 -3.8028525842883503
57.861521455395994 -219.4158396386081 -3.8073595995307623
57.95542958933088 -219.29333084357845 -3.828325768547335
57.9544787974297 -219.21878702690464 -3.835455676896311
58.067658962495145 -218.76413722368488 -3.7996117656866124
58.063493522612816 -218.62015561169778 -3.8160234764404524
58.09966119878058 -218.5515533491184 -3.826030888642168
58.14877438816999 -218.3215698589368 -3.746901394164411
58.20325048227084 -218.0941706912163 -3.772861232886391
58.203073524186756 -218.04041241503324 -3.7790943862229818
55.29871255142161 -230.35471045403918 -3.8380161538402318
55.553855740100964 -229.50906394036716 -3.781278308763364
57.00725538211161 -222.95956763768547 -3.831242088594836
57.12448180830935 -222.37049019706572 -3.825736467671766
57.16893558855567 -222.328566177979 -3.817295868970536
57.21808304187817 -222.17814636765794 -3.791031851830087
57.2323234155479 -221.97666658770294 -3.839272245592336
57.19955517965774 -221.92908629662404 -3.8300268585477557
57.3665969494823 -221.39445013913047 -3.8186507896149897
57.71517334254654 -219.73999452238607 -3.767841125700085
57.77834467034 -219.43788704436358 -3.796578133441352
57.840507301321374 -219.10003812841182 -3.8372467491841484
57.893719125826514 -218.9497161176992 -3.7696537510643116
57.936016669789566 -218.8607367012631 -3.7816674971148507
57.944106603375246 -218.65368396456662 -3.806200400952224
57.97466608475241 -218.60179115292314 -3.8140263146356537
58.00191780448248 -218.5073223044389 -3.827125870245768
58.01513757754657 -218.36350266700816 -3.7406846798950064
58.04149917337696 -218.30050222698114 -3.7480267731220542
58.05197647523724 -218.23585882955305 -3.7554798715819957
58.07691173518757 -218.0957211948307 -3.7719666946578867
58.08411650866835 -218.011905210294 -3.7820477400675605
58.14862066825009 -217.90764405896476 -3.7947621454388014
58.15461970667597 -217.863779735636 -3.8001963337346285
56.79380593404453 -223.24330588524876 -3.7800869365515593
56.906982908858566 -223.06935379104053 -3.7480909409757945
56.961283337894585 -222.79872251367937 -3.8095179247605664
57.02032544992183 -222.36596491251808 -3.828199850658032
57.06456142312549 -222.3265566305367 -3.8198295124454886
57.75376662810403 -219.12608634036656 -3.8262207324375397
57.78035913048621 -219.08262356561488 -3.8338072497169122
57.8790762601043 -218.65670756596592 -3.8028499466865004
57.90006357473841 -218.5391884776903 -3.81877259535422
57.93006495177778 -218.47073424639848 -3.828959196940525
57.94964804835033 -218.36995895228472 -3.7733560976102227
57.97129817647247 -218.2861790669329 -3.7490750875450525
58.04208103454272 -218.11325115117805 -3.769695961830155
58.057720414661205 -217.99224804487824 -3.7844112701464327
58.044608045882505 -217.9130657489915 -3.7942444045618333
58.157170434226366 -217.5985432070254 -3.833877047916673
56.76327950164349 -223.28760614373488 -3.78856442778825
56.762918451406236 -223.14429000127726 -3.7704087387711227
57.73358513660787 -219.01707365895462 -3.837791407218751
57.788159302365294 -218.71462811714713 -3.7916092206858765
57.78746232603975 -218.52877900488156 -3.8158061756276864
57.8300239866626 -218.43585550493063 -3.830050190909346
57.85369650785021 -218.4146944109733 -3.8337874107262224
57.90216237197925 -218.27278330863928 -3.750216043754345
57.959768489276165 -217.97999831701074 -3.7860253750314468
56.67715513803702 -222.89781879199194 -3.7470947148067637
56.789597004276494 -222.34221639837864 -3.8332075864643675
57.71657595066729 -218.54770599657115 -3.810789485652564
57.793159597334885 -217.92964191205755 -3.793709213773667
57.83121292556825 -217.82732367420468 -3.80691043627146
56.6041956624878 -222.99708625938857 -3.76659763139363
57.73161774926375 -218.03933792206865 -3.7798285790194406
57.73668805415091 -217.93396175145102 -3.793811370570699
56.54947255677059 -222.8071747473508 -3.7475483794460205
57.565879521032805 -218.0858078548429 -3.7755378955249164
57.61922407595085 -217.97613232856162 -3.7897134170433797
57.647171615339 -217.8893732866597 -3.8012167041058937
56.340794134038624 -222.96601816742253 -3.789216023049912
56.446862430368114 -222.6902136158394 -3.831817497920458
56.44655422045927 -222.5765287356829 -3.8133190068497287
56.50106053321046 -222.2819653666911 -3.7613581359205943
57.34571017250607 -218.53732882455478 -3.802570357258203
57.472202992420186 -218.1456580929947 -3.7687941152905156
57.472410290421934 -218.04855772955366 -3.782246245900042
57.51229416756843 -217.93772088319665 -3.7970747956726627
57.492941442242525 -217.92099003385098 -3.7998665636965097
57.51289095005363 -217.79817098188587 -3.817078210680704
57.64456019018296 -217.42050039248818 -3.7466828869987547
57.67868545959199 -217.32597975303787 -3.756215399467862
56.28429381358426 -223.1177115830761 -3.8152019754107953
56.26948247366502 -222.9970485496059 -3.80096879713189
56.32187451326172 -222.9273338563056 -3.7861443152355534
56.28804603018575 -222.8207452841709 -3.775809305476528
56.381625185223264 -222.6436787672192 -3.830131377975246
56.40957697712989 -222.59570377832418 -3.819691477517597
56.37962352679817 -222.39369707039182 -3.7893969470699878
56.422130957887816 -222.31979266593865 -3.773802898729111
56.454562603087226 -222.27463786643074 -3.7743766506538914
56.51768470395056 -222.17038035523026 -3.815557168701133
56.53046812966077 -222.11365111511557 -3.803968330086936
57.31860208960404 -218.597690657922 -3.7927610686315534
57.42187800169117 -218.02427889467145 -3.786759558475303
57.40777401804649 -217.96717468105177 -3.7952771814237862
57.47752557065759 -217.54065017350578 -3.7408848234622547
57.49048656206116 -217.45603107187557 -3.7504646491449067
57.500021412088664 -217.37436453694204 -3.759922089727135
56.23360709788394 -222.91478793701086 -3.7940754572777697
56.27344109357674 -222.71809759388273 -3.7638921981303914
56.266213040954234 -222.6358580634446 -3.78275548125288
56.31064547242488 -222.5482190171745 -3.8210223828370458
56.37473529242528 -222.30599229094415 -3.7755868922975346
56.36027671918819 -222.23687632902036 -3.7900157952734568
56.39328218169807 -222.12216410084096 -3.779738943620871
56.40760770425161 -221.97803319695367 -3.7855326938406857
57.29776730356683 -218.03472773692457 -3.788356960923885
57.303369565691725 -217.934428556399 -3.80304614816245
57.32357207541935 -217.8580973608024 -3.813789383512195
57.32411719502246 -217.75488007080008 -3.8293137410448788
57.357169195795805 -217.58873976075913 -3.7417028072737084
57.44484000493829 -217.43677436661156 -3.7554204488870875
56.083521152524874 -222.90611232173205 -3.8099169342396877
56.14861788443376 -222.8043912267029 -3.788971549047746
56.160867399058006 -222.6955120409705 -3.7732054707498057
56.16531728336011 -222.60042669206751 -3.760178775040519
56.20888714689019 -222.54676259520713 -3.7483685418999255
56.219374850334766 -222.40616649223747 -3.806366248704969
56.223369432321526 -222.19415725567816 -3.7709488031319665
56.223985260901664 -222.1343860192991 -3.8297986416799805
57.248832886707696 -217.93755667765512 -3.804347051785458
57.239314056070924 -217.8066980965408 -3.8245744216050785
57.27325860152953 -217.71834553444828 -3.836865904001294
57.29036328244097 -217.5000826400689 -3.7566684927972673
57.35497725447544 -217.4645618945767 -3.757186729515742
57.31891273765362 -217.35573651307013 -3.7731977430854573
56.022480730622014 -222.85976913381833 -3.810959542388739
56.003580385239424 -222.77323459006033 -3.8016934563734064
56.0055129189131 -222.65137346326463 -3.7852053782091786
56.066324387003554 -222.54266927780117 -3.7636877776187263
56.067866785094836 -222.52323277252034 -3.760915031422112
56.09447397796754 -222.35715180803263 -3.810991883571734
56.139071891568854 -222.2505312108507 -3.7885854047772023
56.12383599086132 -222.19096713523888 -3.78018214902902
57.208607745524745 -217.7215797871974 -3.8389682651614407
57.21658736493058 -217.49964172849099 -3.7615026421128253
57.219408095958066 -217.40071970982837 -3.7740722905753805
57.249766420467836 -217.31493959375615 -3.7831859606284888
57.290704287877666 -217.03111074060865 -3.8173997310987406
57.35459470275312 -216.95769172133248 -3.8224320848976343
55.945655002644514 -222.84941696420108 -3.8188261375925148
55.953852346839035 -222.75317123259654 -3.804981024284717
55.986579338869184 -222.63340721365594 -3.785086466956205
55.9761177666594 -222.54465434079037 -3.774495746445384
56.01876987674072 -222.43272052652497 -3.831965426722602
56.03159593036303 -222.38575944275885 -3.8226636694963205
56.03774135766384 -222.29527715285755 -3.806732167881237
56.101475701743624 -222.17234105074118 -3.779348269249008
56.0778328343788 -222.10765477397527 -3.837822661437319
56.71508671231036 -219.02555318060595 -3.7747343467473256
56.82092178765024 -218.95169980409045 -3.7918816123876655
56.7488202764692 -218.8770074211621 -3.8051619467172006
57.07253313520499 -217.78354577913842 -3.8355514304266123
57.1170320721089 -217.49847965719545 -3.768490669496985
57.15925549377729 -217.2129218585209 -3.8030377749545505
57.18842615585737 -217.0765034075186 -3.8190026259732326
58.08468594959449 -212.9702028043793 -3.7628591388556294
55.815786314756046 -222.6288870924449 -3.80558035412794
55.94431052841477 -222.37207339756299 -3.830287333845198
55.938551813801254 -222.14917904939495 -3.793288885750604
55.937008398673655 -222.08679355366954 -3.78293804283397
56.724501246024985 -218.79670121537478 -3.821532852347352
56.709371719843155 -218.73934869537263 -3.7674481349763376
57.017094610497324 -217.5564395028737 -3.7680834323983814
56.980729254957744 -217.4195534100711 -3.78910249231497
57.02420183395275 -217.36122356453592 -3.7935284877176896
57.074686599267125 -217.27456707729445 -3.8012530027300766
57.117259547297536 -217.20618278366965 -3.8070984472580958
58.04562958960334 -212.73425172845012 -3.784507413131923
58.12747554872649 -212.65685645954406 -3.780709976724749
58.13305700610551 -212.54566824078975 -3.7882008519943278
55.778170090473544 -222.58331523821607 -3.8043445968519873
55.76917578674615 -222.48502344112757 -3.7923184337640365
55.77580034837219 -222.4563281711328 -3.7876406801593774
55.85304193566764 -222.30258250048 -3.7572174577168997
55.85028118190683 -222.25989451555157 -3.751868813805636
55.80739208317869 -222.1567765806139 -3.743465104092014
55.902021293592746 -222.02362382651827 -3.776347928561364
56.58602726890884 -218.9560254071198 -3.787268224353096
56.59411175225447 -218.93328800790877 -3.7921539209296546
56.921493285900105 -217.42234595836018 -3.793459974525957
57.902891647976475 -212.82770413974438 -3.79426320153409
55.5820920485122 -222.80857167507202 -3.770954125876049
55.63535297365597 -222.67871942182344 -3.7933557781080722
55.61474494868302 -222.55046681157006 -3.7411845343467784
55.69953222545654 -222.490640102538 -3.8022511883445516
55.71097059930902 -222.38706801472108 -3.786858515149502
55.73903088510093 -222.3325177813243 -3.775824614477766
55.71979453338489 -222.20132426463866 -3.829402192577206
55.84174037847891 -221.9876633710864 -3.777483644629318
56.69379221326466 -217.90703517006713 -3.8378671912267697
56.73656570968841 -217.5826417995836 -3.7870554026632437
56.788107620965484 -217.51775686444975 -3.7915386756842415
56.8428621915776 -217.46174109949428 -3.7945765241443796
57.660112255409 -213.74569907187112 -3.755384660338712
57.67788624583709 -213.42661087054128 -3.7766696048119126
57.817568041184956 -213.02994297654905 -3.789452255173726
54.793835885171944 -225.9567768768194 -3.783612062985597
55.556316911874184 -222.56567306011152 -3.823059749422999
55.561594780754696 -222.4902268392801 -3.782019707102472
55.62450606267668 -222.38384117100978 -3.798132429785819
56.30320240506107 -219.03614917152166 -3.7736947406202
56.71543336635943 -217.58358954999986 -3.788773208727216
56.697355309394354 -217.50011781183488 -3.8019765490509356
55.464358332507196 -222.7233834195688 -3.7788680837267417
55.47545749868525 -222.6966307690074 -3.7747079861047634
55.4969269879409 -222.554994432691 -3.7578281271633176
55.51164268266979 -222.37512481914305 -3.812875606562594
56.48427554315675 -218.01495353762417 -3.7496270185840497
56.505464243564944 -217.71391398368124 -3.7899631174678317
56.599035931973916 -217.55844115031363 -3.8029110191850464
57.3696867372607 -213.84338424056148 -3.782486942328009
56.200470255750865 -218.94735488186626 -3.799611327171985
56.43432097169753 -217.69584529749554 -3.799624337201838
56.45406184316035 -217.67813321115912 -3.800136165471473
57.16852272542573 -214.4688658962508 -3.760250853928686
57.38254654209079 -213.39431548726876 -3.8143108063835025
57.43678321524534 -213.27572245067748 -3.8166064470110843
56.26600957299647 -217.8616704332066 -3.7934967210121258
56.35429079751035 -217.67445199983845 -3.8109871566162825
56.3586308026848 -217.65576862532185 -3.8132288902634652
56.36069003288957 -217.4164249483642 -3.742817547193343
57.17124174148536 -213.89339624708765 -3.802822149760237
57.20419368843752 -213.84954689013142 -3.8020983602691056
54.53654424122209 -225.33035595654906 -3.8000399039677752
56.28439903364173 -217.67097366902647 -3.8190829398707047
56.25555817670127 -217.614267140539 -3.8305581998595217
56.357947369197746 -217.3812323608057 -3.746977627069734
56.33333001834056 -217.2957919482027 -3.759275488072224
56.30075002747038 -217.24461072224054 -3.768783653489384
57.158537911390844 -213.5149982973817 -3.832738086376413
57.27288923793623 -213.21434102678006 -3.8411610633728426
54.47024174238739 -225.3366911568129 -3.8089061940218656
56.28311425754664 -217.1910767903341 -3.776837412847104
53.22889988165122 -230.0068812893915 -3.7476833502850595
55.87806138645274 -218.37837679674 -3.833644852889942
56.78591702544735 -214.2664085857364 -3.822852092089015
56.844514264853096 -213.93190258361332 -3.8406932138173526
53.174915669823 -229.94176113594392 -3.7546434469239918
55.71943512150421 -218.5945275756196 -3.8159555336234177
55.74710492816139 -218.47967931785072 -3.7674987309493564
55.795634111290035 -218.4182325975199 -3.8119116928722763
56.05884224693797 -217.0043704817892 -3.8259903842393768
56.07091404347756 -216.94354100987974 -3.8312217051627004
53.09353285057328 -229.92122144374767 -3.764690885571444
54.382497741766606 -224.296191201871 -3.7916957906636184
54.404063213525674 -224.14328555934088 -3.7846597465180807
55.60973456447661 -218.56813008827055 -3.8220366846721077
55.662545527415986 -218.5194507777176 -3.8385250699994646
56.480994817180004 -214.65750428205544 -3.8324160116059898
52.97408893018591 -230.08513283400472 -3.778189216788776
52.9550430703001 -229.95914048346242 -3.7813240149564002
52.8163144284489 -230.0622200377012 -3.7974347786759486
52.90615938097754 -229.94286372997394 -3.787318845516239
52.70444959768745 -230.19336538782852 -3.8101617447920466
52.789076615759065 -230.0331161144444 -3.8009811645884084
55.793145907838216 -216.3655353751188 -3.7947074302108215
52.66372211211095 -230.203785460647 -3.815094167470984
52.632201727952975 -230.06704801743567 -3.819655567562401
52.6397757390775 -230.04327294606827 -3.8189589110946307
52.52138555237143 -230.01009324913076 -3.8333892686421973
52.59879785815322 -229.9418829410172 -3.8245079133341515
55.74034458641269 -215.97879131215623 -3.8320858438791654
56.95287199104043 -210.3680755425099 -3.744932102296603
52.46927969149019 -230.0021784782309 -3.8396649743947435
56.84807820037984 -210.52099792402169 -3.7528406310052502
56.89835555826164 -210.3878318982242 -3.7515363497967544
56.798034730154896 -210.34271032118474 -3.7670488069912667
56.81917454166891 -210.14798582783925 -3.7722616650607423
56.69823525501814 -210.32487023609858 -3.781480486877518
56.636614483585284 -210.24306907636233 -3.793344266222448
56.75874809473742 -210.05949449140803 -3.784156443385397
56.63424659359435 -209.87171458465122 -3.809060107750574
55.943835024147205 -212.73244435847633 -3.7861958164977376
55.94638772689103 -212.64059318924024 -3.7896530065358607
56.00533560351651 -212.46616421797756 -3.7886310076650584
56.42402979788817 -210.31320843678733 -3.819816711675823
56.59997086257792 -209.8589202826039 -3.8143512233971704
56.5686934118888 -209.80233866589276 -3.8209927964446635
56.84157636650175 -208.4247890151131 -3.8405906477235874
55.895163440337555 -212.5636131675311 -3.8001325494822704
56.491724431902846 -209.85893530770556 -3.8292941610800266
55.655429208146934 -212.46371653011713 -3.8384899301272055
54.26373015617139 -206.70448249812674 -3.8001972847074423
54.34192084622051 -206.53920613052895 -3.78988848408704
54.59307199666534 -205.4439625535969 -3.7604868242501808
53.916171955938346 -208.17017249622273 -3.8416492835571545
54.42396946898124 -205.83588723892507 -3.7824575871824835
48.70263671244025 -230.95330882950978 -3.8278022014203925
54.1515862154841 -206.5563684274952 -3.8174438355869613
54.16753643232248 -206.26864810758744 -3.816932988311712
54.36002620342442 -205.70538253906017 -3.7925784084236107
54.02331572807962 -206.65081673000878 -3.8355143312047324
54.507419016917154 -203.57326988338963 -3.784892962168273
54.38071927489498 -203.44290681410638 -3.8040506810262444
45.814401353609284 -240.07420888630284 -3.79742593680827
45.838261886177776 -239.36122056825587 -3.8205076104641464
45.77418845270027 -239.23742718655276 -3.831428457119894
45.68996964940247 -239.1612032439226 -3.842641119067431
54.695958287479215 -199.15736004737334 -3.786115263609469
54.934947255707826 -197.72162309273924 -3.761031691694332
54.80556014899725 -196.40174119399273 -3.788191401614968
54.515946022267165 -197.16428518911766 -3.8249279068290463
54.72167890516319 -196.35322633307453 -3.8005225786973944
54.435710521497654 -197.1687906549003 -3.836427487863581
48.611725452392555 -215.7609736736728 -3.747568571123081
48.49557417019973 -215.86141220454957 -3.7618618319091475
44.724040305053194 -212.664275032661 -3.8451697565707934
41.19902299322801 -223.10107275443647 -3.8387314971263606
41.04400937486294 -223.0782166057217 -3.843153469999171
41.81811935003587 -209.2379134398378 -3.8445520212722064
41.827908515349826 -209.17087877202343 -3.839438403858369
41.78055198592127 -209.28890547168155 -3.8510776348092803
41.821185745009004 -209.08951776486495 -3.8342839712944174
39.467012980212175 -205.94512761924224 -3.804624742673981
39.53879406366566 -205.85632350212077 -3.792376306880482
39.585963975678226 -205.74784184643627 -3.780678374478331
39.55946861061476 -205.62486777011168 -3.7742556690819655
39.39374447928763 -205.98325661103274 -3.813039670601245
39.30045005043485 -206.00223539626867 -3.8221394248750626
39.1754894318504 -205.9939772906172 -3.831423368665081
32.505958300379476 -232.5699617245782 -3.7985233567983703
32.58991455587169 -232.32505079720977 -3.807048547092077
32.28844187832807 -232.99860364057244 -3.786121951121043
32.51008581543445 -232.26204127309487 -3.8132171801088655
32.33008650843215 -232.56200214176596 -3.805808699331206
29.039543846607298 -246.11631494066472 -3.8496827430285925
32.197306468593524 -232.11903303444126 -3.8315135367517956
32.226368822914054 -232.0026540705211 -3.8359066478557087
31.985802716541624 -232.42743365673465 -3.825150641442141
32.00568565677409 -232.31640625279852 -3.8297144662082396
32.15763167306862 -231.93606705675683 -3.84133099952753
32.18496809437808 -231.82381954397815 -3.845516671075728
32.19272383491011 -231.72106341865071 -3.8496726663386283
28.654462498263154 -246.8588291193291 -3.8365768626955123
28.572163636180925 -246.7518047956582 -3.846258331639189
25.577836475793514 -252.19964634543513 -3.7567899406710517
25.42299242115409 -251.92257502793984 -3.7806674153786797
25.157389041849168 -252.42106989307368 -3.7723283747861607
25.25939771167798 -251.8790094441063 -3.7936158023474005
25.18009500519763 -251.74662130941118 -3.804654490398784
24.97065510273967 -251.74352575608535 -3.818310608368468
24.69965606963165 -251.80264369616984 -3.8314271763077494
24.624345347906267 -251.66631800526122 -3.843428697107276
24.51000595782769 -251.56953801810494 -3.8546254705138976
29.821433506506366 -211.45855702844037 -3.8303243867064722
29.791090783145226 -211.54835939670593 -3.8356197264686753
21.95551316702374 -241.08189803075553 -3.78290246967344
21.58811719888692 -241.1445520479042 -3.794922703705952
21.423796072262206 -241.07819552569373 -3.805745422122981
21.225355348826888 -240.87598751678377 -3.825134818658253
34.59033079088556 -181.36093715448445 -3.7781169228078784
21.242539708425078 -240.38103466464923 -3.8507779485327513
21.277193109020686 -240.2094410037928 -3.858607015131913
20.49258621423901 -241.15003343168993 -3.840727014333254
19.842999795821925 -241.86488970941534 -3.8291705572451815
20.018777253829704 -241.2597316526739 -3.854714534163877
26.9839394030935 -191.39928340692884 -3.7800662122959796
21.19088869920499 -205.52564649326777 -3.7730906191938773
20.963165985299838 -205.70495377839063 -3.7915371256194925
59.447439444956785 -231.12735816953722 -3.7254232107202183
59.39325022818319 -230.40025226053393 -3.6878132298906285
60.282612371925296 -226.53126809383122 -3.638697472247219
59.284040500070475 -230.77106267141696 -3.722826234629659
59.29864084165451 -230.58009273852298 -3.7096040545508555
59.311118786242226 -230.28103547636374 -3.690254604179804
60.1961638716556 -226.59172520278005 -3.650873914829216
60.24217361517628 -226.52110960728044 -3.6411308473373367
59.185681914908265 -230.59950494206913 -3.724035337359576
59.26506656870314 -230.37158124754558 -3.7010432720221167
60.0741177954711 -226.62475136191745 -3.6639941840312473
60.11557226872698 -226.59130250300848 -3.65766915593828
60.128254951788236 -226.4084871567143 -3.6414597767320944
59.90176881058244 -226.48873542386863 -3.667345732853587
59.8172919537201 -226.5487125792822 -3.679637411146397
59.817463947418844 -226.51745820993224 -3.677044938506217
59.681758710541715 -226.62084091898564 -3.6976666153765203
59.6807949658649 -226.52461834264875 -3.6895853605847178
59.70184262326057 -226.46384925237507 -3.682489741672454
60.280998053138575 -223.89517967802706 -3.643694587569362
59.5729478300074 -226.54236293690226 -3.7005653397392604
60.197094431072344 -224.0202646790145 -3.6583397803449227
60.19463498683159 -223.86557703760582 -3.644526508909666
59.984180454207944 -223.97117772619643 -3.662707909612147
59.86969510388201 -224.0754933353478 -3.677493347834399
59.85424530572731 -223.98541731588531 -3.669751692475523
59.93521585108282 -223.82849021981707 -3.651678741552095
59.300213676433884 -226.14667858918565 -3.690837429641464
59.72958753208805 -223.84894275422926 -3.662355165290139
59.800422423446975 -223.74015933419273 -3.649319171663403
60.192429757003694 -222.21243577270025 -3.688405972015261
58.62234494889709 -228.45882029073678 -3.6603056391221607
59.66600651956906 -224.12202888386528 -3.691431301083148
60.18908038806696 -221.45342519755127 -3.63887462850066
58.620346022238316 -228.19600100537795 -3.644822931371134
59.550766863466485 -223.85789865858294 -3.671279627543203
59.969891350393354 -222.18702277020455 -3.684658175710641
60.04147291723188 -221.64049209506297 -3.647377293262658
60.09511692630342 -221.50201405710396 -3.640098037676809
58.981740840265644 -225.9286080377052 -3.7004830658391756
59.375393479561254 -224.09179430089225 -3.7026258473503235
59.41724777143235 -224.03083301866346 -3.6944170445534033
59.48115151367442 -223.99355752055016 -3.687680500489657
59.45598260011162 -223.86772278521946 -3.676607321540161
59.55133121674245 -223.55163155539339 -3.6424495932960017
59.830066433199164 -222.2460046091283 -3.68847682878178
59.86579699747281 -222.22669058923304 -3.687142362871918
59.82982663942414 -222.10856468147023 -3.6775507748061056
59.8416994163684 -221.99536319234628 -3.668999245047175
58.34930845929887 -228.58594917044357 -3.6998548848219133
58.290059349223135 -228.54785921674068 -3.704551351354215
59.28747585446002 -224.18468499351877 -3.71653895174463
59.31371319293675 -224.1592358546783 -3.7126364272257537
59.381146986472224 -223.84580659158547 -3.677936349542076
59.38074441503217 -223.72359331226647 -3.666128476859986
59.74270583302001 -222.32350634241692 -3.6943889625965998
59.80954750705361 -222.06544646887775 -3.6740686822566624
58.20506363248553 -228.52563200479693 -3.7132298709973974
58.783520650871566 -226.0312008764975 -3.72774988482111
58.850053720645754 -225.80919660796755 -3.7020866926009672
59.23613775123236 -224.1959594501439 -3.7204686126702056
59.23216491339606 -224.15118533613136 -3.7160975887318495
59.474589492039 -222.74066372678212 -3.7327632892130542
59.57743594456667 -222.30799611897413 -3.6924128536303447
59.62559077886323 -222.06553897413286 -3.6725856226021016
59.6699528146067 -221.90858744944873 -3.661054187820473
59.72657666056893 -221.8914935550195 -3.660324773161953
58.12043763613902 -228.50059536449106 -3.721695043069559
58.67638997181665 -225.87753372691483 -3.7242099314536317
58.71811008739127 -225.6413886071713 -3.6994244997488717
59.07167941433888 -224.2119718074659 -3.7310959720926182
59.163662875346986 -223.82404663886533 -3.686403272464895
59.261962400855424 -223.56676269047074 -3.656544139667766
59.4981300333757 -222.55756495451558 -3.7150062434436175
59.61074308594097 -221.86869183103406 -3.6574863890428935
58.02736046084206 -228.43772337037683 -3.728863455951447
58.01574609324853 -228.39533010306621 -3.727731577921411
58.64299350353567 -225.63478261498094 -3.7058417168942137
58.697033857315134 -225.47887764406565 -3.6871917344195557
58.99383843309937 -224.09454738381774 -3.7231393931719072
59.39429535452286 -222.2606362320628 -3.6877981108219435
57.96734718216216 -228.44193591235427 -3.736339684969907
58.86068817408634 -224.09646122229634 -3.7308625671627915
58.8757831238541 -224.06072231139447 -3.726198020677871
59.042845997362 -223.42919136037932 -3.6534641180161667
59.15708926988744 -222.7778313014497 -3.738537776349553
59.184756807969336 -222.6207281038033 -3.722101299716423
59.25948986299862 -222.48970601131 -3.7088951621529356
59.263174287036215 -222.35087931541773 -3.6957735770174014
59.31360030839046 -222.23343207567444 -3.6851241945741777
59.29585712416775 -222.13714858581284 -3.676702184608046
59.37533263967945 -222.07537617414891 -3.671814344665469
59.41501958769188 -221.91014982590596 -3.6588585983377393
59.459457532932724 -221.71898210123769 -3.6452006819708886
59.783673819407525 -220.15492717109058 -3.730836033733657
59.83112942033665 -219.86306786218677 -3.7331869582066464
58.53179071116823 -225.47449316994167 -3.7019277545815994
58.52564798882623 -225.35949867366796 -3.6923918656316954
58.80006394215678 -224.12995348939427 -3.7379754587376928
59.12706093680566 -222.70345172254204 -3.731034927858372
59.21980922856131 -222.34187787351104 -3.6948744848875457
59.32122834797753 -221.80226497466435 -3.649904811028423
59.69670594674518 -219.972883507198 -3.7253739331416154
59.713062432633926 -219.84767765512143 -3.726711379206788
60.47131617648373 -216.80361510606687 -3.7357152427442464
58.393255184075656 -225.51761011511692 -3.718802252363499
59.05584366239838 -222.56740297255993 -3.7174489406907223
59.09342430636695 -222.46771472119445 -3.7072410861411202
59.10594229677637 -222.328322340973 -3.6937346790143812
59.11325756064192 -222.17866001291267 -3.6798764650629034
59.408380838775045 -220.9521695326388 -3.7321818614192512
59.4907132935727 -220.4172490332634 -3.718076261890851
59.594393143612 -220.14139135703704 -3.720140387194092
59.59798933625986 -220.11456526261583 -3.720125759052481
59.58990471358114 -219.94128763373996 -3.719422642079031
59.67182875204349 -219.83854469319618 -3.7245845287303396
60.370025399791444 -216.82811711762403 -3.7347367028101104
58.31399335885275 -225.3202343414608 -3.708613581875713
58.683622947983395 -223.64160680985484 -3.6927799530778556
58.97224773845179 -222.61093834359934 -3.722479770674696
58.98835048113869 -222.44027569472004 -3.7049730587978327
58.98937983459938 -222.16201237611693 -3.6782664721344753
59.29919242094513 -220.97091035563017 -3.727354317863724
59.54536888487407 -219.83975498941567 -3.717538976022316
59.5683166039679 -219.79025026114255 -3.7193304108789107
59.56540185996349 -219.70356748632443 -3.7202093484452954
58.66869370693757 -223.3379286158395 -3.6624329336596153
58.78132566414765 -222.70415966458535 -3.734423938702855
58.84366204215077 -222.37635558997547 -3.6992449533882668
58.95280708482113 -222.08266033369358 -3.6710259178226523
59.09430519205323 -221.26856814557146 -3.7346232065733243
59.116215744249004 -221.2247261515054 -3.7327597872711267
59.31454695303464 -220.36183725815445 -3.707090027112658
59.38269531653127 -220.09923908910673 -3.708023292398527
59.434963948537884 -219.98108004326022 -3.7107167831516423
59.44315019918474 -219.82590583513436 -3.712051081446271
59.48955545825874 -219.73259381995587 -3.7157451528452667
59.5001833054604 -219.68696931973835 -3.7169425327250654
58.69964389738847 -222.7067446907373 -3.73576619999699
58.68779718130827 -222.59713153583505 -3.7237418360416985
58.8029169404945 -222.04146813608475 -3.6670365144933226
58.920650410324626 -221.87449829578424 -3.6527977805587777
58.86830997847049 -221.80211522544116 -3.646490631217997
59.075241845347065 -221.24481766973625 -3.7321154621619623
59.16673146824318 -220.46559656407405 -3.701077119281946
59.23491948343892 -220.34763376754904 -3.70242960382051
59.31550533714599 -220.01596850231127 -3.7040291942560923
59.72881430270004 -218.1948880560632 -3.6402869596429426
60.36777888699831 -215.11947550873552 -3.650829663039556
56.80407375857456 -230.48864114605422 -3.6450884089464446
57.996163888592754 -225.19245010600054 -3.727592992253463
58.65409574710814 -222.6866653591357 -3.734185593790648
58.73712483209024 -222.24584154878536 -3.686646483765234
58.685929094619 -222.1838024747973 -3.680739264952552
58.94718868819989 -221.34131664323354 -3.7327676037939854
58.939222975395424 -221.31431849479927 -3.7304063090594317
59.12839477245121 -220.3286265693455 -3.6960773789166406
59.2185976680674 -220.09609600174193 -3.6987467582494262
59.235818478787294 -220.00985255265923 -3.6996783279037864
59.27716011850241 -219.68451435887295 -3.705065679446679
59.290559753429264 -219.62575018900907 -3.7068911914829683
59.281776457693525 -219.48154459016692 -3.7100153814209187
59.63354300297387 -218.03423527905832 -3.650027686805779
59.90247573675187 -217.08800572493303 -3.718566002982758
60.31012733837959 -215.21815997055236 -3.646182129960705
56.720211020243305 -230.5332896448379 -3.657187834360898
56.76462686695208 -230.45252592340395 -3.649150739473917
58.34442027422465 -223.27994693245344 -3.6734981664397472
58.542926121604296 -222.69464026212188 -3.7367464110533692
58.56383044312879 -222.36436769158814 -3.699918338453995
58.77224187588613 -221.47309261435953 -3.735334060459776
58.79696106969319 -221.36845231761683 -3.7279768708796803
58.798014430337076 -221.25793538016148 -3.7197175597915564
58.90201366263458 -220.76075178373895 -3.6963244299446645
59.015194362684234 -220.2573886880047 -3.6886644405583886
59.080680480684514 -219.96449500699535 -3.6910922464355447
59.14866837524371 -219.77942880538498 -3.696601214842469
59.21481967233474 -219.68728184678346 -3.701631599758013
59.19556031922184 -219.58434023254685 -3.702794172077638
59.23587650984045 -219.47336558646543 -3.7078473115569723
59.25390704317819 -219.44963971877715 -3.709442707545748
59.5001665430748 -218.1962687504986 -3.639689094849634
59.485183769079974 -218.1371531735571 -3.64340874922344
59.57043981727423 -218.05298629821914 -3.6488839125909753
56.64456277652621 -230.48011736510944 -3.6655628062827734
57.908651246412745 -224.76083047916393 -3.697079577303257
58.27183432549935 -223.4165496604002 -3.6920750137550904
58.28408619020137 -223.23176088382857 -3.671826523602663
58.254493364942306 -223.2177193700868 -3.671930836256034
58.31894760867454 -223.05262704281958 -3.651429817283392
58.31740793138104 -223.02252086067332 -3.6484853165793902
58.50431119017605 -222.01519365398946 -3.6648283929499574
58.73711164651935 -221.29613464829256 -3.7196944366086906
58.83849218324161 -220.8610585740983 -3.6975452241302738
58.8423514949262 -220.74094413071225 -3.6922022222291755
58.824096622984655 -220.59764535090508 -3.6858123533070177
58.90569458189766 -220.58404777508323 -3.689875605094152
58.970889686121474 -220.26079647541653 -3.6862092295444326
59.07725852873259 -219.6239611026254 -3.6956739891212016
59.13765431995398 -219.59991059001595 -3.6993475326481478
59.41093340292359 -218.19653279986412 -3.6394685248905607
59.49022064125705 -218.04675113408646 -3.6492369407744762
59.46006698378878 -217.88816103863667 -3.6602328555890784
59.62792997110527 -217.12430830645877 -3.7189969683767163
60.11039736494783 -215.19696167680465 -3.65910706735563
56.54496648808121 -230.55176006570937 -3.680497583756564
56.59270554981381 -230.49269824311787 -3.6726892939383817
58.28040120525643 -222.64384436304556 -3.735407593694686
58.35540639994409 -222.5756884530329 -3.726027947943602
58.59494252446353 -221.36455183832305 -3.718641435654617
58.64106383257778 -221.3269590075667 -3.717670163560533
58.66936995721376 -220.87330180477662 -3.6892380112863057
58.70602314695307 -220.72168835662282 -3.683987438793456
58.7416951811649 -220.57926910763248 -3.680580266975834
58.83917953434648 -220.10695902043503 -3.677604980115363
58.85115331868872 -220.07364725279152 -3.6781413941513095
58.93315067433642 -219.86765863536783 -3.6836950415541128
58.976869700319426 -219.46835182709148 -3.6947625303424427
59.148201525926886 -218.7804366004459 -3.7362383148798513
59.36452921867885 -217.97622780612423 -3.6543589071313445
59.40310605765802 -217.9068682105419 -3.6591960394491148
59.5555143733071 -217.24784299319356 -3.7095589435930876
59.5175277597606 -217.0361684167473 -3.728423388863958
59.96124470284172 -215.196705746813 -3.6676222787350232
56.4519274077951 -230.5136210872005 -3.691594629968065
56.4507953278487 -230.4925989193391 -3.6910992504372233
57.841097122705825 -224.3722417957148 -3.6687800787103027
57.830133402549976 -224.3171401339043 -3.6648538017166623
58.19846917226062 -222.55313502148485 -3.7262414960323413
58.49914281731723 -221.45570343027097 -3.722334323154944
58.5097224876644 -221.1570961351156 -3.6987478369076974
58.637910997891815 -220.88272162515656 -3.6880576637483133
58.58704078893641 -220.7728072872314 -3.679913650172553
58.68928254703398 -220.66805780158754 -3.6809513421592537
58.668403662684355 -220.6079307603465 -3.67754695689733
58.73827345849526 -220.29884987414053 -3.6736826570746612
58.8556488355041 -219.77924219463162 -3.6807609643082824
58.9378679349347 -219.38407576638582 -3.695790688361863
58.90573952511776 -219.32789752684718 -3.696504686064053
58.96119172571665 -219.25055088898802 -3.7024564455450504
58.95140980508232 -219.17382082037852 -3.705603743311157
58.98717097268273 -219.0221952295301 -3.7150269789107573
59.2372343468737 -217.91000469173918 -3.6597671608003055
59.26843281544612 -217.8529695716838 -3.663801746659052
59.28015042464728 -217.71724549891684 -3.674135118611237
59.372776494211664 -217.43229149907077 -3.6963834867538767
56.26806464986696 -230.67905259483234 -3.720093000816675
56.347732350541484 -230.53306174158246 -3.7056906003956938
57.65722481754696 -224.71897064450388 -3.7178271985064972
57.92364790577254 -223.26390195087112 -3.696350514714925
57.931628218291024 -223.23230491883558 -3.6924048382649843
58.180772559104305 -222.5075002396128 -3.7211541743508216
58.160353084478515 -222.44375415672224 -3.713971651508276
58.38635023751901 -221.3501205747386 -3.708424954289817
58.44781197258055 -221.12769755323913 -3.6937607690681764
58.562607060481945 -220.75121345085222 -3.6775690278419066
58.58289564807735 -220.69424612044747 -3.6762162107186
58.61652370325297 -220.52259278110637 -3.6718769389086914
58.84671885843157 -219.40190942938852 -3.690681545228516
58.89186425041743 -219.21868958318882 -3.700640551513254
58.886907924678255 -219.09839464829244 -3.7065696424542964
59.170917938002816 -217.77779428634815 -3.670408532337855
59.67407358740926 -215.73680303198847 -3.64074780565022
59.64888676873459 -215.6052726376545 -3.652851844399937
59.75483435950216 -215.51141079299506 -3.6541771845468065
56.184085065763426 -230.79906840902385 -3.7343499452531344
57.60611611742328 -224.50475510883876 -3.7032927872627326
57.56783114324508 -224.36538844168467 -3.694390959029016
57.89012241311016 -223.0462680830161 -3.674573352891314
57.999640497006276 -222.47583931412404 -3.7209909946343576
58.34893765481623 -221.16722353406814 -3.6919675196777013
58.38323833545931 -220.90223275229567 -3.675931046888615
58.45927969514581 -220.61985632171346 -3.666479319595802
58.49601768088127 -220.60411527512835 -3.6679513640928687
58.49688307728671 -220.45283320057777 -3.663279319477698
58.5080793847296 -220.40355179304933 -3.6626517302077373
58.76633479680228 -219.35297472766578 -3.688764703916394
58.75667181756626 -219.2645579958611 -3.692268765356614
58.74795625313411 -219.16248252207367 -3.6969266734364634
58.76353310007743 -219.0972012120652 -3.7012315677831102
58.85221012320818 -219.04994362163256 -3.707646239788046
58.853552861408005 -218.87232435234063 -3.7185615128002834
58.90524215375107 -218.78215371857007 -3.726646427995101
59.08903323976528 -217.94153662021145 -3.65833897111156
59.56296529067294 -215.50928968098086 -3.665800924882728
57.78716348690078 -223.31124836765062 -3.7104669282990717
57.952437572867325 -222.27501147373303 -3.697924145503896
58.15982065436895 -221.45520776045916 -3.708954063409679
58.409854380086266 -220.56631559424798 -3.66181127454825
58.397819931536155 -220.46677873685522 -3.6581013021015787
58.67053904939863 -219.41549253833054 -3.6814953519567526
58.6650288554108 -219.261966132953 -3.688109526123288
58.66144224769626 -219.1490475420436 -3.693952611285281
58.767949027048076 -218.8669598999461 -3.71565033855171
58.77564503494047 -218.67345514714015 -3.7298433535194864
58.92546570966149 -218.1375143857834 -3.644535713595516
59.045444417647154 -217.36129970481488 -3.7074833252015065
59.0749017667869 -217.3554496406843 -3.707563744824458
59.560181378440404 -215.44581321428905 -3.6712286148107744
59.571998213473925 -215.39659257781526 -3.674504932037009
57.668335261643165 -223.13839310862414 -3.6987224739428948
57.70712089553807 -223.06052549828684 -3.687441991079483
57.775352337025026 -222.52084613143637 -3.732336288270123
57.879444830373465 -222.41876332758892 -3.7167250591447223
57.83794426853613 -222.25216652300875 -3.6974043552358995
58.16610414125161 -221.0186248815127 -3.6725748478481703
58.25538745207706 -220.51404215905026 -3.710488447633324
58.30382813554491 -220.40908046972262 -3.6513743361990394
58.34977606983479 -220.361784142678 -3.652874865055731
58.47962215252281 -219.4566217096014 -3.6706137732340527
58.5615107903514 -219.37391969967365 -3.678104892695444
58.55876437618002 -219.2478655012886 -3.6840412969063556
58.57543489310204 -218.98633024767986 -3.700239555908393
58.66411213849787 -218.8474459148633 -3.713094097173403
58.708186899871656 -218.7357985351324 -3.722737990682251
58.68975281828794 -218.6926568625372 -3.7254021725161026
58.72521193333298 -218.58001317591822 -3.7355626001934
59.019619331002104 -217.16511684252407 -3.7263204672124504
59.030805331991786 -217.12193238841036 -3.7301492860255245
59.43823047520043 -215.46500404636427 -3.6771490533286766
57.594111447047965 -223.1912424886485 -3.70976176006358
57.584400642119846 -223.10913249340703 -3.7010062476979306
57.64424530144501 -223.02180854626613 -3.68716830211527
57.77673814918995 -222.2355624333388 -3.6966279879456123
58.094963910031474 -220.87555616851625 -3.6597091676404516
58.184818963191056 -220.52392429326855 -3.7348901866119686
58.15496779837836 -220.37952320325562 -3.727883854012256
58.19850538879285 -220.24584506115266 -3.7295763484738416
58.43385735339665 -219.3946292960298 -3.671167258693889
58.48524011056059 -219.29272339989595 -3.6784723491818743
58.47356332378126 -219.1783947816894 -3.6841240955367174
58.502962096230625 -219.1553603885503 -3.6867710358074657
58.57167600511135 -218.81938838477927 -3.7118141554911404
58.57736240749966 -218.53835677373186 -3.7346829183899715
58.695074575494246 -218.04546954075144 -3.6535090758845636
58.72238899708075 -217.95970991522677 -3.660246112662304
58.90258814317669 -217.07489427559528 -3.7378702962941532
59.375042769024674 -215.04335279369653 -3.717601190775295
57.46717358136051 -223.20144787577183 -3.7198696276798073
57.4917751927543 -223.12432053837904 -3.709152618159868
57.46266671118715 -223.03663570280037 -3.7010373504412586
57.684734730288206 -222.37929990910828 -3.7168061013366014
58.024198985027084 -220.84640900384753 -3.7377772238947724
57.97821373948322 -220.78178638972145 -3.72956514967986
58.1355365921295 -220.1974267544531 -3.7234145092824193
58.237501960080756 -219.94235921512868 -3.733984779386003
58.259465055988514 -219.7510063189276 -3.6496598568668297
58.21826547114352 -219.67694999597438 -3.667512364303584
58.25750888340478 -219.6135568167878 -3.6536713158829808
58.37796650148287 -219.13136161554957 -3.682998132240034
58.40598047236035 -218.9513954711831 -3.696260894499683
58.49450381906337 -218.58262017827136 -3.7285475367609795
59.08175551461281 -216.16908813351327 -3.6403030149047555
57.443784835075824 -223.02725123573313 -3.7012259009537254
57.85812672550683 -220.79385470069997 -3.642801886154298
57.893326393850494 -220.76502417481905 -3.6826167549083797
58.022671565683545 -220.34368853604465 -3.7150251091746185
58.07057233726092 -220.18384128757518 -3.7173832815251067
58.15403074302931 -219.82643891697344 -3.729239490232581
58.18739145903673 -219.75751551872298 -3.6456759924574293
58.19471609682838 -219.65087892726595 -3.6716644029970684
58.16530166701227 -219.6032708970569 -3.693922573135158
58.35831976886797 -218.9411792051612 -3.695238707353374
58.337036357915416 -218.7776841524577 -3.707384121157444
58.56091367739245 -217.82378986343588 -3.674379045983103
57.637524900483484 -221.50836906554596 -3.697849791822892
57.848638112894676 -220.8032655974831 -3.642899484701037
57.981291772662544 -219.7871067971162 -3.715423592397918
58.07691323917507 -219.71474459552726 -3.726303486631205
58.176090107463196 -219.10803871256707 -3.676727338652095
58.21249099450271 -219.03745557081 -3.683007979085751
58.19399003172427 -218.9381405395657 -3.6898704902174106
58.31153173112514 -218.70777678485277 -3.712490993717165
58.32256608514034 -218.47961591969474 -3.7337337225708187
58.40948404652718 -218.1438956179218 -3.6487307939126254
58.54741926553694 -217.3537598059682 -3.7195758901611455
58.56938884834966 -217.18597964813623 -3.7361227095310894
57.36854955055582 -222.2158519250376 -3.7051930212774877
57.92761810531425 -219.77569676393682 -3.7112715034844608
57.97785664973995 -219.77183848764778 -3.715670551509483
58.17727954632478 -218.81334567831618 -3.699584026111102
58.14159626942068 -218.76708184320265 -3.7026235404258916
58.220328882456705 -218.53194536985703 -3.726471909979523
58.210700195968066 -218.45329504476288 -3.7340903334910514
58.443423428578186 -217.34403155323403 -3.723565960993044
58.50179590614955 -217.3218567519621 -3.724182937804992
57.832635282062185 -219.67253341382724 -3.7077383038671634
58.14780810756579 -218.4432089535329 -3.7340157635143556
58.111913902416475 -218.28539036849025 -3.6408928937219174
58.22943283811054 -218.20157086780355 -3.646340822743511
58.208096532688465 -218.0702639785604 -3.658457772250553
58.24646579200236 -217.77434794999078 -3.6857095438772842
58.35095653194727 -217.35482930646504 -3.725352011918587
58.43103438880123 -217.23374997163933 -3.7354315438537413
57.050350404843854 -222.9849407935422 -3.7257218112876656
57.80015480866305 -219.4788124474831 -3.716605550245972
57.786680727671026 -219.42391082895352 -3.640783261767247
58.02439689446097 -218.4929581435553 -3.7268416143789973
58.04396086903922 -218.39663800413405 -3.7374532753452616
58.13737735690828 -217.98698337447604 -3.66777720676072
58.256491188749806 -217.3914980798305 -3.724542673044004
58.26285057097724 -217.28164146825657 -3.7361374208699583
58.409511026860194 -216.65003287041262 -3.641557702100693
56.90962983599004 -222.97286285679493 -3.735887658020557
58.01517750695552 -218.19959935579612 -3.650369678976913
58.12758099496957 -217.36161646869334 -3.732387023496127
58.17198170901409 -217.33858786609366 -3.7332204972668084
57.491659869555114 -220.0095413250684 -3.729603464903452
58.23081888003514 -216.7163491207541 -3.6474681174816026
58.960112587690546 -213.34226623061681 -3.641427399281747
57.92852719794936 -217.4487108555551 -3.730503169289414
58.05304188761293 -216.7938019312061 -3.6528190630809783
56.610415133668305 -222.9207699926385 -3.6580618065589374
57.258972727060275 -219.9713553456257 -3.7022872465357297
57.31582332540386 -219.66027509485554 -3.727930226082127
57.359175165659934 -219.62809731035478 -3.7353157874916096
57.74740521877196 -217.9098252748841 -3.6867057102711454
57.83807268349709 -217.48785982269044 -3.7298836503074884
55.66771147063748 -226.60973925030402 -3.6864129702282
57.62281810837676 -217.94446937587693 -3.6875591217562627
57.71189522855817 -217.62659732586914 -3.719500917361096
57.717750111332016 -217.55062588534358 -3.727916256114777
55.502365937655405 -227.03397261372635 -3.7198294592308443
55.52943747783297 -226.9088265405255 -3.712794792749706
56.540101581532404 -222.0760888408032 -3.726051918131901
57.50520237824543 -218.01189384313105 -3.684643224895939
57.55817808923478 -217.87662877076957 -3.6976580204016027
57.52201647118419 -217.76654589849784 -3.7119279221695956
57.54386128446833 -217.67965198720233 -3.720980170595517
57.58537118974395 -217.59083958118447 -3.729439068956617
57.66568988722466 -217.1723321779124 -3.6460605393825753
55.46474987181211 -226.80650718367167 -3.7185013740470247
55.48957538457127 -226.72345655105437 -3.712919869487199
56.53506605008977 -222.08051003184136 -3.7270688941826706
57.398752501282225 -217.95146162957258 -3.696129956822584
57.48020545037223 -217.57773674767787 -3.736268559035246
57.53883755952129 -217.33134242975171 -3.640757759343552
57.57332654257311 -217.24028116304908 -3.6466502127647105
56.21799651454822 -222.6937759648265 -3.679701501368795
56.24664462070692 -222.65405812433076 -3.67256518053401
56.249010973888794 -222.4898197292914 -3.656521000736764
57.33649587274706 -217.83650520331452 -3.712756843152445
57.342664310491436 -217.6940931836287 -3.729606416678694
57.41479574405333 -217.61908388582782 -3.734805673059183
57.45270508656129 -217.33844865736796 -3.6466051634493897
57.482471579398634 -217.24019692732531 -3.6534668743935272
57.5243497292085 -217.11696836776798 -3.661838092837702
57.52165197715539 -217.05043016588223 -3.668408781610555
57.52637550582378 -216.96397695681364 -3.676311650976648
57.52276433176254 -216.9070081111703 -3.68211827596789
57.56090632366967 -216.79172943465437 -3.6901966437913347
56.13356359957967 -222.86877049163257 -3.706552923527564
56.106222643295375 -222.81139919642808 -3.704229623210782
56.12665539284322 -222.6648385384589 -3.687555334356132
56.21762633654188 -222.50188483587965 -3.68785469122331
56.169211422011514 -222.43915853980064 -3.7385255363778342
56.2512229732759 -222.28518587552907 -3.7097397798826135
56.255921714966725 -222.20359019707294 -3.698684685081223
57.25928679893483 -217.69312277349277 -3.7343816121137157
57.26942134973309 -217.65525392920784 -3.7385400739323416
57.43492395390747 -216.99200224938355 -3.681172541023261
56.066121714178124 -222.6358901931894 -3.6919553589263634
56.03591332222642 -222.56808543613892 -3.688973763665202
56.11453167138729 -222.46741442637995 -3.669830076683668
57.1730439769148 -217.47511378935968 -3.655843263080831
55.89930112990258 -222.83825360199367 -3.686730305601797
55.92984839862901 -222.76240056377966 -3.7210057656142874
55.959963957776054 -222.68153834794126 -3.7093381359444924
55.9653227667015 -222.58190312044272 -3.698926650635586
