ply
format ascii 1.0
element vertex 819
property float x
property float y
property float z
end_header
-19.44961656510433 -124.59484474930937 -8.05666426283116
-19.432333873990377 -124.65878281438731 -8.047387474231519
-19.352990654213077 -124.69368371647565 -8.034266187248809
-19.544140888362122 -124.28518134773248 -8.031535373401601
-19.33859177410882 -124.64153355708906 -8.05442384813032
-19.245181517704275 -124.69279148271774 -8.041441460816252
-19.2607005800432 -124.76487160751103 -8.056587231755707
-27.15176822540355 -125.8306672805594 -7.940491298384213
-27.140131966862885 -125.88989722634852 -7.860028873414988
-27.06896225903478 -125.79213485437522 -7.940458104669479
-26.195065604425476 -127.1524320250052 -7.87798222968911
-26.982125271275137 -125.78449625824435 -7.876464197110827
-26.3210530159439 -126.77004704663194 -7.882831155604706
-26.115660303887203 -127.12135535445837 -7.909395542376565
-25.891400212359557 -127.43757683952298 -7.881562159703844
-25.170174568470458 -128.60143090881695 -7.954593810744963
-25.16108430655034 -128.62224642582586 -7.941347357998933
-26.96740666998249 -125.51502100940263 -7.902686774144002
-26.916491016920784 -125.72101774834933 -7.902376994339346
-26.815763734464536 -125.83948219645426 -7.9050419570472075
-26.811851030447823 -125.86529188606521 -7.9468024549620395
-26.277600796454617 -126.65432457833472 -7.884052909405727
-26.311645550584036 -126.73654352864008 -7.893786074281621
-26.071674752930896 -127.01484502824492 -7.9069459853443895
-26.07220307358508 -127.05470377857796 -7.938270039500983
-25.866735340785464 -127.37310936113433 -7.8782248810795235
-25.870893838218016 -127.4099226322439 -7.873501763556341
-25.15103846836488 -128.4213375405668 -7.913306841479568
-25.12160408543281 -128.53504443510795 -7.935132582478972
-25.075421989374227 -128.60607016982362 -7.910463831465123
-26.98088109045057 -125.3329020545171 -7.86450849453831
-26.952219784417743 -125.42169707354438 -7.8655413142845365
-26.904649598496583 -125.50102711465259 -7.897653281886743
-26.83057427782105 -125.63294430882803 -7.948371093878441
-26.82879866750616 -125.66359370868358 -7.893246829842294
-26.7488275014111 -125.77240814987842 -7.905686670317211
-26.73864344290065 -125.8237333535301 -7.9397368700024264
-26.23877431427054 -126.53288672241301 -7.890188051840364
-26.22582146384132 -126.56263618752577 -7.871060378966005
-26.02729811784951 -126.94855804983536 -7.876236434318504
-25.805758482677025 -127.27129443881799 -7.878056977659678
-25.52690841630133 -127.64441045110652 -7.871212734289891
-25.541366538538536 -127.66559626823802 -7.884817216716428
-25.156746737418374 -128.235207871387 -7.9326245932866275
-25.13726932938267 -128.24002935027053 -7.9215708079145335
-25.151579586826006 -128.3796646873266 -7.967687230294893
-25.04596359888612 -128.49473720088352 -7.9314305356749
-24.990635231331336 -128.52745949973007 -7.953615198791978
-24.928851152004057 -128.62663169313265 -7.907452732672281
-24.873677314464928 -128.6707059230582 -7.915239536740059
-24.80381365972028 -128.7761364867912 -7.894876284525627
-26.99920536703041 -125.13733705797887 -7.908771492381034
-26.980797380358965 -125.1463602628758 -7.92181101881753
-26.913114160889446 -125.28509498398235 -7.900029899021273
-26.90051541997906 -125.40349446330549 -7.878487842341899
-26.836276097170373 -125.47430807809145 -7.881745192187431
-26.66419361387425 -125.71689399395274 -7.894563528924251
-26.20859055986311 -126.51710472837495 -7.868640201773162
-25.160940591646188 -128.06841730013707 -7.909991223719603
-25.131481622638432 -128.19759457275336 -7.9342781421170585
-25.125222613056927 -128.2332133116608 -7.939825181296441
-24.96378787225458 -128.3537605101589 -7.941884874666326
-24.941393931355453 -128.40106168107823 -7.926844214268044
-24.91302272218825 -128.53775313481032 -7.903502567684477
-24.849442725828517 -128.60079768415193 -7.900428286676535
-24.759137876660645 -128.65112395366933 -7.913804691130242
-27.6781239551495 -123.91199948500551 -7.906247623411758
-27.607383306313636 -123.9491847294673 -7.903347701967261
-27.044195546864735 -124.92649172748129 -7.85371773207258
-26.99656028409706 -124.93505647495941 -7.8736052484160375
-26.95788640806969 -125.11164715809245 -7.876220976040825
-26.925613328761134 -125.15272348882196 -7.91495406136765
-26.87323569238689 -125.24694805571943 -7.87736198808063
-26.614529994262075 -125.65273712264668 -7.8776864124598305
-25.182938244443967 -127.8614619566445 -7.9250390742328864
-25.162802265430788 -127.93978187004265 -7.909349430258685
-25.11160841253095 -128.0353456736377 -7.896892831880141
-24.750143463669804 -128.53177986543912 -7.932363510639616
-24.743902118722836 -128.59253361443868 -7.9478658887902265
-24.653480610981617 -128.6870710172982 -7.887946600406392
-24.6364476402157 -128.7655467789408 -7.933105042277634
-27.59005992527456 -123.84700924739408 -7.88433029394527
-27.574065195183838 -123.94042842021433 -7.910156379100621
-27.493505447108042 -123.95769688489233 -7.868789549801932
-27.330770001869297 -124.25935820049921 -7.889702532215373
-27.212635590946977 -124.41259074746962 -7.932075146685513
-27.096159161741564 -124.66381262022385 -7.862202862195511
-27.000792037630596 -124.8880002109122 -7.844825504361969
-26.92965697924418 -124.91724546716297 -7.890604363638549
-26.811586846174936 -125.12662167383223 -7.941731603664642
-25.17617818320972 -127.75122059719192 -7.880641923240995
-24.78606484835591 -128.29664254848683 -7.896250143877173
-24.737161953295043 -128.36439127015524 -7.9297039183067
-24.65078511997351 -128.5117799192004 -7.877314522697507
-27.564727026572793 -123.69793952318899 -7.918549807967921
-27.544591979694328 -123.75045378819911 -7.920038405981341
-27.497992049852265 -123.85013452972838 -7.849753195532545
-27.439405132249284 -123.964470234224 -7.8479780653912465
-27.35316187124878 -124.02468342101419 -7.927552718202248
-27.327555325819148 -124.14678018805643 -7.936238748670917
-27.252743971058145 -124.21658239479925 -7.892985980852452
-27.219517978562017 -124.25530530126804 -7.878308514274023
-27.13960467690054 -124.41504520250773 -7.926421091778586
-26.980424942299145 -124.6387281289243 -7.904545639039372
-25.295104141143437 -127.25715575118289 -7.949712912619289
-25.304861349956973 -127.30734486340766 -7.948081732358446
-27.47975420154341 -123.73859881376248 -7.91986753933933
-27.411828965461936 -123.80271757915555 -7.880368717100575
-27.307537590086653 -123.95104807915071 -7.932670762834495
-27.26467052289291 -124.04700783778438 -7.931615961462355
-27.247111798687374 -124.13018418466156 -7.928533819614809
-27.1325023411332 -124.2171854609897 -7.900528755979083
-27.047693012203894 -124.27069831787941 -7.872187619452421
-27.032829852707277 -124.39422456082386 -7.926676730548744
-26.92086022011958 -124.63154464082393 -7.916605284933597
-28.04258464909349 -122.52820601750858 -7.926755089220798
-27.32065864074781 -123.79324330402109 -7.862444595441951
-27.2822474020904 -123.80154627251429 -7.845792460591649
-27.122004303950806 -124.04898317701871 -7.932150082991174
-27.057602903941714 -124.19241998881522 -7.891150341702386
-26.978659151663273 -124.26212708683387 -7.901940635871928
-26.907044307529286 -124.35306283778954 -7.915140866621208
-27.003600096177784 -124.11425761550505 -7.907287975160854
-26.913505983631303 -124.25332371518036 -7.919711389704675
-26.882101481205037 -124.29028226038841 -7.902357887893618
-26.823460383862393 -124.38219401987223 -7.855852013583979
-26.904887844178845 -124.08187640809146 -7.932009076992314
-26.725750867535716 -124.09377612751747 -7.929660509562877
-24.109815601833493 -128.24685853042104 -7.875936218008201
-24.133276020181 -128.03478166584105 -7.877942076400357
-25.7390079416013 -125.25543247593974 -7.912989311438779
-25.042728501905266 -126.32116508808514 -7.925396384021005
-25.70082688080753 -125.14415852956003 -7.924339806958753
-25.694246315323667 -125.20953723953353 -7.922314600061499
-25.02763742864387 -126.29104695933354 -7.901675286731085
-27.118900997323813 -122.81639079085852 -7.919537415062185
-27.01469733024374 -122.85961051540636 -7.887370840471983
-25.6717530159548 -124.97301145820393 -7.943796821969006
-25.577385188039052 -125.17085364611029 -7.926566205177565
-25.58104499504529 -125.2115364749832 -7.922406376082569
-26.948071594081913 -122.84464050820016 -7.905239008123478
-26.898288870998655 -122.8484500090531 -7.916865657941906
-25.644452170204993 -124.95342533810694 -7.939384309317845
-25.363363485228128 -125.28892408169322 -7.950849610030672
-26.84363989496061 -122.85739723529728 -7.913626641704799
-21.092673580848988 -122.68913279704722 -7.935904029054973
-21.052847161439125 -122.74982504909103 -7.921164923395915
-21.369133337435393 -122.08889846964799 -7.915138604230461
-21.009406720386483 -122.64035201378621 -7.936307005853162
-20.972575055763787 -122.78763534254846 -7.924932932380983
-21.27871372373854 -122.04436236489057 -7.931978200002358
-20.89294193930388 -122.65198706681484 -7.9220944691245965
-20.849222211880118 -122.71886427958897 -7.932850075866589
-21.28452307051166 -121.85829713144021 -7.940866947039441
-21.232623544391146 -122.00190838340934 -7.907241998864475
-20.864024528579638 -122.58557223612446 -7.917479540423968
-20.782640551813348 -122.67189233665775 -7.911926699138457
-21.20431239671668 -121.7811601252534 -7.938251698283407
-21.10319757394237 -121.91935453760956 -7.8976566763599925
-21.082271241078704 -121.89941053508248 -7.875302050742308
-21.02800873654556 -121.8064020814558 -7.866480327472472
-21.00830853077322 -121.83759652582677 -7.867027526998109
-27.132819476414312 -125.88055269606367 -7.82904208909048
-27.139902608274795 -125.6941429134219 -7.8143384071393625
-27.101371248332324 -125.727750530783 -7.827430841632642
-27.07724429667213 -125.83814757939575 -7.822928585740181
-26.497760314457057 -126.72792104382341 -7.7580696420247275
-26.15999580330231 -127.17701875763353 -7.851408011354502
-27.138548241696135 -125.51618503641333 -7.801597254826039
-27.04432607922396 -125.72820582149046 -7.7807801737688305
-26.969303952455295 -125.76405601238201 -7.818051675594755
-26.8571143027971 -125.89741159147985 -7.8246932256091
-26.637165183463495 -126.32013642703643 -7.772592648904361
-26.475560227301767 -126.48227425796809 -7.791853146719651
-26.450598314453412 -126.67330986716759 -7.778204526336389
-25.937416707343317 -127.39858116605251 -7.812699209015776
-25.899858782410753 -127.43476316991715 -7.846046981371702
-25.79664601135542 -127.57751370189375 -7.81977169580827
-25.81275243053398 -127.61248976205066 -7.827293325864275
-25.249851320754303 -128.53035480090904 -7.789982601559224
-26.981344509027426 -125.59759651998368 -7.79324408559903
-26.95025225288881 -125.63257036726287 -7.7797394433583165
-26.81444344694995 -125.81677824884115 -7.805207080773094
-26.81543972085517 -125.88087938081284 -7.8230287027315155
-26.57225282672127 -126.25879610188173 -7.764817128783095
-26.42597128303714 -126.41994511358202 -7.78973622695218
-26.371577395053954 -126.50625437276817 -7.778476374356816
-26.240716027456727 -126.72792904653724 -7.83486323813767
-26.096757520328104 -127.05573579505204 -7.858225544454479
-25.876215072043728 -127.24789525273353 -7.778228896670159
-25.890434002418054 -127.35874680047412 -7.831418925909058
-25.754437832212336 -127.51645017594828 -7.80644417755493
-25.685201811435313 -127.59847746371484 -7.826702023414896
-25.649695775588974 -127.66510001446636 -7.828421407618401
-25.231711734912718 -128.44151107036367 -7.803989139352943
-25.074604861060173 -128.56100331994654 -7.8332377563523705
-24.936028459202507 -128.7917840354018 -7.784094710350687
-26.973944494410766 -125.36797748203558 -7.813932787499596
-26.941136111901695 -125.42161225162442 -7.775607816446517
-26.871556184678678 -125.58049694625181 -7.781212162536798
-26.763630799760563 -125.77017064530659 -7.780723503878906
-26.718691314409135 -125.83077886369135 -7.834611989138385
-26.47735913151001 -126.21561970396257 -7.777085141589847
-26.410749476312397 -126.28776675067533 -7.7936526448610435
-26.36505691589463 -126.33496422231356 -7.777721923147143
-26.34351528236762 -126.46952474740381 -7.785254000829124
-26.196763451659358 -126.6304509566077 -7.830859413892511
-26.174852469919895 -126.64816076906781 -7.789697920704177
-25.85893633527222 -127.2336897279742 -7.783687736305087
-25.71009576000487 -127.38562430449645 -7.823365378946632
-25.68638328915599 -127.44734985886723 -7.803957914026967
-25.634270117563094 -127.54003448263882 -7.831383980014964
-25.18060312032951 -128.21288409497836 -7.797354011036666
-25.20211939148271 -128.29256282449128 -7.782736282620644
-25.03620830043375 -128.50875124110772 -7.804432510030103
-24.99466807989799 -128.5617414335038 -7.809126674989581
-24.908515760745676 -128.6581172852245 -7.826796851614935
-24.89940318246456 -128.70778935499848 -7.842790405615409
-27.33334975481676 -124.58667955658525 -7.773779382243793
-27.07959564555898 -124.99990553731219 -7.762542369117985
-26.98759849950089 -125.11792283308345 -7.818861972884466
-26.948854905812766 -125.21080855098272 -7.814683400803725
-26.921826746988163 -125.27762338877399 -7.804989521576537
-26.893683301302833 -125.39265019070072 -7.800869134414145
-26.813668853265735 -125.46454335410837 -7.822861022875099
-26.815151666939006 -125.530730961241 -7.790709903227849
-26.6556650716814 -125.74121287383637 -7.843181322033481
-26.404674508103646 -126.17865143441603 -7.773224198766608
-26.365150519881567 -126.22003345763275 -7.810428184764923
-26.30073868288572 -126.29918958958285 -7.76257126594618
-26.174947686121428 -126.5562541605274 -7.828061050128194
-25.653687747968018 -127.35371381039681 -7.818813913206288
-25.636838534659606 -127.42342271350178 -7.818191826276498
-25.492472878195983 -127.61243538917384 -7.820497984521632
-25.15883404912491 -128.07908804541904 -7.832469473357257
-25.15281093720612 -128.16434375309686 -7.830827985711756
-25.016759242770533 -128.2503071107543 -7.806904612530246
-25.025775367442833 -128.33626820356358 -7.778864636701448
-24.979789189239074 -128.42151680095233 -7.819611911192351
-24.902443216575943 -128.5277035714037 -7.819832305395233
-24.887670962331914 -128.60617030329985 -7.845594261157961
-24.74132443806406 -128.77132507477452 -7.837023297012927
-27.844731145817594 -123.59970119097795 -7.74915764877398
-27.286191558481335 -124.54490368541919 -7.77711894897923
-27.056767784247022 -124.92122712425 -7.793181742915032
-27.00905765218562 -124.97491969366465 -7.810022053599459
-26.948263868288013 -125.05779752854546 -7.797259308992712
-26.916266855612044 -125.13205109111206 -7.784234238201667
-26.864275919326538 -125.23678607627791 -7.778385583000665
-26.844519606528074 -125.3025988931163 -7.775325101149337
-26.80330167117172 -125.39577527516792 -7.787482554085044
-26.573146618561335 -125.67511475587563 -7.766920028927829
-25.408899080084737 -127.42775404903384 -7.803495848436779
-25.35870384153289 -127.62153516946488 -7.773041426295614
-25.243744553313192 -127.79828839199786 -7.853804725565124
-25.186867507038382 -127.79736439280062 -7.859945506451932
-25.160108529137407 -127.95389209450515 -7.810475037260048
-25.00485740586187 -128.2189064019188 -7.791763003240346
-24.811908411675898 -128.4800296440389 -7.837817741880869
-24.791290857075712 -128.56261545636798 -7.8479150705800755
-24.687149311184655 -128.62538211094065 -7.867513222082248
-24.666794012564864 -128.66945601293241 -7.813804514194904
-24.668995316366914 -128.77504764860586 -7.78274277556984
-27.76951792215312 -123.61300964637213 -7.748316441322954
-27.606060616721557 -123.8399616882284 -7.756823541838128
-27.546553441691366 -123.8908368145124 -7.772073600355167
-27.50151931277859 -123.93643260638865 -7.8187620847223345
-27.405883909645553 -124.18016903561293 -7.837191701982194
-27.367312884661548 -124.21811741201338 -7.826287554750276
-27.19055339397442 -124.50586385451402 -7.759109545766143
-27.069164400894994 -124.66856478073582 -7.760072675562452
-27.001942286002855 -124.85490978935735 -7.804613939946866
-26.90475385027942 -124.90865839614844 -7.748141957966508
-26.874543475265686 -125.03220302946758 -7.77763260303765
-26.82069780862851 -125.04277236323829 -7.749262870015613
-25.30874470387198 -127.4951728536463 -7.816421079643901
-25.316190119915795 -127.5397810149697 -7.793908977000854
-25.19704482595776 -127.65270871154969 -7.812674152911745
-25.191153456518826 -127.72520782553998 -7.850835249509741
-24.924319182790015 -128.1272606928272 -7.850118941576909
-24.802894428368226 -128.3221651464522 -7.829773853099737
-24.783021315142225 -128.39850611159517 -7.839297226352934
-24.64402799898767 -128.46223172889634 -7.842237210340355
-24.647007063907296 -128.5779396028204 -7.841371643017289
-27.67193015093424 -123.62164065107274 -7.75217012633116
-27.536641950560472 -123.79912823626306 -7.788336992829716
-27.479502150923626 -123.86956690796733 -7.804784042295184
-27.432903670280552 -123.92706964671736 -7.804083385747758
-27.269100558315664 -124.2355812438303 -7.812673371456573
-27.234815276104055 -124.24731878735825 -7.816841042522532
-27.05226678826584 -124.48295724376507 -7.743332023911333
-26.982415809112958 -124.64644393096881 -7.8001595692021635
-26.853975807478754 -124.79933730411072 -7.745976379057658
-26.70640956913637 -125.00759246146487 -7.747538195654477
-25.242967999481625 -127.41432344311777 -7.791095971541441
-25.176055147808334 -127.57571270377969 -7.785060037026811
-24.62972335977872 -128.4475794689842 -7.828407121894068
-24.521906578046853 -128.59767312905728 -7.776018241780937
-27.47117587231577 -123.78025177999216 -7.805791177371054
-27.39730480257742 -123.79231328843807 -7.788324576535543
-27.35501336441674 -123.85682788376431 -7.806685978598573
-27.11490121158445 -124.24658598099084 -7.807370205524677
-27.05077705073034 -124.28644113671069 -7.820512019583249
-26.904204848520855 -124.62802222325924 -7.821312357068118
-25.19407189555024 -127.2929108697932 -7.777686592954643
-27.776617546613366 -123.07290105379808 -7.795241515166676
-27.308874393830102 -123.75613322918008 -7.7902800040170606
-27.308178058484515 -123.82380239091519 -7.763913603355541
-27.03984851985728 -124.1963081270087 -7.811813974671903
-26.99329237580618 -124.24486990812952 -7.787559638413317
-26.95630162470043 -124.32273961815305 -7.80753978870173
-26.86624717317106 -124.38737495345067 -7.817648294114966
-27.248809194507746 -123.72112457102608 -7.822422776864262
-26.813764338322002 -124.38182583551014 -7.826991134054959
-24.12961319797054 -128.56256959102814 -7.781844054907925
-24.133383989774355 -128.6856431290626 -7.80775859884375
-27.643203928807733 -122.89633160669558 -7.758242606453991
-27.583357697764686 -122.92146787522029 -7.752989051583863
-24.14271219282916 -128.46092308371152 -7.826562551790347
-27.55167252014278 -122.89329605327129 -7.784318838068891
-27.50284649588641 -122.91274816295612 -7.768009523520572
-24.15076376349243 -128.15394968980823 -7.833118785709973
-27.405717599149483 -122.92877542790346 -7.782115001265362
-24.144386491186086 -128.0411381840945 -7.86092652719022
-24.12899477560461 -128.07304748292668 -7.865567270846253
-27.174147467829968 -122.77220615920334 -7.741018417300682
-25.712100741625544 -125.15053747396837 -7.7711339186601585
-25.692739259910105 -125.1779990618134 -7.817634612386158
-25.02889275488804 -126.32814177767128 -7.828619914535453
-27.112127592860812 -122.70122317933703 -7.808761101001821
-27.075909053711815 -122.81061543054182 -7.752887430220913
-27.029463654925653 -122.85069373932312 -7.811590199766522
-26.002744401226433 -124.54739371162809 -7.799236128221792
-27.09608390670845 -122.67091726279727 -7.802148313988049
-27.004394169657587 -122.76772447862729 -7.798693198486825
-26.972964870335424 -122.87750346073142 -7.814585974170063
-27.45351511024075 -125.70131680288357 -7.653535663786113
-27.279564003023914 -125.6220514214244 -7.657165280369124
-26.36823433146195 -127.05628939310675 -7.708609179643761
-27.115783724252076 -125.66517505156752 -7.723367792571663
-26.929346004582747 -125.94949766611556 -7.6626849968417075
-26.437594841840877 -126.73410244161629 -7.669242901298463
-27.106710963456734 -125.53402032562256 -7.6669267890083095
-27.06441680307962 -125.63798419450204 -7.723188734339882
-27.033265078426044 -125.67037191588302 -7.715258346806233
-26.874228561456704 -125.89053039638563 -7.657886046719229
-26.886507433535662 -125.93831669331448 -7.679972588869139
-26.62828572397426 -126.29993331243723 -7.753562599352651
-26.570548295363373 -126.39257863679057 -7.667944852283921
-26.499165623971358 -126.4591629484299 -7.681217082948187
-26.51809338500928 -126.51940266470821 -7.668486040156791
-26.379536992165253 -126.68594879817257 -7.695021410380296
-26.289746936960114 -126.77488304459939 -7.720517215725524
-26.294068818712912 -126.90739903422492 -7.696241891143747
-25.972807323934838 -127.34010743045397 -7.688180415443751
-25.918198516460183 -127.39225352675993 -7.6767956031074345
-25.914629505928072 -127.45924722564322 -7.671701742855711
-25.783703983133744 -127.62741236057029 -7.721220994003561
-25.045661612522743 -128.8090126032536 -7.732697429630252
-27.044625096206502 -125.50661990546014 -7.674055122613149
-26.98369635742387 -125.61450533653759 -7.735182065959855
-26.960814085828698 -125.63578107624652 -7.718357152128919
-26.81313877163775 -125.81443148663247 -7.748698208358045
-26.818709168327782 -125.89601808140267 -7.701159999046808
-26.530607080561452 -126.21271814230096 -7.751804976278709
-26.52220739976333 -126.33513599636962 -7.692911489401208
-26.45685625319151 -126.39533666964154 -7.702590598500603
-26.394823859973787 -126.49187756141816 -7.734429393049634
-26.37476498228424 -126.53914984301605 -7.754862522371299
-26.290309312931676 -126.65899778324373 -7.707945098164644
-26.253144855799007 -126.72405519115405 -7.713315225045545
-25.911440445321595 -127.26387533465432 -7.712890822413578
-25.86387435825739 -127.35283556420168 -7.6869732134082875
-25.786172016812813 -127.40533361808342 -7.693934067744838
-25.770112916874613 -127.49698020935092 -7.699426045657323
-25.75222311133272 -127.57936108259145 -7.751604751218502
-25.546685907616375 -127.84134620043613 -7.723431794692572
-25.06558110225565 -128.60276627348557 -7.726888621735799
-25.01691082234439 -128.70492717761394 -7.699730550711771
-24.99698333802259 -128.76927597821918 -7.695006105641145
-24.890306732414405 -128.81972708172688 -7.715571391217208
-26.967116541750116 -125.4364681056657 -7.675267275615492
-26.914803843172702 -125.50607302204133 -7.729955709623217
-26.86221778188634 -125.59613670717043 -7.728788354571239
-26.76450923617821 -125.69487517983045 -7.661071512144905
-26.76175917343363 -125.71532724151221 -7.701032716369348
-26.696106439269226 -125.81430529875195 -7.713353270295929
-26.538740342962075 -126.13368023388752 -7.7274832567375
-26.486210347282995 -126.2011939263832 -7.731077757256296
-26.4486962600448 -126.2518999468041 -7.725792807717933
-26.380262420356758 -126.35876728103875 -7.720250150672911
-26.348490216288546 -126.43088989053145 -7.744530123883453
-26.209717020322927 -126.54090897210305 -7.674325720359049
-26.224543313060096 -126.59869550816795 -7.716342197267829
-26.20995447628655 -126.6680566271558 -7.714402613776249
-25.881365282808922 -127.15714327975891 -7.712894673805526
-25.85920463098279 -127.19089367917347 -7.701634939987699
-25.78205084540359 -127.28391066133467 -7.668423263375721
-25.731539694728426 -127.37682955285922 -7.722681613591661
-25.698159954709215 -127.42567649621503 -7.744049152275348
-25.48327458005534 -127.71274558184403 -7.69911318585439
-25.199577536459444 -128.19080421453586 -7.759962848226103
-25.03241704522712 -128.48064365323035 -7.717006560758108
-24.997574382772402 -128.5496372485839 -7.710159755606575
-24.929987751521224 -128.65165495314253 -7.726306754822279
-24.885367949645126 -128.7017701732923 -7.71723362581256
-24.873386045612705 -128.80159878289328 -7.70118254456513
-27.66060002003864 -124.11048221542892 -7.680273603795853
-27.304164802507078 -124.62700017078578 -7.687620544303341
-27.29513665034401 -124.64141454215934 -7.687721697204733
-27.058471260747346 -125.01905156519463 -7.723795182366264
-26.89175386884018 -125.3838399683094 -7.69893324751668
-26.825446520842647 -125.43580715213355 -7.6830359470333365
-26.763741664068007 -125.51970983856066 -7.6674411598331815
-26.70288157428003 -125.66837802021381 -7.70125616803825
-26.703490849109816 -125.68764116278383 -7.729576830074707
-26.36966106514651 -126.1651045201124 -7.705687500535009
-26.329032414266383 -126.29590976700246 -7.7322645579320834
-26.191798420338785 -126.5131927800774 -7.671099056311727
-26.116993286686338 -126.56627894259931 -7.747868744805011
-25.839012424666336 -127.08014897603032 -7.712987382165565
-25.65256310692575 -127.32559725031709 -7.684795924166969
-25.41951905833316 -127.67264222694328 -7.737224952224854
-25.413882638006456 -127.72102688414768 -7.752247986606506
-25.19807176388404 -128.10605067735887 -7.754132740172606
-24.987588131661038 -128.4489059849127 -7.696653064861597
-24.821832077465427 -128.59862322683705 -7.698623260432191
-24.819149796022085 -128.6295073370256 -7.6747664334616355
-24.697544987234117 -128.84517128174454 -7.725143605123811
-27.73327722224554 -123.79638597316406 -7.667190640258752
-27.6803955761985 -123.8259505765891 -7.729518853688262
-27.55035019658968 -124.12521528826895 -7.673455992308197
-27.355810316432997 -124.42756446517802 -7.692000490288457
-27.274686656290747 -124.47327244062157 -7.73492930870968
-27.245163135247033 -124.58301993313088 -7.714588271262693
-27.231246085556304 -124.64913874292094 -7.6804104059030855
-27.177400681708846 -124.67562544478612 -7.704862822427123
-27.00857460153254 -124.97763787129985 -7.6972136588732845
-26.9621647373379 -125.05936136827229 -7.694858467880881
-26.88890946505722 -125.16296474532462 -7.718626453495802
-26.855411029047264 -125.23983601744811 -7.723166542403873
-26.794731475471853 -125.3051908486885 -7.703972437959972
-26.736278749766043 -125.50232201578372 -7.657245287443527
-25.59799909959897 -127.18849226414795 -7.715212574169158
-25.422514086388453 -127.54072487720765 -7.692218108352782
-25.368420303228614 -127.59514003518062 -7.72919350743157
-25.22319317146855 -127.81284839790008 -7.671989301571903
-25.18631643051918 -127.8959144416872 -7.720473169244562
-24.83189164674061 -128.35457212511977 -7.744860482234414
-24.826526292857075 -128.42087277863953 -7.711231610036101
-24.615774887935725 -128.6928619087489 -7.757253150432661
-24.597964662171513 -128.78631180688092 -7.729019932237802
-24.559445329715214 -128.82955029098255 -7.712377705203495
-27.702533465773026 -123.60254630502901 -7.636558405052146
-27.65962269843146 -123.76605574715512 -7.64655910937054
-27.611686782743224 -123.8317867662404 -7.698582470621971
-27.561728693786094 -123.90144892470425 -7.6580660880871125
-27.41059315403145 -124.1591118510813 -7.685520239616652
-27.24650950068574 -124.4456243365949 -7.676300272446047
-27.19941502395996 -124.49330239224865 -7.718038281954734
-27.158136877850207 -124.5790668767965 -7.714625858333366
-27.09815365296836 -124.66582342144551 -7.7018726102718835
-27.04477535324561 -124.82478999469447 -7.706282546404607
-26.952846091174553 -124.84421196044725 -7.696632403879591
-26.952305829610697 -124.89657613511093 -7.666143560144548
-26.836164558120398 -125.07656076309429 -7.732720314228978
-26.790166742656197 -125.17427600350219 -7.677351392109056
-25.323894329200606 -127.48952802241169 -7.67984855872836
-25.275767270293706 -127.59656646390071 -7.682829881423789
-25.195053930556714 -127.63169206424037 -7.71614401347277
-25.183728796391016 -127.71974038767569 -7.729161148093892
-24.576358717309986 -128.66050662671245 -7.727112221229174
-24.5414509237357 -128.7435160112129 -7.727162500645549
-27.63804661909821 -123.63795201497487 -7.716896723442351
-27.57032834177426 -123.71415626686947 -7.652903353737028
-27.538684056435432 -123.77331349461629 -7.662910069244518
-27.494955350350153 -123.85666665773176 -7.702258535880948
-27.43000507961228 -123.92776421058478 -7.688090632150518
-27.253832837082104 -124.18096481046122 -7.701760735561206
-27.107694864099944 -124.35660470752312 -7.713013776224059
-27.113138785515126 -124.45813415611568 -7.703931436229154
-27.049502171128903 -124.63442154150202 -7.665206497711885
-26.90447807080519 -124.82505720056413 -7.71690188112296
-26.865577392227507 -124.8604927517669 -7.710733732220785
-25.279684823170605 -127.31398159696559 -7.665743289775674
-25.199068453572476 -127.49912626404 -7.717231807703717
-25.14049739927976 -127.61395544206042 -7.7316949260196735
-25.122212231514858 -127.67900521493647 -7.740665097371226
-24.755839443085037 -128.2565420368883 -7.711912982272062
-24.538864313519017 -128.5987461958795 -7.772144820572793
-27.490295167401438 -123.6748916864276 -7.697887564314511
-27.461593665361697 -123.74041898129876 -7.677840386326606
-27.369165654433367 -123.78446723785278 -7.7199396887398875
-27.308765598504017 -123.94973585398682 -7.71282405140179
-27.213531970408468 -124.1877381200111 -7.711602350514017
-27.125899747252905 -124.2211968039557 -7.7244859191431035
-27.065929215847696 -124.30790272042033 -7.725467167801154
-27.01313690389753 -124.34328382827253 -7.694509764411425
-26.925935280240274 -124.61984342179908 -7.667631693705089
-26.79837146766489 -124.81859353530679 -7.678813866719888
-25.102757354636445 -127.45654827129869 -7.692271833851836
-27.883732688807118 -122.90792585253884 -7.655068374897653
-27.777435181436235 -122.95507439395539 -7.6582462622649
-27.337481184768112 -123.80258983157701 -7.736163651043303
-27.07101986566108 -124.18188919678049 -7.716165965056762
-26.991727373153257 -124.27569324067565 -7.7071970521382305
-26.932651759001853 -124.31433935896106 -7.685000886241381
-24.139834547893912 -128.7488316025709 -7.763882262492595
-26.94739396060775 -124.22934045233336 -7.729648281343379
-26.871831210294566 -124.30864221449349 -7.669883710428069
-24.124855120068744 -128.6116275584619 -7.766639015932054
-27.64970672830344 -122.81866372915215 -7.666572426830464
-27.608013830963863 -122.91055146532484 -7.7138937969461585
-27.579046943955767 -122.9323256568188 -7.693843270386812
-27.600355115380623 -122.80886835989142 -7.666947760611078
-27.548326783776883 -122.86225335052761 -7.648570210832036
-27.508037359484906 -122.91036294288733 -7.659676588504413
-27.42467796775417 -122.95297323258283 -7.712594181389952
-27.44454609368452 -122.83636465163971 -7.639240333789941
-27.39789548401411 -122.95412889954044 -7.664124388973684
-27.249691900683136 -123.01217769658253 -7.695742141302034
-27.27135123137552 -122.7426620587144 -7.65417472351674
-27.15950838904788 -122.78244702823945 -7.64283698222928
-27.137363124382567 -122.80199192610937 -7.644056372788998
-26.27944362140069 -124.15114077964925 -7.727214217899557
-26.19538428192279 -120.20325581802874 -7.662256718916381
-26.262297194462096 -120.0335826326489 -7.676790192890978
-26.24170943397623 -120.08265618241977 -7.695319238701548
-27.399558301504925 -125.68843820835424 -7.640967774159018
-27.023201503800976 -125.85562323470086 -7.58169504477065
-26.991490168548093 -125.90775957949964 -7.5777712755644355
-26.857820016181385 -126.156630545074 -7.568471490013731
-26.61488578140479 -126.49600604504778 -7.622721827711298
-26.598830795257324 -126.61861363467386 -7.653721045988709
-26.95081950736993 -125.78526714811579 -7.623280805325999
-26.934449114432677 -125.87163391819449 -7.589406159480741
-26.535331609128313 -126.3846979717235 -7.632494557929794
-26.549717290824418 -126.46153158482335 -7.612932051985487
-26.428877565507673 -126.71745355707539 -7.644590944372983
-26.251953992199354 -126.8733775072286 -7.563829237940391
-25.90025835539691 -127.39188753196362 -7.653037831008156
-25.881716986470632 -127.43974158793732 -7.617062907225212
-27.60694354916464 -124.59060369801156 -7.548682816557935
-27.554948366364734 -124.59432215629519 -7.551293292556603
-27.004313020240332 -125.47116251756991 -7.639630454837106
-26.918001986080807 -125.65573370054481 -7.6099552774251205
-26.875773416020905 -125.75483217950172 -7.6066837969954815
-26.858797537036608 -125.81873870508258 -7.587364124387511
-26.697562554190707 -126.02964893920735 -7.584406201874913
-26.523052297030382 -126.36901793210893 -7.621115488380747
-26.485571810779128 -126.41551509438881 -7.616953712076886
-26.293192138799046 -126.63727410440275 -7.586673787184282
-26.287672432022184 -126.7369165656899 -7.600639895550307
-25.857921277118816 -127.37714096734271 -7.618901302277507
-25.81340413187047 -127.40543173107466 -7.63956490024942
-25.727703194357407 -127.52575118763478 -7.621532594015036
-24.901738869409595 -128.86495549743833 -7.61963479703335
-27.5551500988977 -124.46500617821012 -7.5878312282511216
-26.939922772396635 -125.44348177530921 -7.6022605592614605
-26.8541153854227 -125.522640380218 -7.5762927073304365
-26.841559920652777 -125.59226287165836 -7.585319178808626
-26.803116071975793 -125.6712648054462 -7.606858820674424
-26.77464796019884 -125.79829931509322 -7.643018218845227
-26.47572555645351 -126.14877772957061 -7.608693748330089
-26.46879296559012 -126.27930886693524 -7.624103347675772
-26.39149884452843 -126.34991114442214 -7.620061847035142
-26.24286045929579 -126.49939385352059 -7.595484240921778
-26.241461460653095 -126.63494461626502 -7.604313248630974
-25.82247034212223 -127.20837293264003 -7.6302985358919235
-25.785068120925096 -127.29550656179858 -7.630860863468312
-25.72632043520109 -127.37139337023484 -7.651065238183942
-25.69836752943153 -127.45698429147635 -7.598880619787793
-25.253016752986458 -128.0784031814133 -7.606574680286705
-25.01306524597846 -128.49828698514798 -7.638240728923469
-24.985984826038354 -128.5320330314973 -7.623356024382153
-24.97976327776698 -128.62664399319192 -7.671437296834575
-24.860769341142785 -128.74792791393565 -7.659159031359517
-24.819969416095862 -128.80760266431034 -7.608606655522243
-24.81352705083408 -128.8972765212761 -7.584011831161371
-27.437930837754553 -124.46284482686367 -7.555176028873231
-27.345267345710504 -124.59928483303239 -7.546050590567184
-27.122309977737828 -124.914021601082 -7.6303067960962405
-26.99964469569502 -125.1028684445012 -7.546632275079066
-26.961653012762124 -125.15585286009399 -7.5952473895265955
-26.866122880221543 -125.36636205227653 -7.591710931124884
-26.824463557589183 -125.4619356688405 -7.5939443831891875
-26.77031135220357 -125.52476095366 -7.615867475163887
-26.772605446142475 -125.60783618738384 -7.600356021430365
-26.680304983445033 -125.72513688571817 -7.591167473120944
-26.52866500376303 -125.95782248549371 -7.613973736606317
-26.425553085456052 -126.06161761000325 -7.601405404521802
-26.407055535880655 -126.13192261904247 -7.595462938678083
-26.196681241938027 -126.47329249051164 -7.623479490615864
-26.16291006770296 -126.52282009099461 -7.65325596229708
-25.79851549275552 -127.14147758494241 -7.619174295492568
-25.730651861245008 -127.24167699493674 -7.647733514211908
-25.663655636125057 -127.31774916142122 -7.615170432092655
-25.34805252949593 -127.74175651970204 -7.599388096814222
-25.256968640230767 -127.93940533265821 -7.604410424639625
-25.245808465546094 -127.98426341819444 -7.619195497667865
-24.95309155205162 -128.41775909566326 -7.651390951433533
-24.90817613692768 -128.4938223757002 -7.586901191780946
-24.821433189166637 -128.59990092322977 -7.640323639190284
-24.813154430844122 -128.63889721519806 -7.651118254160709
-24.683016058090363 -128.75704266881868 -7.588433397972888
-24.67879596768846 -128.84643738779036 -7.641481303322479
-24.65425173856449 -128.8837547467144 -7.629211043268978
-28.376037657997905 -122.7890927422426 -7.553739506761107
-27.903652451331194 -123.59647047292853 -7.599433843532243
-27.50936608903611 -124.13618189684435 -7.595683161268139
-27.4701987307904 -124.17672088822928 -7.550500425114564
-27.35545628158617 -124.42737680983669 -7.590042622663187
-27.335017532320588 -124.44767866984769 -7.594997211691502
-27.314297237408518 -124.59000535740904 -7.563896213454249
-27.038850415721104 -124.9079232213956 -7.622361409966524
-27.001918788167202 -125.00790573914091 -7.599391464905177
-26.97263040699035 -125.05873638476628 -7.578862518653807
-26.91243622589176 -125.16822821774436 -7.601968430403798
-26.841097405013695 -125.23971131344106 -7.567875233674905
-26.805305072397903 -125.32160739290042 -7.606612052846407
-26.7616889644111 -125.41385853998867 -7.616127070440218
-26.43271027707448 -125.90974511753923 -7.5726320509980365
-26.348585959076473 -125.99671684111794 -7.571865476182029
-26.338519012698228 -126.05437507831631 -7.605144157637816
-26.128638087570017 -126.44928980330596 -7.644087922743152
-25.55542101402933 -127.24236984759283 -7.570621340350004
-25.358706943051367 -127.52929175464972 -7.624798727600785
-25.361718394226582 -127.56803376002624 -7.626320051825245
-25.301972286497538 -127.66323358933569 -7.637542143041753
-25.211480939028394 -127.89270194752747 -7.651330167539906
-24.816150583812174 -128.5035351054465 -7.67273972589342
-24.65857473745672 -128.60892679192628 -7.6280196041150825
-24.65557239844742 -128.69026960237352 -7.645635630045194
-24.570823675501142 -128.76326048241415 -7.579957124463621
-24.589808965518117 -128.8691556893274 -7.608938517678566
-28.27382246828608 -122.81702760639378 -7.5526517793510415
-27.721904071208588 -123.65816604852729 -7.6053924009183715
-27.456229135771725 -124.13531219734422 -7.5877397085686935
-27.413128442586743 -124.15219622115657 -7.5877227797685265
-27.311594800662725 -124.33423829003951 -7.540291209111757
-26.945764906141083 -124.86712616020736 -7.56151299604092
-26.93196624724237 -124.91356201799447 -7.5751635100895705
-26.79451052465251 -125.21067422080138 -7.6043242485895
-26.365428570812902 -125.8387825648645 -7.563010000896875
-25.32716714164273 -127.44542589375746 -7.631535323058312
-25.277508501015276 -127.58104449242158 -7.659150833691987
-25.232314991431966 -127.64353244697683 -7.660410456775008
-25.199351270288112 -127.70899463053631 -7.636725458261494
-24.655810652042426 -128.44433566036147 -7.628528980334255
-24.63021323791282 -128.5662722287197 -7.629024813573315
-24.582941938196573 -128.69225960828703 -7.645360533036687
-24.54303783494466 -128.77434427044884 -7.671784968229125
-24.464651230652834 -128.78284993836326 -7.655205564228827
-28.096762358491414 -122.85015090712476 -7.553991099609213
-28.017129886804597 -122.92404285633211 -7.542960227454702
-27.607724797636003 -123.69199922532947 -7.6207138200146884
-27.30815003726421 -124.14391073675048 -7.569059189912256
-27.281986273380895 -124.1962064262981 -7.5559271616155
-27.189879146163193 -124.30488661721029 -7.581643364125067
-26.898701289453797 -124.83433027011571 -7.572354651948732
-26.85220508338265 -124.8469752484449 -7.591204801081208
-25.251222663629104 -127.41065845656385 -7.578339906867295
-27.974312167460422 -122.8832508364324 -7.5638067842297065
-27.955717377669806 -122.9255573309807 -7.599646645783146
-27.441970919899696 -123.76425219349555 -7.577242560902865
-27.162025437279148 -124.129582359243 -7.556001064033642
-27.187640043449807 -124.21853146149456 -7.556280512861234
-27.061281383828895 -124.29311290409031 -7.611298987956898
-26.805951070606483 -124.82170668640775 -7.5476960609630765
-27.906855004873883 -122.874395464295 -7.532909844012765
-27.825413147446607 -122.91295426282615 -7.5548105459391355
-27.023929113522424 -124.27776537324247 -7.631059308901624
-27.700218770464403 -122.95430366347736 -7.5672246578257045
-27.655785884578044 -122.84298534083968 -7.6035406053952
-27.60565344788429 -122.85856806466171 -7.607371277152897
-27.53853296037591 -122.96140190913603 -7.622526149690328
-27.53952311514861 -122.85757902961564 -7.623767153492595
-27.477325405862057 -122.926734713702 -7.596865406463444
-27.44431984647964 -122.9677049608046 -7.605927815531964
-27.470155693834574 -122.83660171810186 -7.618360663218796
-27.428425031429313 -122.87296932581647 -7.600017062098783
-27.362594101542303 -122.94484786759776 -7.5668047325329075
-27.331640683535365 -123.00927644946621 -7.5703461224239
-24.137438234128947 -127.96207264475623 -7.582136023924557
-27.391368292276404 -122.68170370072846 -7.550189211205917
-27.18592685917615 -123.0057045195979 -7.571418024012786
-27.13457880480599 -123.03689695816408 -7.558687535961464
-27.33218065415397 -122.62857137374537 -7.622627146280072
-27.28517996162165 -122.68797152011302 -7.599202917037164
-27.21390969323193 -122.75972989821726 -7.567311540371737
-27.163731329153663 -122.77587351145546 -7.6133801434119075
-26.114426543444605 -124.56658383392394 -7.60816512312543
-26.075384988015248 -124.57182596768531 -7.574366205887356
-25.748613508960904 -125.05418528052384 -7.625036884509332
-27.15514026764977 -122.72974593413781 -7.5334523905217985
-27.146406303653986 -122.78547982325304 -7.623938743606337
-25.719563835517654 -125.02909040205222 -7.61653932226338
-27.103149663127382 -125.87889919440933 -7.518244538396557
-26.57088840748601 -126.73117663819433 -7.474705711010671
-26.32157681287566 -127.18012752617706 -7.5143162737799765
-27.065321505932243 -125.8580533321613 -7.5025686247528
-26.99960210036668 -125.89443256962394 -7.54868256481249
-26.536285205452927 -126.69554941670688 -7.478737179759006
-26.956035624820867 -125.80250220176356 -7.533100625007349
-26.929230958208603 -125.88214952301637 -7.540519992612491
-26.631147190873484 -126.24110934611598 -7.453740507331813
-26.43850076170579 -126.60618716536625 -7.500971004074922
-26.217997089608456 -127.02931853464382 -7.525476622298584
-25.950223149689094 -127.36153512879511 -7.473027055319624
-25.780514134305573 -127.71014361362435 -7.483925906477421
-26.911851785516955 -125.62929458860393 -7.468531848728677
-26.907965518954345 -125.71346801234428 -7.4653026532300935
-26.866903586110116 -125.81995456623432 -7.5398056885995395
-26.58877273695718 -126.17848525538616 -7.480501541575143
-26.3708554565182 -126.55272882169449 -7.507587975235166
-26.19335740018916 -126.77264469587372 -7.557834201354781
-25.895334446494594 -127.26972125157755 -7.520982509896247
-25.90944819026948 -127.32876821555315 -7.5123301268966864
-25.7216884756288 -127.51079004766184 -7.5189967675860245
-24.94805351606102 -128.73511893116103 -7.511369464888508
-24.921943158598474 -128.8548743039941 -7.521614595391215
-24.902098733688682 -128.93387303930118 -7.484414900413176
-26.90206467472834 -125.50328967029803 -7.463636796186466
-26.841673121979586 -125.59774284170099 -7.512701526070328
-26.807408123655797 -125.76103993362611 -7.539110844037478
-26.636845767460763 -125.86128727643565 -7.459294135318065
-26.520334144086572 -126.10275763234246 -7.501975723957758
-26.315867369901472 -126.45686927190386 -7.503746352754146
-26.214102480188306 -126.60925804824758 -7.544288983936739
-26.148005674693835 -126.67227098547686 -7.524573449859552
-25.86208667279983 -127.2157858343934 -7.530817924998033
-25.688609883534635 -127.43414818340719 -7.49087003952248
-25.267438816223514 -128.05521412009404 -7.502589966781702
-25.251947510939154 -128.13581414318148 -7.521364573415449
-25.19397158520446 -128.20783940082245 -7.520166559468541
-24.940748620370123 -128.54926961200053 -7.547350165469317
-24.926026552636383 -128.6739064244742 -7.517270554920644
-24.89101443102919 -128.7598226898772 -7.490430759120004
-24.746516024276843 -128.89965506997737 -7.52043348718351
-27.63130493584197 -124.18450419432003 -7.492735904568987
-27.551015651105594 -124.3345676506018 -7.450271124231621
-27.373974955070842 -124.55093224899343 -7.517745400062896
-27.315566702605846 -124.6042167502619 -7.531689206865825
-26.886278958118524 -125.27527246190162 -7.502872838560275
-26.843892310727743 -125.36440466327525 -7.46080769759843
-26.824208763844233 -125.44690318968391 -7.4992254272023615
-26.794023192083955 -125.55926695649252 -7.511672133664736
-26.47099079796945 -126.05491911731222 -7.525311403052944
-26.152795241522877 -126.48730046364051 -7.542428962255248
-26.119933656917286 -126.54478098862239 -7.5140578613882365
-26.088620744681474 -126.61082774189552 -7.513024102992069
-25.990001559455933 -126.71124929575271 -7.472502920142147
-25.99437274210437 -126.77327433887643 -7.494228182399159
-25.63527418276569 -127.33554050598391 -7.531289951894102
-25.611781310129228 -127.36735862844478 -7.531751167146606
-25.25660182192254 -127.91315137824168 -7.5588051779237855
-25.26342303399838 -127.99937130854957 -7.540340409184296
-25.17576486036293 -128.1049956086693 -7.513323917666512
-25.145747964929374 -128.1276137929659 -7.487673911864256
-24.914221209786003 -128.43315418927523 -7.538159007173586
-24.90155120085144 -128.50463961029925 -7.508714145495105
-24.77396228876528 -128.67329858557412 -7.510568766429094
-24.740320220623527 -128.74365346210257 -7.54184063918064
-24.6672483039907 -128.8181793168376 -7.531557328564168
-24.66425285924665 -128.90487597448154 -7.543491791419654
-27.543516518369486 -124.14243690799962 -7.494587880944073
-27.46848187807308 -124.19066011478839 -7.517973819417057
-27.390026195264536 -124.3258255580142 -7.495017429625448
-27.3522636634965 -124.40262606697704 -7.5228453682102945
-27.306327745082378 -124.47652348192582 -7.498287045658938
-27.278818763706738 -124.55592838854164 -7.496638844342935
-27.216675359488477 -124.62850232708077 -7.491190634660577
-27.023861751375936 -124.89695321669271 -7.480286666122337
-26.9471962230142 -125.0613683546676 -7.497807733497318
-26.86666781514053 -125.14435519514356 -7.485533241854406
-26.82969907441144 -125.25098574492553 -7.5025028456876575
-26.813262973610417 -125.33755573147059 -7.466495403362755
-26.763433935344352 -125.40533348625203 -7.449025246793069
-26.68807671949289 -125.49180481855706 -7.456835040766962
-26.368791259508562 -126.01940908806132 -7.547267394645821
-26.051855557042607 -126.42764770533063 -7.504146247847138
-26.048428613286106 -126.52363081764113 -7.487295797085391
-26.0169320896593 -126.59928561765892 -7.4842996859182405
-25.573771087137352 -127.20798855365472 -7.504842734695898
-25.566904580794827 -127.2661070525547 -7.5192606281754735
-25.362888946061386 -127.58568312339102 -7.521861720499841
-25.23726571516957 -127.70049434318692 -7.482555455869964
-24.86149659488024 -128.3663386569368 -7.520072549758957
-24.74149056949039 -128.59031147310938 -7.560077947897593
-24.65647767303521 -128.69085599906805 -7.5284594351854155
-24.61929601419921 -128.82629995185792 -7.5336724447603824
-24.606310305753684 -128.87321887379238 -7.53550226578089
-28.2642981636981 -122.79010150397636 -7.524378884257003
-27.759469890515913 -123.67823065417912 -7.4724714688748195
-27.644826779124468 -123.71035897252254 -7.4567608532620016
-27.608346695313163 -123.78302483096348 -7.4421566943701905
-27.576649144174162 -123.90397438882293 -7.43884281876801
-27.44272769137246 -124.10071879130193 -7.493594194202683
-27.42938255077104 -124.16747959104747 -7.514843368842745
-27.339926876805105 -124.26974963888183 -7.504432722756411
-27.32167618068953 -124.33866392422006 -7.513071594770045
-27.27763953449192 -124.43340005718761 -7.523607301525219
-27.188521323333475 -124.4501233835285 -7.534670693563925
-27.13355563395413 -124.6280232207366 -7.5139775632727055
-27.096823812805017 -124.67088286255239 -7.4988552750025015
-26.95974920114729 -124.88592374062047 -7.489200617137215
-26.920627596916397 -124.93940814451484 -7.502910978929852
-26.883329655558278 -125.0112848815801 -7.498159734687305
-26.84204206100798 -125.09456631656573 -7.474892413011468
-26.80492671317851 -125.17803732118337 -7.508562302945687
-26.04775793825717 -126.36201182348822 -7.477880966521251
-25.548072163052673 -127.1317951317445 -7.505243553813565
-25.52502134935784 -127.21105598198281 -7.530117483854601
-25.324591571315928 -127.42368338413861 -7.48643714540718
-25.272489273290443 -127.51082783931376 -7.486949795250578
-24.660409831656214 -128.44155196380953 -7.533500964301821
-24.564843143714157 -128.57595225482626 -7.50397242875842
-24.587471740649068 -128.65467383629473 -7.515587865349213
-28.202910852516414 -122.80677549341004 -7.457766900063887
