ply
format ascii 1.0
element vertex 825
property float x
property float y
property float z
end_header
-46.34655723361303 -38.48012806988915 -3.6086068476402513
-46.56097918739178 -38.90130980678845 -3.6479860382109726
-46.56947886625321 -38.95644456878926 -3.671655223760304
-46.58719525214375 -39.05454825845867 -3.682928512796088
-46.630777158489295 -39.145485109772494 -3.6992382303865314
-47.57814403926044 -41.04268351841568 -3.8616110219166444
-47.59785091542407 -41.077852338604785 -3.8549031747472204
-48.02151100659072 -41.910253946361564 -3.929246035446137
-44.39252804864266 -34.90519518185312 -3.3415166956750584
-44.72475078385587 -35.46057234043554 -3.394468628297434
-45.6069433154341 -37.25185310923794 -3.533096437102827
-45.600071623118936 -37.286154467057216 -3.535806050690178
-45.66687382837019 -37.44103822139977 -3.5509548895123473
-45.66035687268248 -37.47378309555199 -3.5630617591059135
-45.73121777916132 -37.58519023518855 -3.566048548034215
-45.794801064028455 -37.66780525843844 -3.560804028966782
-45.851244504090836 -37.75128182451894 -3.5814636770607424
-45.91246112729752 -37.78820359752429 -3.598887527179625
-46.02398823106792 -38.04478522386199 -3.60465671182489
-45.98841844491002 -38.115380602729594 -3.588216390927685
-46.06494284996255 -38.22156502115905 -3.604035519896201
-46.06048345431252 -38.26995223312685 -3.6107452637670776
-46.189828559495496 -38.46414138370128 -3.6222871193578507
-46.216919187703596 -38.574845572655015 -3.6499676690423324
-46.24849824417931 -38.63850028874354 -3.666627974851269
-46.286496315685554 -38.728625873251865 -3.6749687365693045
-46.37496918700941 -38.85485188122889 -3.680247998571353
-46.39131697141005 -38.88276994244288 -3.688553522755419
-46.456329508687496 -39.06024983692345 -3.697028132122919
-46.52676090984786 -39.0917127591707 -3.701498435972197
-46.54310836759262 -39.17744407893529 -3.7240120106953993
-46.57399491334121 -39.27421114684788 -3.726402121221521
-46.61753001500568 -39.340793879193285 -3.734067407547807
-46.80168224008258 -39.74307580304353 -3.772582678984664
-46.98131517747081 -40.09553664770968 -3.7771562955038207
-47.03472095482881 -40.17687153754964 -3.7866997301032974
-47.08021623465173 -40.2374674332786 -3.805976085149907
-47.10389078767594 -40.33391223621189 -3.8284507583389242
-47.31256659864018 -40.61778231965816 -3.805821242050465
-47.36661945841939 -40.68372977801289 -3.8178460234287983
-47.39137029942632 -40.787507021454275 -3.836538179906921
-47.44065408556316 -40.87963159673658 -3.8490379055997335
-47.47697354168561 -40.95406544183695 -3.85649028576658
-47.516984317630744 -41.03735740323871 -3.851944320826355
-47.539940952530245 -41.12712405798085 -3.8472146278536234
-47.57949458121979 -41.22594007195214 -3.875246420444761
-47.62316589881061 -41.28746470833139 -3.8746082628789167
-47.906676492793494 -41.7794846507823 -3.9175920621185742
-44.366264862439536 -35.014347278789536 -3.350214548123843
-44.390509995509994 -35.19470494698396 -3.3465335449368068
-44.59690926790566 -35.506568358804266 -3.408213465779165
-45.53051189222362 -37.27988204066853 -3.5415469667333648
-45.546259761459645 -37.32624485364949 -3.5377954974533115
-45.61928805579128 -37.469717186560494 -3.5442352145336367
-45.62243162725451 -37.512444571851134 -3.5576889249771364
-45.64546346052017 -37.58686896342655 -3.5641338202742165
-45.98945158573837 -38.16242043019022 -3.5906506061674177
-46.000400029095665 -38.19317798873719 -3.594965257322954
-46.04712739922893 -38.332792323153384 -3.620309818740483
-46.085061379834386 -38.46431422373189 -3.6251604146666976
-46.113256246918176 -38.5120816658179 -3.6323075166234036
-46.15695196567155 -38.586951109129345 -3.6428066152147234
-46.206726647617224 -38.70439920765032 -3.6627418558971265
-46.26194355388073 -38.76788638535619 -3.6696172614518248
-46.31191431906003 -38.872904811053225 -3.6847597021396417
-46.34472258274112 -38.902856593372164 -3.6823731224701737
-46.37020567239249 -39.0368738228697 -3.68341028994469
-46.427140398158 -39.13955800404818 -3.7163674683862418
-46.49233130453419 -39.20410940487255 -3.7227176810923037
-46.55210476601634 -39.31315839046565 -3.7059603246856296
-46.58402699384138 -39.35165223835278 -3.723069054272245
-46.586457060834924 -39.52697448248185 -3.7571564353342173
-46.63023102172485 -39.58681988855629 -3.7624854509548054
-46.71149929276641 -39.682769705272825 -3.7742385335157973
-46.77143388385481 -39.73717962361533 -3.7744767159377566
-46.80067291706999 -39.94510184337442 -3.761523373730253
-46.89615675311281 -40.02426104383846 -3.767162231601995
-46.9056473538218 -40.13409752066378 -3.7897247005401997
-46.989984121162365 -40.197803739315994 -3.802203241535467
-47.01538683625148 -40.28621901017206 -3.809630185071529
-47.0634665835051 -40.334556193151805 -3.823368000088909
-47.2799477711495 -40.820155220415465 -3.8240196220486466
-44.37300584855154 -35.17045706855974 -3.3352480223244223
-44.401514250695165 -35.37456866997763 -3.3351498771471615
-45.42951087415886 -37.455814522593684 -3.55044064087426
-45.477623118108426 -37.50764024956106 -3.5596306728780864
-45.53753982341403 -37.54193117560767 -3.563361467674099
-45.56581284353415 -37.63454510947443 -3.5720101982534516
-45.96446397079445 -38.403657428677775 -3.634461365195447
-45.97894054318391 -38.479863336014034 -3.645985636100909
-46.02054452676379 -38.54472768833061 -3.6401997359219553
-46.10543318080055 -38.63408569274795 -3.6347111103721694
-46.11394471949962 -38.76415789492886 -3.6683940338458116
-46.17311866361034 -38.83632758615644 -3.672189126692055
-46.1939271256388 -38.87154316591757 -3.6797468593528153
-46.376852929775865 -39.184558093412775 -3.71063241695116
-46.3849530933942 -39.26453825667674 -3.7155394689709
-46.435248953611456 -39.36638172562018 -3.734028743041483
-46.46485229156111 -39.45957900683388 -3.743958475371914
-46.508086834710376 -39.52213622841953 -3.7523111788883114
-46.58503086956479 -39.626174145928424 -3.757800186967524
-46.57607458814321 -39.696846861339786 -3.7687530188806884
-46.767927416290235 -39.93501612914559 -3.7590692017728027
-46.74997347939337 -40.05816583279831 -3.774188983559979
-46.82924644617628 -40.16727876541366 -3.77235614094005
-46.87035726042087 -40.269321852703115 -3.7983122356297265
-44.442678251670536 -35.55988621900539 -3.3971789453154217
-44.53788775764707 -35.938407903275674 -3.4425947569090125
-45.38440075353834 -37.47851456222795 -3.552283331631043
-45.423258464392376 -37.51977273454363 -3.5599346147839004
-45.461802235146074 -37.62756776549196 -3.583814012855893
-45.47016406744531 -37.69920472505705 -3.5809852327208347
-45.87307000162591 -38.457229898266725 -3.630149540225715
-45.884488609674236 -38.50993266245212 -3.6451053730848235
-45.9404060875085 -38.60240050717409 -3.6673076972577467
-45.97739238779235 -38.698856508821486 -3.672616884948239
-46.02989952292355 -38.78528861536185 -3.6683725603311252
-46.061590396835534 -38.90600763251957 -3.677843716345739
-46.1053107462023 -38.94018062006388 -3.687824622220966
-46.28842123499285 -39.344254361022536 -3.7258831002658614
-46.35834262336234 -39.366698435257334 -3.7362196981157014
-46.38483695674452 -39.49658032793023 -3.7345879855278983
-46.43250681196232 -39.58802078840456 -3.739377772812799
-46.45117427988063 -39.6635677346579 -3.741224145788096
-46.72474802788794 -40.14136466834554 -3.756865594482807
-46.728286250452854 -40.191015252466784 -3.7694115478868357
-46.808144690905074 -40.23689272269714 -3.781085248551229
-44.465947678153874 -35.82582016551893 -3.3618549475851096
-44.469815539654974 -35.85946239269782 -3.3459365381356014
-44.50190124783124 -35.986662083584314 -3.426169404395881
-44.5228243116898 -36.06833789428704 -3.4220693154922435
-44.53339931328418 -36.15096191322172 -3.417712034889789
-45.32249960338709 -37.55965160531468 -3.5624148029749056
-45.39074992456385 -37.76075224600733 -3.5849313621727097
-45.477643348625165 -37.933099630293015 -3.6013447903061513
-45.52107647945422 -38.029896435537566 -3.6092026691896866
-45.54567509072748 -38.128444076374 -3.601420786089961
-45.5762320264678 -38.20604108004848 -3.6109335271997884
-45.6347065710938 -38.32766919483247 -3.6286721533765993
-45.759712033339 -38.49898945506983 -3.6394901408615934
-45.80697287695517 -38.54497026493722 -3.6378168585805835
-45.849942471067784 -38.63599486475817 -3.650036980196471
-45.89714504856204 -38.75901514522814 -3.674971270383561
-45.935018167113945 -38.816764846621446 -3.672387535705284
-45.983938238345914 -38.89060061735529 -3.6783755635649897
-46.07240981026578 -39.14261590517568 -3.7131820803137012
-46.061319630676664 -39.160719813470685 -3.7078665065107996
-46.136581930557035 -39.2990502008276 -3.722936443556312
-46.20361716200529 -39.36735056342846 -3.7209936504181953
-46.237184367975445 -39.46004431245005 -3.7130456620584185
-46.28482420800844 -39.52139152208206 -3.7366821974588653
-46.35567990457033 -39.62502049324009 -3.737024844842806
-46.41522822617429 -39.68340280365042 -3.7386436653687944
-46.62349762322174 -40.195496971087536 -3.7652919925858317
-46.63299259540014 -40.22732429778174 -3.7726478081613313
-44.06961291492638 -35.30058207522596 -3.3101660962970842
-44.070059977707736 -35.40053181928936 -3.301526204113645
-44.18721164274078 -35.50920457008169 -3.383921887064032
-44.151424824862694 -35.60879411878801 -3.3936857007014614
-44.24051976093284 -35.7784314839862 -3.386613363635945
-44.40595987567315 -36.04624233765722 -3.3800790223644994
-44.46583669537054 -36.10955007995414 -3.4319897546247398
-44.51165034597848 -36.18136824873969 -3.414395887532782
-45.09310523173369 -37.28481416995259 -3.5626353771154173
-45.08518973720824 -37.35162028010982 -3.5672132122176095
-45.08904012100759 -37.45376061718004 -3.574214827951264
-45.289648894565346 -37.714142639982356 -3.572631048807222
-45.31672376393686 -37.78212800363078 -3.576962213003712
-45.40253989404137 -37.962750108669184 -3.5978380585933483
-45.448419682710934 -38.06705731137557 -3.6009392975456156
-45.49245857822613 -38.157414700783946 -3.603492296657876
-45.55548316764982 -38.25518989542054 -3.6179426693404286
-45.60623250300826 -38.33791040566554 -3.623194277963863
-45.666370808632486 -38.510676104626484 -3.634689907814532
-45.70120215429251 -38.59268520655243 -3.635327635141917
-45.78106214677309 -38.69452231600943 -3.6500222895036902
-45.81645322626857 -38.768447869862854 -3.666870634527195
-45.85164376263094 -38.84868878384208 -3.661298401918095
-46.04178618306914 -39.14593635664369 -3.7082328548142285
-46.030282454469955 -39.232181771046946 -3.703343234239487
-46.0637341229912 -39.331062358035496 -3.707856509556956
-46.11462638277333 -39.413129137552495 -3.7138876081145984
-46.15305697508637 -39.509897665638924 -3.7220188793190645
-46.22760280068621 -39.571938737021746 -3.7244993799924058
-46.242611795917966 -39.68282937371661 -3.7343048229343117
-46.24704670002983 -39.75831267660336 -3.7396469339161396
-46.36466050462721 -39.95109484357453 -3.759443193709121
-46.41800108523306 -40.01151717886689 -3.7642077238740477
-46.51075413331005 -40.09491459766383 -3.7837245649258144
-46.57946449636375 -40.226084475168264 -3.772548015526405
-46.58097200096338 -40.2783221752142 -3.778558537131969
-46.59177569676237 -40.35355720641211 -3.7788342754257807
-43.75593831341551 -34.94157735768744 -3.296991410173833
-43.79830259983608 -35.02405334575098 -3.313905125783823
-43.82916831175585 -35.07055354597561 -3.333126066321142
-44.05469172433344 -35.44933278531376 -3.306982479639776
-44.05533473900731 -35.50523915683621 -3.301924372184235
-44.16228754663867 -35.70545388887183 -3.40240430602602
-44.267665251818215 -35.88462216086191 -3.3852128052580355
-44.30602242311995 -35.95693911894824 -3.376449495917925
-44.352982730739654 -36.047947935052356 -3.361409328461904
-44.365630555303554 -36.11273722692429 -3.3517596550645408
-44.95916745726712 -37.33283038945282 -3.5605207659144735
-45.032682285637684 -37.404636626608365 -3.5671764738189733
-45.043561449914485 -37.498693603539664 -3.563119335826545
-45.861021736023666 -39.21210907801645 -3.6690993656770337
-45.91963404353476 -39.270278170465474 -3.6795564112845494
-45.96827221195985 -39.35122765932494 -3.689708201558118
-46.06261819707993 -39.44240283898154 -3.6993616865032384
-46.09200515968706 -39.528278430801805 -3.713016952000202
-46.13173856285196 -39.607515582157895 -3.726586865619081
-46.19516290004132 -39.69958679126141 -3.7364499888963203
-46.20917869336115 -39.79408327298125 -3.727912954119396
-46.23523702306438 -39.88553738701507 -3.7331737758915096
-46.312168506919 -39.93068834968557 -3.751249804950818
-43.948791560934104 -35.47455495580507 -3.308434240415102
-43.99218758828354 -35.55121324830504 -3.3000037553478196
-44.05336075699955 -35.729489254854485 -3.405318856601755
-44.780821462433785 -37.287802600609695 -3.5478426573860187
-44.84996638794225 -37.37132062799987 -3.5461208577393006
-44.88897207436703 -37.44492780907061 -3.553318474672901
-44.949548305792504 -37.540336995577846 -3.5599954056322787
-45.807182668887705 -39.24074060354133 -3.672347190527354
-45.866519505223714 -39.30183127377324 -3.686136392632858
-45.92168578500279 -39.359461495013534 -3.6899013654476263
-45.91667794927494 -39.52382577043544 -3.694412667720443
-45.9343411763931 -39.570378503913815 -3.694643823172213
-46.09540818204464 -39.8754842403497 -3.728606909197446
-46.16891894935153 -39.89225424584705 -3.7302569612384215
-46.18111819274502 -40.0777007094309 -3.7551254802721363
-46.202196178414326 -40.09781877837731 -3.7611654289928795
-44.59426635103582 -37.15985720095465 -3.532617579071849
-44.731058562263044 -37.345185426773604 -3.5373797596654972
-44.76289648347945 -37.401721921542645 -3.5453837569219395
-44.770577386418054 -37.50750351598552 -3.5429777916892684
-44.85913701307117 -37.575014747728694 -3.555192439940827
-45.733127593440464 -39.22663818733409 -3.667961285383082
-45.795291771137485 -39.488420000864195 -3.680358391335683
-45.860626166506734 -39.53821610841463 -3.6935775946876928
-45.90584826656612 -39.582164492337704 -3.704218636638683
-46.04678454869281 -39.82660266724722 -3.7225595923163186
-46.0619269419123 -39.903266385588914 -3.7245865247791277
-46.07865461308815 -39.972449185765655 -3.7235463653676617
-46.13247332446618 -40.0805649908871 -3.73931795715602
-46.158631529080516 -40.129187608162866 -3.7558317975367026
-46.190223175900805 -40.27432276873512 -3.7441762788020756
-46.234211704611965 -40.336017491954664 -3.767848530637585
-43.94951911697959 -36.03408230790541 -3.4108134707220166
-44.29840447896921 -36.79724142109557 -3.4949668317091502
-44.550898963664764 -37.19655348592259 -3.52646712163569
-44.58220765070684 -37.30249953122606 -3.5303254321876807
-44.64696884707303 -37.34596833921738 -3.5293097822256847
-44.71041883260575 -37.437099051508824 -3.531954167929798
-44.74198504898905 -37.53505891215046 -3.5339442729669917
-44.77900779618898 -37.62142724407121 -3.537356167413452
-45.60302272281696 -39.257434381412736 -3.6503578532585523
-45.63334161874792 -39.32474990319785 -3.6620785522989445
-45.656087921274406 -39.45791512735631 -3.6679719222302456
-45.70428363697499 -39.492270528112655 -3.6742881138825694
-45.75511434792746 -39.618077479610434 -3.6782483759272697
-45.785599329086224 -39.65197752522051 -3.6859853699964145
-46.13618269408101 -40.3294069316604 -3.7410009130394144
-46.15821273221568 -40.38912875746488 -3.756712998511688
-46.221810464610975 -40.456628238513886 -3.775605201537025
-46.33346250036928 -40.75077908207169 -3.7710917099637875
-46.38313162783378 -40.7967418277128 -3.802156252924654
-46.490084687066194 -40.92900734560032 -3.79719784851053
-46.463565437949285 -41.00052956548157 -3.796848623686838
-46.47898802502375 -41.113102556220326 -3.7979410656523687
-43.177858359123356 -34.74182204055059 -3.2532104096910555
-43.877564121019056 -36.05953701100051 -3.3937616905154115
-43.932109022413705 -36.143802909849434 -3.395996666675461
-44.184704507919065 -36.71993567966007 -3.485466380059726
-44.21365324516095 -36.840829782149406 -3.4940207371152385
-44.269597192032 -36.84935910526727 -3.48669412779313
-44.3204561943439 -36.95760899424198 -3.472410292610808
-44.39729521398821 -37.166574507894595 -3.513128428304587
-44.471772269202916 -37.21595442377633 -3.517523415352664
-44.520052116311184 -37.32231658516341 -3.522893396273271
-44.52484547869013 -37.38155840574865 -3.5317700086276687
-44.58066099893438 -37.522504249178915 -3.5257398651328677
-44.59784073879359 -37.55745697969661 -3.5288365933376653
-44.68473339974395 -37.69261701602126 -3.534566070999273
-44.70364887791941 -37.72057427338625 -3.5367733202579
-45.51104291963832 -39.294493252245076 -3.643104185800304
-45.53596223397362 -39.367000635144876 -3.6471833253205928
-45.585584572424196 -39.44953702067995 -3.6558922148374338
-45.65136728553815 -39.52403945249245 -3.6687227166248086
-45.70162429213449 -39.62877425204796 -3.6750150596702644
-45.73703331786897 -39.67181149552377 -3.6793032163996164
-46.01883241032793 -40.27278410688358 -3.719085785382953
-46.05618531428831 -40.32083337431752 -3.7345645618922063
-46.10711919425547 -40.430078741960315 -3.7482576977067796
-46.11830156366631 -40.51931769997338 -3.7530937392359376
-46.140194276866616 -40.58404780299635 -3.75241670869021
-46.29923015860111 -40.772538335815966 -3.7670957862301684
-46.34345445076235 -40.943306027595995 -3.7838557345830477
-46.49262657164032 -41.23844901926562 -3.813920176116191
-43.22405859951227 -34.88876265928876 -3.2260931172668377
-43.410361220596144 -35.40695316222272 -3.3146460670860507
-43.522613554578726 -35.61662596573581 -3.367979674293422
-43.53707073289346 -35.664266274359015 -3.3410169470773536
-43.565102002107544 -35.740489472969266 -3.3528806320286124
-43.60687608919079 -35.82932666484949 -3.3548769166236356
-43.67736497723507 -35.97924367321436 -3.3600849653156932
-43.70754492458073 -36.01454737383797 -3.3605429112354237
-43.788738772481665 -36.13130272319361 -3.377947879668965
-43.83991129473643 -36.18557910248182 -3.3842563964426553
-44.07363765735795 -36.77625970834635 -3.478562761941036
-44.132798988522296 -36.82391281421971 -3.46625939190785
-44.205148326143835 -36.93084874541612 -3.4670297574760203
-44.23506606612378 -37.02891957232698 -3.474972809280877
-44.245277759674124 -37.08253013893255 -3.4833448690346245
-44.32100468471071 -37.186308857622556 -3.4989774279065107
-44.37659648855397 -37.273926976056735 -3.5062133562322937
-44.44408573044427 -37.35673137807812 -3.518128963794833
-44.476851492598634 -37.399636905181985 -3.524057371069232
-44.5144897968851 -37.54795941554907 -3.514101339542883
-44.54752760159274 -37.6181461313099 -3.5190576517842755
-44.6117450471767 -37.71651412291602 -3.522480037888078
-44.630024818298835 -37.77863641917393 -3.5106848156895336
-45.38016931734589 -39.318763280311266 -3.635191716698868
-45.45150001023707 -39.39948114064169 -3.646537114643508
-45.51711397347563 -39.496076181560106 -3.6505292107249177
-45.5376010842468 -39.58574606844514 -3.6562425659041464
-45.60091564751879 -39.667132371533285 -3.667280412613561
-45.717862537523835 -39.92564112970785 -3.682718018726092
-46.03799576534608 -40.56095104574449 -3.742004830058622
-43.07227311555311 -34.944284576846584 -3.2344393169401684
-43.23100627732532 -35.27860920499856 -3.3187102384248415
-43.352681853120735 -35.44819073510024 -3.2925671878899445
-43.41692203804584 -35.51278353203739 -3.308752243075699
-44.03514156800548 -36.80057801095383 -3.4741612093177467
-44.04308094959299 -36.87076352013168 -3.4614553457062964
-44.085355332450035 -36.959049179664 -3.457333026562981
-44.1478994914663 -37.066398688017586 -3.4596022257312287
-44.19960796429271 -37.15167378960271 -3.4701899294171366
-44.22181080216771 -37.23254485774099 -3.474517501880179
-44.270289598498074 -37.337574878249946 -3.4817437125199326
-44.294614065964765 -37.40319209846898 -3.4905499587497233
-44.37533165674829 -37.52220538979648 -3.498557183029985
-44.41969641147122 -37.597034931682266 -3.493520478813827
-44.456619297084174 -37.682356309886835 -3.497468017379854
-44.50021467176302 -37.77269014903478 -3.5033277076817546
-44.5270485231229 -37.838021963533535 -3.501959130380209
-45.29368332857641 -39.42221490175244 -3.6260709570741674
-45.32495378695971 -39.47826004020349 -3.634890572342175
-45.386202896204956 -39.515719973888785 -3.6388815016452636
-45.50024650345318 -39.80271743439978 -3.6650523019920085
-42.96347391899536 -34.931647636647995 -3.2642106703604226
-43.06602569799407 -35.15951413573374 -3.248255944494039
-43.152686066542 -35.28575796016345 -3.2551044337156294
-43.35057438903924 -35.687499816686014 -3.2816094708265986
-43.38940673094062 -35.78866218063422 -3.2859661609221407
-43.44482456829474 -35.83410868023461 -3.3005172057222705
-43.47097676458278 -35.89752128909498 -3.3136066888105296
-43.537046117075754 -36.033694596908205 -3.3101850318168107
-43.77560745205597 -36.60224541692226 -3.41864661048605
-43.81666170303148 -36.65053178988409 -3.405729589272659
-43.84440252317139 -36.75804955837691 -3.4280024719434627
-43.92989594216145 -36.85442030038175 -3.4468812332991035
-43.97398472212966 -36.940690567475144 -3.4324876002200977
-43.982564061340454 -37.014996019009736 -3.422413952604206
-44.046201354993634 -37.08826099712165 -3.444747526926184
-44.124620000865086 -37.16569815116507 -3.4685791392047642
-44.145314725424264 -37.288105946906384 -3.465853447785956
-44.17602884048058 -37.352684757938505 -3.473867361872431
-44.25693105887837 -37.42620790251517 -3.4861278268079903
-44.26371654617558 -37.595231005872634 -3.4858367822023735
-44.327504459264375 -37.63727483821278 -3.4835240043367617
-44.36407034239037 -37.72799674101335 -3.490201554572215
-44.413164054420015 -37.81572758160826 -3.4904641470964233
-44.43877582364419 -37.87132449660409 -3.4971013332335126
-45.17929880820896 -39.32234365381201 -3.615426583262032
-45.24273010652089 -39.385674523066164 -3.6229541968282803
-45.285571597776986 -39.481463820645025 -3.630770216680936
-43.331520488833625 -35.93423086479622 -3.302118145109604
-43.37874253926413 -35.96163788787244 -3.297772649931343
-43.71194523171141 -36.6371676342342 -3.392670577050331
-43.75410326597867 -36.70477510200508 -3.3937754964165
-43.77895918734607 -36.76183659311726 -3.4162978733854086
-43.98098912845566 -37.0701380292766 -3.4182687723575276
-43.98747467837142 -37.08341274877721 -3.430226044626986
-43.992312033993414 -37.26385887151777 -3.4431606842758016
-44.07138728644119 -37.320009446470124 -3.441329448835913
-44.093540850129386 -37.40346209471429 -3.4669658612900442
-44.24892529597585 -37.60723274567774 -3.4860211276425512
-44.25772991737742 -37.67289096755378 -3.4843759772935687
-44.29615339119343 -37.756579331333455 -3.489605513785759
-44.3234622562527 -37.84578747995731 -3.4920517426078
-44.36041151032309 -37.92388054877172 -3.5012831184088418
-45.111695218452034 -39.396569111581734 -3.620430424109324
-45.15039008718138 -39.42532458710054 -3.62138622684782
-43.18067359002285 -35.86072580977067 -3.3287162738087526
-43.27509124659658 -35.911168313951265 -3.315478427921078
-43.30903873651473 -35.97435712157357 -3.3124612185765905
-43.50280829268443 -36.531779390360185 -3.38845948808551
-43.53862451773693 -36.567298513041194 -3.384453600902029
-43.607832155498535 -36.645435479815774 -3.385244218874801
-43.669358808119604 -36.70362850359722 -3.384698305300301
-43.86316646869344 -37.210955497926264 -3.4400806965946282
-43.92927890587229 -37.27730461350951 -3.4252243192446383
-43.953854549473505 -37.35723844591405 -3.4412194170981234
-44.04910285530033 -37.42490207393631 -3.4639587309903543
-44.19249009591117 -37.82943973451744 -3.4843676276653053
-44.24696065946792 -37.904281597098006 -3.4877234798969554
-44.278834509116685 -37.95930833771511 -3.4985099796160237
-45.036157076526706 -39.422872146623405 -3.6167720685186504
-45.07942481589764 -39.47584815418413 -3.6234411846725862
-45.06858584346108 -39.611551252506956 -3.6309612975029966
-45.15586238208643 -39.65112580086234 -3.6399227562265954
-42.970173967282854 -35.70175732544208 -3.3526774267864883
-43.079042829621216 -35.796970957194375 -3.3390052858546104
-43.09934494604541 -35.952010680465996 -3.3506760751473577
-43.33817010574418 -36.3751134286138 -3.3649018717498556
-43.405037195521125 -36.41046368624443 -3.3735957552979943
-43.45637180250881 -36.48346292570545 -3.3769026488066727
-43.53404479227921 -36.62882370584218 -3.381723724718297
-43.55821939237052 -36.68647247039125 -3.3852307921455793
-43.577924629837156 -36.73801507366639 -3.371146554862349
-43.7992916260623 -37.251935788454716 -3.4323738679174185
-43.8458315927209 -37.31104766071944 -3.4293001247752084
-43.878343044968965 -37.40563967514947 -3.4556309672906016
-43.918774700301014 -37.446037845190624 -3.462222691703345
-44.09418633965661 -37.789411053710104 -3.486594914947135
-44.093064202302486 -37.857530565045 -3.485578979064609
-44.150442990087136 -37.945640146558794 -3.488597910727286
-44.172388211201415 -38.01079787903895 -3.499236002620731
-44.9341592447177 -39.56577103183315 -3.624038871469382
-44.985143721653465 -39.626593695859356 -3.6307829838078267
-45.021813600672175 -39.74640688698357 -3.6384595176860985
-42.93223426763455 -35.79055983896121 -3.360328660942019
-42.93632646548728 -35.82098925229339 -3.3570343583388556
-43.05319536860574 -35.94660267448446 -3.3532755598634667
-43.06336943256954 -36.05622099583471 -3.3546571811877555
-43.09668809939499 -36.11881612192615 -3.352728792964535
-43.209557432025825 -36.31766980902416 -3.366080700648522
-43.22572179467498 -36.365389941758025 -3.3725843553429526
-43.672425023897894 -37.207516007773314 -3.4334782615381587
-43.711826184890604 -37.253956917540314 -3.426850441809938
-43.74918787056556 -37.355335249208196 -3.4335448814369567
-43.802449118995405 -37.45303007954767 -3.468068350374021
-43.866027297287786 -37.687298672582045 -3.4865867706963085
-43.946715148738384 -37.726009379362736 -3.4899235258616277
-44.00475134407976 -37.8067657954225 -3.48535241299174
-44.015981725871086 -37.899243140361705 -3.483881992178654
-44.067280809282146 -37.996645251521066 -3.4830153745542702
-44.102399050583806 -38.05115548507295 -3.497388424277196
-44.85052752739166 -39.53276652925607 -3.622216978231064
-44.860804826510794 -39.59197558523232 -3.6301671303316616
-44.92216338443498 -39.67227858409635 -3.6318778739754807
-44.94059457715237 -39.77994217868987 -3.6464795131815286
-44.980545244055946 -39.8769209696056 -3.6523498022347076
-42.852282326531764 -35.8491359874009 -3.2837800128370414
-42.926058115591786 -35.98294619268367 -3.3146183989371627
-42.98693322182979 -36.06317850648124 -3.3327241572265165
-43.05381843920613 -36.1266490039564 -3.3472721522813065
-43.05245475335386 -36.31555458724809 -3.351357495363841
-43.14924795466118 -36.35768378278441 -3.3535966572629934
-43.17692618007611 -36.413627900617534 -3.3479278559267907
-43.70829768205253 -37.428199716830896 -3.465162156385391
-43.703066376362294 -37.4434822741749 -3.4595477141702933
-43.80263961835112 -37.696895716271975 -3.4869734566393604
-43.83351192275656 -37.765407208313 -3.4887523681747177
-43.86167670911506 -37.817074281156 -3.488934205361658
-43.921465454738275 -37.947814585503615 -3.495161871219875
-43.976362450011145 -38.041053238995744 -3.493073083912857
-43.998383397670594 -38.09665992837281 -3.505198165567836
-44.778411177465024 -39.66126684670382 -3.6331467670906474
-44.81822299760332 -39.70509577103872 -3.634916396314563
-44.88018296659932 -39.81389846030834 -3.647843189299963
-44.91779871667563 -39.86895682848474 -3.649553650783667
-44.986842259170515 -40.01288598741583 -3.6585585780012018
-44.9942519373425 -40.04058904639665 -3.665288982832318
-42.365787484427536 -35.181702086553386 -3.224333346902103
-42.475380658310215 -35.327509773494555 -3.2499363639825876
-42.55246798627309 -35.43063481517602 -3.276062420516914
-42.66722196125724 -35.5816458264512 -3.2789577608793956
-42.69070120540877 -35.61451725349247 -3.307937537361164
-42.998956551417635 -36.314653145908906 -3.343623673070264
-43.00905399733781 -36.39349289320339 -3.3516246945763237
-43.099592664356884 -36.51319088835856 -3.3718605465648146
-43.107590058098054 -36.56661250405971 -3.3859325976607426
-43.726749880916174 -37.73045329716262 -3.4937230063437785
-43.765988471064674 -37.790605076595085 -3.4932472302599074
-43.72729778857426 -37.88188371989583 -3.4843830806717224
-43.84224751578514 -37.974931044133484 -3.5089617488059783
-43.88521694979557 -38.08900634985841 -3.5012642162557763
-43.93578891027418 -38.119328351477535 -3.5020836469302417
-44.3378657405169 -39.078510397855744 -3.594513492440204
-44.37781687914721 -39.15807986275389 -3.600090001759386
-44.40249859511196 -39.217063728773525 -3.60929355791545
-44.481366900427034 -39.37531941981377 -3.6286779559700335
-44.52001563902884 -39.448444258214884 -3.632284108802719
-44.53756593813625 -39.479142479499515 -3.6377557826159665
-44.69282369247812 -39.671731559019584 -3.6383453064731968
-44.750253827450535 -39.72905187781095 -3.6493480383116106
-44.745975113854406 -39.86528049567785 -3.656071658890003
-42.980485333108035 -36.465703722662894 -3.3490853729511527
-42.99507395710095 -36.522202545387984 -3.3730354677736694
-43.01923030309574 -36.61038244952024 -3.384242713962967
-43.084325856549974 -36.641485574802715 -3.3887857532185226
-43.41981634696499 -37.450231859444635 -3.47886350411041
-43.45968661462059 -37.50480110981531 -3.486318640450219
-43.48476469165559 -37.554658060457 -3.484814622239589
-43.56104353608796 -37.69194375464825 -3.5020650456774653
-43.61622897644071 -37.78045934841291 -3.4931947816593905
-43.65637749079995 -37.83215630427221 -3.497148042836562
-43.80514542263795 -38.09044528093024 -3.497817682548752
-43.918033901605156 -38.39653824558785 -3.532856945867483
-43.961929302668814 -38.486283382120966 -3.5442182874285177
-44.009174245929835 -38.575307673201145 -3.561870101306867
-44.05544507906199 -38.65820256182178 -3.575855477680353
-44.10370791892109 -38.74635361636641 -3.5789161694392844
-44.147622688308296 -38.82700617227063 -3.5852372620475923
-44.18690830371427 -38.92154506536382 -3.5939081340414667
-44.20125124887201 -39.00375032411996 -3.599448679837113
-44.30680359148587 -39.08111308906379 -3.599014628911678
-44.366247320487595 -39.16721386759505 -3.6042887586731793
-44.387608737911705 -39.29164263141507 -3.631667130957578
-44.42040175213681 -39.37194463201817 -3.635359071588165
-44.46390380186046 -39.46269349298531 -3.6357852043386223
-44.4978544325623 -39.531918140941016 -3.628851725554264
-44.50483260976174 -39.60956049979289 -3.649062574379265
-44.61569741775534 -39.73541067331638 -3.651732760102681
-44.70544120412041 -39.89630100832829 -3.6623605202465086
-42.87221503520931 -36.51648262952659 -3.324349084498278
-42.91305342502787 -36.60439995486418 -3.347091864538758
-42.950691074309475 -36.650465957795916 -3.3657435748128224
-43.36986808794563 -37.473386448798756 -3.4876765979775897
-43.38248402791476 -37.502938826473155 -3.4894821873597204
-43.48497086182485 -37.71177720499248 -3.4960503841979484
-43.53805176778299 -37.757729089682435 -3.469679692787411
-43.82453467708808 -38.376010576301965 -3.53975521256085
-43.84445405697602 -38.439384843161506 -3.543220508835647
-43.89515838362628 -38.52933697627952 -3.562574581726487
-43.92434723036844 -38.61152202772803 -3.57791569983875
-43.97629580685452 -38.70590666560623 -3.5811266336652086
-44.00988527990224 -38.775666164904194 -3.5863893438775953
-44.08813854222188 -38.88855229838772 -3.5977716339948707
-44.11496980033494 -38.95250147207808 -3.5964878664031805
-44.16655059088381 -39.074821754357764 -3.6064082838589675
-44.294818369754914 -39.32422590027281 -3.6369853955335896
-44.33025003006805 -39.41465153574966 -3.6446588834004876
-44.37451101737995 -39.48902690547675 -3.643223712174018
-44.41938566800323 -39.57527091152446 -3.6511185555867636
-44.44247011987039 -39.66754215724985 -3.6642369179927963
-44.52660743614725 -39.843223284007706 -3.6544331271570565
-42.6416894470212 -36.33116543611505 -3.3701628993215964
-42.73890520848183 -36.40638244486221 -3.356277933946572
-42.72223569810014 -36.53263888760708 -3.4039182120112708
-42.797900405600274 -36.620068506546936 -3.398871436904158
-42.845052586351784 -36.67299355049345 -3.4114054455641964
-43.71328930426663 -38.406001093057 -3.552490228001488
-43.73133585706291 -38.47794494142625 -3.5576997181305963
-43.79087462434737 -38.587120405153385 -3.570715286711313
-43.849057253580035 -38.64011046234117 -3.579733545882659
-43.9056016232925 -38.75303299079123 -3.586829045662273
-43.92280027072636 -38.812494063889154 -3.5880814928935916
-44.1316579794575 -39.342193357074294 -3.6261120009746564
-44.19308388775021 -39.37064578413599 -3.636276587224226
-44.236478645689665 -39.44705267954771 -3.6414908858206605
-44.2867047650606 -39.55674278393182 -3.656596185061014
-44.32620717365563 -39.646556587482095 -3.664061894020604
-44.380717258097526 -39.71829870300777 -3.6673543920098384
-44.403732292531686 -39.811565699505756 -3.672486278569831
-44.47054541548717 -39.89156640889153 -3.6612826866304866
-44.45152641632929 -39.9729269413207 -3.676683575114553
-42.66490574096359 -36.5509924128843 -3.4048459378976967
-42.74487893940179 -36.62027424856767 -3.4022075803111145
-42.79409628958376 -36.89058059179824 -3.435663260559592
-42.82499673242833 -36.927762556532564 -3.4236239571544957
-42.87855294841267 -37.015935290664245 -3.427289365939141
-42.94708227749063 -37.111221124716586 -3.4330807221023814
-43.573825876099114 -38.37671394328679 -3.5537162751691125
-43.61917173053521 -38.432172533164255 -3.5535411521870257
-43.67700934435117 -38.50755451583372 -3.556871217779223
-43.71966607639913 -38.62271104682249 -3.5653688523941933
-43.74250115714108 -38.69162727170324 -3.5743338245786624
-44.106017496737635 -39.338797539874754 -3.623286144313031
-44.12352866609164 -39.40652028975857 -3.6344213408096184
-44.16576123926976 -39.489496576203805 -3.6458606984906847
-44.192567275736785 -39.577996284413 -3.6535784319415603
-44.2670916238363 -39.66961403560641 -3.6644464388137497
-44.291510859981315 -39.76061689581141 -3.672275426652544
-44.33930757960774 -39.85034069776352 -3.6765539825326568
-44.37513157152167 -39.944487989190335 -3.6850233932144043
-44.4058176059312 -40.014470123001374 -3.673988956346219
-44.54950983338442 -40.39500579430768 -3.688743671661319
-42.742000135898095 -36.88715292501636 -3.4293617827267484
-42.77433163080765 -36.97931762970901 -3.4339938226824014
-42.80320152909224 -37.0007488455696 -3.4260418000963115
-42.8270299157961 -37.139400982057246 -3.4383826302192753
-43.42811214735496 -38.358268052564505 -3.523364072821546
-43.48060182406408 -38.37386406840921 -3.534825759114781
-43.478512087500384 -38.459304129983025 -3.5363539597658464
-43.537810224979474 -38.59951530220537 -3.5565304719156114
-43.655022528519915 -38.66326087135873 -3.5681545155346606
-43.67612577335139 -38.70243679447842 -3.574488813656896
-43.945235322509404 -39.39192281440722 -3.619683054283537
-44.06281752166763 -39.48591953991383 -3.6451837470832826
-44.11622356335827 -39.63801206038016 -3.6483766787102065
-44.207198735835085 -39.75072278778501 -3.653969733991171
-44.18468068381738 -39.81832105660139 -3.664739428599674
-44.27617210191917 -39.91690985909451 -3.6823131229198482
-44.287144297967565 -39.98936073677673 -3.6856234437761834
-44.34137811497011 -40.104926951691354 -3.6783372372960144
-44.35017543391428 -40.16147359957307 -3.681344980343827
-44.5233840725046 -40.42688020622004 -3.686247464561046
-44.52022688249147 -40.50869782248687 -3.679008409664762
-44.813632887916604 -41.072553223257835 -3.730175213506561
-44.81649667526565 -41.1260189853039 -3.7405026278029254
-42.07746185298024 -35.88828532532051 -3.2882979770117067
-42.143392118299566 -35.968268117677574 -3.280202634186272
-42.75509484435056 -37.09887551528528 -3.4477242394789185
-42.74866571479865 -37.18031473725302 -3.446387633676325
-42.819779697833965 -37.34857831826218 -3.4426715063722226
-43.36410969140748 -38.365691906944235 -3.5366189608574126
-43.41321468629401 -38.411790553682096 -3.533252132379936
-43.4370256557161 -38.56867401169495 -3.5601080724313614
-43.487777455993246 -38.611399686959594 -3.5586725426271615
-43.513490164755005 -38.67230767396808 -3.5594759243335616
-43.55887832347457 -38.80452175963936 -3.569685123588108
-43.88277458660613 -39.41945290265772 -3.6243806954080093
-43.91828139040504 -39.464072717155894 -3.6350424035643423
-44.035948517752914 -39.684405153646445 -3.6556148217191526
-44.04922108966973 -39.76217932038197 -3.653525933804997
-44.11237406344318 -39.84919206434024 -3.6546835017679755
-44.15164452933919 -39.949450025615384 -3.6679609973756326
-44.18824612178267 -40.024756057898 -3.673490681543676
-44.25488465493975 -40.13784396445041 -3.6832393619358963
-44.27042395859555 -40.21151494508204 -3.6797545371390776
-44.460624266934786 -40.464337608445334 -3.679335166357288
-44.4640296049381 -40.61283132731459 -3.6874166854877366
-44.48051293072588 -40.633658713348474 -3.702901757660944
-44.75365126889102 -41.1336548063813 -3.7267859597422848
-44.7930408087257 -41.16581899143439 -3.7465978036472825
-44.91393659385756 -41.507339571489936 -3.758665567296229
-41.86493385922887 -35.68785951886328 -3.2402947918815537
-41.98950157992385 -35.80487930981815 -3.2638563080604124
-42.03008168254577 -35.857936856948264 -3.31661502880236
-42.024482421099734 -36.03586994791036 -3.3097892456078215
-42.08728380670599 -36.11476881498425 -3.316221969178617
-42.67846875713433 -37.248265637016125 -3.448330734840543
-43.23072859929514 -38.443480315564464 -3.5329076033355484
-43.30446581068284 -38.45032403888058 -3.5183984555283336
-43.3917428969317 -38.60044317802045 -3.5582834632516946
-43.38205159246227 -38.64825442627502 -3.5508793990859444
-43.42689774085565 -38.75609603049063 -3.566101788957012
-43.49175579458507 -38.827516270237474 -3.571032826058963
-43.52061246304315 -38.90464485848464 -3.5651848425482395
-43.686165033163256 -39.30043102266404 -3.6038991810237406
-43.732100750058265 -39.35526973438935 -3.6009353464771956
-43.80637805332327 -39.474528105784 -3.6228768951711268
-43.834983482737876 -39.53841658861959 -3.6212364079019093
-43.87716708373911 -39.64625370496215 -3.6265323013650574
-43.885415497586166 -39.70988760902601 -3.653760056539729
-43.983244744832206 -39.838070724031056 -3.6430383352873354
-44.01906212633071 -39.92246137599688 -3.6507496331587292
-44.05871997487062 -39.98721780387944 -3.6587195469246017
-44.10784079162377 -40.09346103050296 -3.678666380797573
-44.17637304490156 -40.14750689661837 -3.6888887375647257
-44.192836352598725 -40.29993968787627 -3.6765746002499693
-44.23195242997173 -40.35619840930841 -3.682051576525117
-44.27725453665035 -40.43167986062755 -3.685105967756021
-44.343864014090876 -40.62933964187444 -3.6790569542910427
-44.427170777976386 -40.68078873388556 -3.6916686002224353
-44.439333608650884 -40.7998684296919 -3.690947786277378
-44.46667867101843 -40.860250359405065 -3.6949508336194663
-44.53389876007848 -40.97925944256358 -3.7104805335748403
-44.57304112504809 -41.066387545583 -3.7204665260334138
-44.6256763602044 -41.12331260947687 -3.7220085952373863
-44.731556971971486 -41.34060215656199 -3.7394290588403782
-44.721581717642444 -41.40845514290144 -3.7484748898215785
-45.29303418311638 -42.493427678623746 -3.846765040120243
-41.7124882935472 -35.52525643262218 -3.253279282938602
-41.76579948992704 -35.58326162490396 -3.26055882784257
-41.821300711665884 -35.79968871576096 -3.234360698558657
-41.86166687434231 -35.86721352062649 -3.2460631916156397
-41.91687038958857 -35.92657573478406 -3.2682011907749415
-42.60283990073317 -37.276770042773784 -3.4510313345673564
-42.61211246218932 -37.34245273446755 -3.438220035556377
-42.66119261118357 -37.53813961746156 -3.425791130303882
-43.04995352386021 -38.28859024731002 -3.507121976513438
-43.187153129053094 -38.437424800431906 -3.5156975274076103
-43.19504015372957 -38.518364489167304 -3.5317157258414387
-43.232267312836136 -38.619326168179406 -3.5464877039734
-43.289309993318795 -38.69242811266341 -3.554550291539906
-43.387812592774864 -38.774353879161204 -3.556243014339937
-43.356201919930285 -38.90691513826925 -3.5259442772921883
-43.42682729530721 -38.954678783957554 -3.5518796314787835
-43.58599358560542 -39.280621779850044 -3.5920132816110426
-43.61238399660484 -39.342741376145575 -3.5941542351191478
-43.65671159826581 -39.37829647322859 -3.5990861358650155
-43.72152791419561 -39.49679621532621 -3.610059051657388
-43.70128335556565 -39.58467367685547 -3.5892235143253135
-43.82602656782371 -39.71136476232872 -3.6310474171303317
-43.85666227409917 -39.77619542821986 -3.6405950943336496
-43.894478587414966 -39.83275439027911 -3.6372347335498505
-43.94455160328655 -39.92238606427831 -3.6561915981199116
-44.03596236986664 -40.058496186215244 -3.6696621005378995
-44.03300449092225 -40.1287174969664 -3.6735809071321874
-44.03735451628755 -40.21444174893712 -3.6719945941537584
-44.15860741282891 -40.322219654976344 -3.671373945412581
-44.16624275818734 -40.40057809961352 -3.6834580574225217
-44.22416154894623 -40.45568062519752 -3.684049621320018
-44.322723870921635 -40.644009371139134 -3.6859814939198428
-44.36080854570899 -40.76049690798136 -3.6891127029362165
-44.384163915551994 -40.83937607694585 -3.7032798272780383
-44.441867107780894 -40.93289135226247 -3.709757129687122
-44.47407533235805 -41.01634274977625 -3.7160956785417527
-44.535429442287764 -41.080821658552665 -3.7294574927181827
-44.590697322330676 -41.186194480035816 -3.735314559791478
-44.719696859560635 -41.47456070005302 -3.7708690015062016
-45.347186583508275 -42.709859875822026 -3.8634766796688687
-41.75373461959023 -35.81763768877513 -3.2601957136166355
-42.52459479960132 -37.347776558156454 -3.4438268815258013
-42.55661700235924 -37.403197381583844 -3.431206336197481
-42.59425253926816 -37.496114521648146 -3.427950505168245
-42.62890910757565 -37.56590159346244 -3.4436167933921573
-43.02424933429571 -38.32281973341935 -3.504928733151365
-43.010490093739215 -38.39261507677096 -3.493877627686916
-43.07993979928903 -38.504920504893974 -3.4958402834363427
-43.1255154454738 -38.554954759516995 -3.5191898924628497
-43.18306856413625 -38.66627612350129 -3.531985260153224
-43.2107769771186 -38.739633855483305 -3.5223963700011423
-43.247263538109515 -38.831951900593964 -3.5035084950352795
-43.30860391508323 -38.931999839436635 -3.513620059552221
-43.33290041063491 -39.01850451701069 -3.5266386637853557
-43.51608914421854 -39.31124747268848 -3.581395477746011
-43.523341788700314 -39.39471278377707 -3.566766753732093
-43.574750160321216 -39.41659388210713 -3.580836277033936
-43.629669465540196 -39.53958128708997 -3.587183242015425
-43.641187957672166 -39.62809364352641 -3.5959640952051304
-43.783292691903114 -39.885336020599716 -3.613149460173097
-43.86000353764273 -40.145335832494524 -3.6183134152273446
-43.934859677139556 -40.16423437406571 -3.643150453810332
-43.9703248699069 -40.276705425728935 -3.6738090855060084
-43.97146240492944 -40.32262387832505 -3.684324913580198
-44.06410236074141 -40.45652101394999 -3.675893239291174
-44.109796208329534 -40.51291791058186 -3.674878205856159
-44.33897282981417 -40.96187725526103 -3.6975358637497666
-44.39310136793364 -41.074677672763144 -3.7239119245866017
-44.476297093228744 -41.190434571144884 -3.7320897046571977
-44.65175448143811 -41.65892495498791 -3.763298474214607
-41.58948117506526 -35.688091246782314 -3.2458385770490534
-42.97249973366858 -38.466698530360524 -3.4860983422857994
-43.01190994519754 -38.520614030481056 -3.4881135037274396
-43.0173780549186 -38.62176028676718 -3.4832117095409125
-43.09806410148821 -38.737047516603496 -3.4917490569373584
-43.126975180194535 -38.751863046006356 -3.4881647741977884
-43.20397904544355 -38.88657718492214 -3.501377184077842
-43.25100342944603 -38.97397824943933 -3.509474313378869
-43.28043326455532 -39.02441828851543 -3.5233401636324104
-43.37727093092257 -39.27930264175157 -3.546373024047888
-43.39258839398607 -39.323043885341846 -3.5566183409032814
-43.44444054133759 -39.38511927814433 -3.555244356011128
-43.54586652093812 -39.590969408002955 -3.5697378675417455
-43.574572369085644 -39.676441457117505 -3.575554923945581
-43.724382562034066 -39.92458168217151 -3.5992432849673826
-43.76923568346509 -40.05317450548619 -3.6129399744725363
-43.794400322474246 -40.10586096100401 -3.6158944337171466
-43.82588637922054 -40.17989115616353 -3.619898511719244
-43.899153991316474 -40.31949839706287 -3.6559081140805487
-43.92027505443793 -40.35296360794487 -3.6754875363174313
-43.99065921038208 -40.51389688839531 -3.653049806476152
-44.0324302297941 -40.53814927640112 -3.657572547569967
-44.06353820636563 -40.65664669113439 -3.6693852608698787
-44.05344796013929 -40.737489506273974 -3.674799229000196
-44.28699728727025 -41.01032360489294 -3.7060364732643833
-44.60124539465966 -41.65286110981082 -3.7611884788509444
-44.602863047911654 -41.74500699892554 -3.775555302234403
-42.80336656351244 -38.433833743770144 -3.453433591794206
-42.837663237397024 -38.486090757569535 -3.4567850922795036
-42.90792696408499 -38.61584583327825 -3.477237656720342
-42.968916655465854 -38.66394752008324 -3.4783608904908276
-43.013238513670544 -38.70591285022679 -3.4794760837615377
-43.25588044064772 -39.32561094352423 -3.56946524500981
-43.296935030088996 -39.373234083851216 -3.552321845977721
-43.50387542939581 -39.73667586226187 -3.5754731035474063
-43.61481393173547 -39.98311116732017 -3.5957824159214846
-43.68624921325292 -40.18365698471646 -3.6149708262399654
-43.77007135644024 -40.34451950074042 -3.6314453914877447
-43.84220802913762 -40.464093915063394 -3.6547008415040443
-43.879586269235034 -40.53668752443383 -3.65831644031891
-43.92591105978944 -40.589011264212274 -3.664627245493353
-43.97940387604226 -40.72773631848462 -3.671979558707974
-44.00515502558308 -40.812918875742795 -3.677117262029679
-41.40164460434495 -35.88817149603807 -3.278373656295742
-41.467632021666425 -35.94438759747998 -3.2670339409272
-42.795057524471794 -38.534359786519126 -3.467514117619112
-42.86264396475799 -38.62674451177619 -3.465297125876995
-43.23073886324961 -39.36930036668456 -3.5732008814912124
-43.31160540741532 -39.52094244553598 -3.548464899299032
-43.451929209123236 -39.79896731235324 -3.5768375788906894
-43.38739948324796 -39.85809265116286 -3.584094176593703
-43.625807232168974 -40.231090774957295 -3.617484859244554
-43.6816333514859 -40.39882924374316 -3.6322748634248274
-43.76492465808232 -40.50686971384787 -3.6496499040640673
-43.83169135813403 -40.54206086703122 -3.6688429351754
-43.85684755216901 -40.615662508471154 -3.6705906792745853
-43.93518204049256 -40.86325626594134 -3.6891958939338902
-43.96511592205955 -40.916801702159766 -3.683664155428446
-44.13997438169075 -41.15859435009055 -3.699703352066797
-41.31625429841228 -35.927272407206225 -3.2543210946236742
-41.39131899779442 -35.97967276076633 -3.2492364721961806
-41.43322075512335 -36.04573822822654 -3.2440024579303426
-43.34361717280019 -39.84210520355048 -3.5752521409590816
-43.37661980551651 -39.86350381795393 -3.5907158741311394
-43.60208521699213 -40.45760755733907 -3.6306876202442697
-43.673398529453124 -40.52689100449141 -3.6479237340293293
-43.71904747326648 -40.57032863690369 -3.6569640474890845
-43.90431167880031 -40.913943014678495 -3.689391647683661
-43.892933145581836 -40.99339712499207 -3.6912348547922496
-41.24195202250287 -35.942310747646474 -3.2549999121518383
-41.27552532577555 -36.02198518277016 -3.2376110238692464
-41.33353453848978 -36.13654250966455 -3.229161763926141
-41.34720412806832 -36.21433539632999 -3.2349493183755094
-43.569947326271674 -40.476812135016715 -3.6319731073782204
-43.59891161546918 -40.556001925038 -3.638468458636487
-43.70302084670896 -40.77950837864241 -3.66210021299925
-43.703892002281826 -40.79408923758459 -3.6649182873616963
-43.840397861935784 -41.0542947899736 -3.6856378246110415
-43.829640664482056 -41.100710667634075 -3.694408426423502
-41.123624261387846 -35.92522422806422 -3.2288296330620465
