ply
format ascii 1.0
element vertex 840
property float x
property float y
property float z
end_header
39.97578731828606 -213.03389168667374 -5.065384654987352
40.09880701239649 -212.2047786701334 -5.0507497886882575
40.12098286678098 -212.10012176273216 -5.048980897482532
40.17285768541476 -211.98781431340353 -5.047265707817401
40.29424103112747 -211.27372436701313 -5.035275037878526
40.407028340632394 -210.55541105405425 -5.023622172129444
40.44413516046094 -210.46055039752903 -5.02232411227271
40.64541810145499 -209.39689799013811 -5.006701659791676
40.68380430409365 -209.36721642138681 -5.006637318211994
42.098519637591366 -202.90512321016752 -4.982300569509002
42.18899878054974 -202.46725922775806 -4.985857662156126
42.17785436899981 -202.31802446418445 -4.986440125288421
39.76283493528039 -213.20273709181922 -5.067472610033304
39.856625523082116 -213.10901364104768 -5.066163929772482
40.00146419437862 -212.1821545381387 -5.049734758171873
40.132052891052545 -211.75388565459622 -5.042735028466253
40.09499529045273 -211.60550370499143 -5.039811104024026
40.35007265981764 -210.5125224559861 -5.022408958840541
40.719799602628484 -208.99576674150921 -5.001225639132634
40.84561983871164 -208.2557914263768 -4.991519029438979
41.05291976294952 -207.24949047704123 -4.981051544238684
41.06284888189456 -207.23222700583634 -4.980996190904577
42.04361406116379 -202.64822813749643 -4.982390732439163
42.122308697631254 -202.29094640321418 -4.985613421904315
42.1104843739334 -201.98853289281612 -4.98721750650178
42.1732600307018 -201.89933248647864 -4.9888855541599355
42.19099393510252 -201.81251624901287 -4.989775696529513
42.18193845657749 -201.61990691944231 -4.990969149628558
40.27233352545422 -210.43302171251324 -5.020376260354192
40.60576667916063 -208.79088682257728 -4.996801744655268
40.63488265663365 -208.73937712126673 -4.9963153340889095
40.74152858028718 -208.21310114235482 -4.989645677995162
42.02928365960061 -202.21027636254155 -4.9844056185888705
42.07138472124201 -202.05699778115235 -4.986088565588098
42.09473533716057 -201.8033732400483 -4.988167775471792
42.10855504519629 -201.68409836957034 -4.989248735952075
42.15313950843068 -201.5267733034974 -4.991180476315536
42.14913624977862 -201.35036572374415 -4.992475077360529
39.52436723917063 -213.31186592173367 -5.068447919864891
40.45961739899026 -209.2317738263111 -5.002137838975904
40.487187231092115 -208.8238921654519 -4.996034745077425
40.57810530689293 -208.62433425020032 -4.993903070906138
40.653079145092 -208.19947180805153 -4.988393941995266
40.798284039593305 -207.6848850461201 -4.983025092478448
42.01563200750146 -201.7775815259856 -4.986982889332923
42.01694688769584 -201.6521392288734 -4.987909486676641
42.025427750197395 -201.58141855222115 -4.988586297958202
42.041799289112994 -201.46908815789055 -4.989730658158597
40.36038039148387 -209.1962002050203 -5.00054461527074
40.379001193522775 -209.08710131949115 -4.998993939542658
40.4253345357543 -208.74924237512778 -4.994203646385574
40.442474735705865 -208.70118783961473 -4.993652525518554
40.544444956714024 -208.19285778576696 -4.987005972069408
40.5829038503466 -207.84269480972745 -4.982413300730406
42.021743292431545 -201.38423130323477 -4.990071811501882
42.00641649658166 -201.24832204641166 -4.9909345750898355
40.49378935590457 -207.8404014613362 -4.981287143726275
40.56592445197731 -207.79949132730272 -4.981604788110807
41.9021487176755 -201.3923872365972 -4.987992747131006
41.8427677581747 -201.28227106556216 -4.987921566742341
41.91157101258251 -201.20049614275982 -4.989762485710493
41.980154204440794 -200.92159173379093 -4.993377836477158
40.40007410808043 -208.11572585818 -4.984169004036626
41.78225908589931 -201.4713003238959 -4.985312762704509
41.789691907865 -201.35372350036056 -4.986410127958101
40.00393919717826 -209.47400372735106 -5.001679658977135
39.96308876086574 -209.45264935329436 -5.000943931910128
40.00400682385075 -209.18425324293105 -4.996830660732167
40.04470262938943 -209.02910367775166 -4.994673314542199
41.69445359280435 -201.44411633693662 -4.984081258005723
41.677259375329356 -201.26005632738924 -4.985357670766089
41.78930128081844 -200.90343724633888 -4.990430414270982
41.78961429419884 -200.57296746113514 -4.993693517648507
39.602637740696345 -210.88173128028427 -5.023378672257182
39.90757502899353 -209.49463532787095 -5.001168620920494
41.59138287603934 -201.22482683944833 -4.984266010023081
41.492900810598684 -201.21016489705502 -4.982765718361548
41.52128887385382 -201.05515862301712 -4.98468586340347
41.53068335874673 -200.97921953875277 -4.985541790065045
41.62223418057675 -200.75436568774896 -4.989204538789585
41.62104867653085 -200.62827324787833 -4.990483035991308
41.67263271471358 -200.13993511899332 -4.996477300678881
41.71920283987739 -200.02096292681088 -4.9985293327550595
41.40102153534619 -201.03077283674938 -4.982983664089109
41.514334328089994 -200.86932137089192 -4.986352995283297
41.53329470691631 -200.42754550705547 -4.991230549925995
41.61104551133863 -200.07326254413994 -4.996300581667554
41.3841854084048 -200.97101010421008 -4.983297206564267
41.335564916752375 -200.90670368456932 -4.983163630834829
41.37834186627528 -200.68599146360947 -4.986077463302165
41.43936982036547 -200.4799513310714 -4.989219015179792
41.470680033608794 -200.40602957349546 -4.9904971748866656
41.48391852494655 -200.32949516329708 -4.9915258147816335
41.47556603823887 -200.25659337942542 -4.992229161155632
41.494536758915906 -200.10472237407666 -4.994207982408726
41.65549826936787 -199.71711175435124 -5.001104105453108
41.30794489970305 -200.78102770038265 -4.984010697696222
41.2909872468543 -200.7188224494899 -4.984397684276416
41.339448267672694 -200.61164536277622 -4.9862806696135005
41.35276816897774 -200.47633037176786 -4.987924812408147
41.3576487516695 -200.39365803187994 -4.988927611485157
41.382221619197296 -200.2983938666409 -4.990337844228287
41.39451021481171 -200.2078297506602 -4.991564726170228
41.40809429422245 -200.05806968482779 -4.993464145495544
41.401245904249734 -200.02186037302428 -4.99379835670106
41.45543518159777 -199.9085900562227 -4.995909025399447
41.47073620220597 -199.82275961875158 -4.99715805792125
41.50119215125041 -199.682158446969 -4.999281959699587
41.510254189063616 -199.6545626683114 -4.999761019903505
41.51469210071655 -199.52773447063495 -5.001352930659582
38.41334513544304 -213.74827189515418 -5.073360332293735
38.43197800898459 -213.66086389500157 -5.071652636467326
38.452923958588336 -213.5953198550586 -5.070435708915175
41.24512217159004 -200.70059261238868 -4.98386054101323
41.42543106265385 -199.81492261359384 -4.996586286970595
41.35099094619329 -199.72970751834606 -4.996576625452217
41.407376335192076 -199.62064077324834 -4.9987117833433965
41.447005306879824 -199.47817858276946 -5.001028367471564
41.41638445393191 -199.42612125190954 -5.0012646470993465
41.55522673619853 -198.87538522909352 -5.010235511532904
38.295276725826156 -213.8850264892934 -5.075834396287623
38.33360999904206 -213.71091831369975 -5.072469936487864
41.21884475455797 -200.28729238919166 -4.988047596834995
41.38125290771066 -199.3789633740376 -5.001364911033451
41.44012568321383 -199.0749111419959 -5.0060911794227145
41.522605830727706 -198.8192280707207 -5.010546389722548
41.51530379097703 -198.7344476566422 -5.011574392102445
41.553885437784906 -198.58417198870978 -5.014094511960628
38.231753656011776 -213.73809851547824 -5.072797182240269
40.22975384345338 -204.44931825591513 -5.0793183793341
40.26328232374915 -204.21685449007728 -5.079910400501305
40.27400703554753 -204.17761788336406 -5.080353366686213
40.272845197467646 -203.92882032298448 -5.079979048248026
40.28519895809028 -203.82139901393705 -5.080771717372069
41.11737298255068 -200.33901643521975 -4.985931632487297
41.25938576143434 -199.4123839401106 -4.9992520878594195
41.281128815270115 -199.34371740924468 -5.000443196502921
41.31703809615195 -199.26117355543897 -5.002009443957886
41.359615844168715 -199.18720290585063 -5.003520970853696
41.43219236539779 -198.7653017283729 -5.010060112670587
41.453736722587 -198.59543256735222 -5.012632514660633
41.47952216508624 -198.52925278571269 -5.013890208814311
41.447468464966185 -198.37401862782386 -5.015573729920696
38.08078082325281 -213.900105162763 -5.075801125995659
38.10038580894151 -213.80159703241873 -5.0738494232996185
38.11904172715973 -213.69298898998642 -5.071758771572967
38.165654581613694 -213.56510515062328 -5.069299482645855
39.99302853819966 -204.90935170428278 -5.071706461426854
40.15412509988532 -204.30722130986499 -5.074478376668793
40.17407978978296 -204.1905451729035 -5.075066438721739
40.21033201366388 -204.0502576021332 -5.076685053479439
40.220877700238674 -203.91571572658628 -5.077198626390583
40.262588739891264 -203.74470536979538 -5.079756263839812
40.26788871070122 -203.55241541901313 -5.080888349913089
41.013242724664245 -200.29050236391856 -4.98498556625182
41.238580488604306 -198.86247868985274 -5.0062532813028655
41.35754680602544 -198.58809735767466 -5.011508353576355
41.40595912543729 -198.42133273012823 -5.014411543024316
37.989757850064024 -213.99439356146792 -5.077564669952813
38.014262800967494 -213.918775908461 -5.076060655450175
38.19678199992459 -212.83105018001922 -5.05485455037505
40.09866892330315 -203.87716845720635 -5.07071109035365
40.16353039952348 -203.77256535905255 -5.074387125358255
40.17576447564025 -203.5748253685053 -5.075849304868496
41.22562292214671 -198.5044918535399 -5.010848548057588
41.44303699812025 -197.52714256340857 -5.026604710540062
38.12010572948716 -212.76435508384395 -5.053398427732129
39.92784239127331 -204.3708365844633 -5.0628161217400685
40.03577888875789 -203.6006325444595 -5.068266554752055
41.09386838008942 -198.58058375305166 -5.008064246891202
41.22483656456239 -198.00352671389888 -5.017381110916507
41.23629498485042 -197.9242948762975 -5.018571491634791
41.30579325998172 -197.79309879942969 -5.021253065044598
41.31478859308566 -197.7365506013084 -5.022105545214128
41.324797262083266 -197.61011332993735 -5.023937979468628
41.403578296744584 -197.34339343661534 -5.028535752090089
40.05362844557497 -203.1725625182692 -5.072816871118526
40.05980769241602 -203.06403097986376 -5.074462374126156
40.120320764742914 -202.953540530105 -5.079101260846906
40.14923719993111 -202.94560042306404 -5.080715505098039
40.80500607191207 -199.66383388339773 -4.989840758518819
41.049274583451776 -198.66900556361173 -5.006330355208834
41.02732760181183 -198.6208758805813 -5.006654260918039
41.06716654907389 -198.5364757088583 -5.0082716108728205
41.10762546087365 -198.2109038075734 -5.013095150116636
41.25644974331009 -197.42083888993534 -5.0256083845833714
37.70882742650313 -214.06262007434708 -5.078653275260287
38.58814755576882 -209.7554589753327 -4.996640904643594
39.96034694096021 -203.38283144481204 -5.065797493820512
39.986074117413935 -202.86818223946975 -5.073474131634127
40.90894320317454 -198.64612566830692 -5.004715228370306
40.89148090055545 -198.58977098775034 -5.005205034477051
40.96742378493955 -198.46053738555182 -5.007935553835917
41.206838658120134 -197.2196449994852 -5.027711030431988
37.678639033842835 -213.55854268444511 -5.0686337590427675
38.49960063355914 -209.82956169677408 -4.997598896360656
39.45349929503591 -204.9337186964601 -5.044554459841074
39.61295306911261 -204.30161766518515 -5.0456864636692105
39.62283207043879 -204.21960564415699 -5.045798785776646
39.82630875695297 -203.4457969925651 -5.05818369217992
39.910913663643335 -203.13743941769104 -5.065794008512246
39.86347764741909 -203.0606116236589 -5.064320181413686
39.96680568134284 -202.8873804682633 -5.072196226285768
41.105045806204224 -197.29105664548305 -5.025461786865281
41.08660477084128 -197.19183614388083 -5.0265880473725195
41.133491284148434 -196.86406009425914 -5.0317501299301375
39.075326906099775 -206.39769893632086 -5.069199157468449
39.37080698583852 -204.94124056450937 -5.040510248881099
39.404613752201676 -204.94117307555487 -5.042217400647561
39.535175146125965 -204.21758623897927 -5.041124447445845
39.56793389581031 -204.0887105907165 -5.04243071725487
39.898895988882 -202.4844938425147 -5.076194556048659
40.84065795007415 -197.8279607877218 -5.014748043092307
40.9255301783448 -197.37721012801134 -5.022044287672873
41.11254638329233 -196.9461784292711 -5.030319080146654
37.48135642344983 -213.61986756010387 -5.069777804451074
39.272824389786685 -204.94048128985008 -5.035578929966585
39.860611498166136 -202.38682524712115 -5.076431250242329
40.38214996368082 -199.49632472350427 -4.98654219121756
40.71542130771182 -198.06809408755115 -5.009889218227314
40.79258564692798 -197.85011818037836 -5.013858568189095
37.304327078253216 -213.77554074430776 -5.072869670209332
37.358814888770844 -213.4171915440997 -5.065691157086132
37.417827571771895 -213.33499497270589 -5.064054070528864
39.0063471703274 -205.64713866968353 -5.040401461049053
39.1749662634573 -204.97136916281494 -5.031266880334857
39.634445510776885 -202.8884433494248 -5.055212606474979
39.62988896561069 -202.6493338176849 -5.059458972061324
40.68925127368555 -197.81656817140546 -5.013022939511279
40.903781618168544 -196.75600703310516 -5.03048046998392
37.322620599581974 -213.39849975573824 -5.065351745603019
38.981710402213736 -205.59880170846014 -5.037842289286231
38.94435522046176 -205.54888326496965 -5.034688381902355
39.0110365652722 -205.10511001651344 -5.026041642287283
39.07449629032564 -205.02932201076132 -5.027477427598518
39.57505493341193 -202.72241191314617 -5.055267586030098
40.63536259274358 -197.75544268194994 -5.013173830384019
40.84987266874318 -196.6176655734019 -5.031810843873429
38.88350033833633 -205.48007103328035 -5.029940354265714
38.86880711061669 -205.38840362423633 -5.026631921433763
38.86975017986013 -205.2868626478963 -5.023866447677817
38.90600164017564 -205.1958605706927 -5.02320421585198
38.968285586344784 -205.121400271905 -5.02435944572026
39.48786510495052 -202.3858404259983 -5.058490811721796
39.55354929157425 -202.0694383830865 -5.069868882333695
39.386656232395566 -202.58932838276922 -5.048805948651535
39.52579808693697 -202.05699530577124 -5.068952519760563
40.34942931948937 -197.95675419008725 -5.0068795000636825
39.2262204191755 -202.60927863063446 -5.040567406529656
39.40541623915608 -202.10904746401525 -5.061981811204934
39.447527941050566 -201.56460267096818 -5.080695372135765
39.31020527889634 -201.90053159556905 -5.063955079612478
40.40041790143917 -196.0120915111356 -5.035541253464356
41.05238526261169 -193.25591296838297 -5.083612724538293
41.04759980012169 -193.11033754578452 -5.085796092775626
38.36837721323214 -205.17498500868214 -5.078163079996176
40.990506467618886 -193.08625635993548 -5.085615270785157
38.33855720953279 -205.1796010878955 -5.076203217185438
39.65986899483761 -198.97530289683036 -4.984186814807143
40.080821073997534 -196.5923863154624 -5.023537145793933
40.23848822449875 -196.17194889360664 -5.0314480300527835
40.240922018212004 -195.77335182124634 -5.037399092349433
40.07030098004085 -196.4159504401719 -5.026012325572399
40.06467698897121 -196.36004104871188 -5.026820982398222
40.22491304478062 -195.65745983129722 -5.0389964008440185
40.192161104388425 -195.57093325153096 -5.03993493512072
40.720373460132095 -193.20924814008515 -5.081028554794159
37.964019106453605 -205.8471235746013 -5.007605594814746
39.924756317267466 -196.52173220203136 -5.0229306923860735
40.156214238354465 -195.45557644294436 -5.041324012568579
40.625803281201534 -193.11635680657218 -5.081593941689433
40.49926904560425 -193.33337524475468 -5.076999851263113
38.17231844280916 -203.7182261078036 -5.0293867103453875
39.7312024900508 -196.53240180834376 -5.020770343149576
38.12685252682127 -203.698554571304 -5.036313457788555
38.098630756327864 -203.6063647144599 -5.024536577100037
39.63938997360584 -195.80091155594897 -5.030954202055216
40.10702163166219 -193.49645671774852 -5.070812835232159
40.23568456855675 -193.24920077458972 -5.0758774903761035
39.85240101432764 -194.000814756777 -5.060675202723251
37.91504933831445 -202.51690563779894 -5.056486789319215
40.02630197674802 -192.45265112289493 -5.086338418811614
39.735988547247345 -193.64010936528246 -5.065249040414551
39.95977212723767 -192.4583000357704 -5.085700721408327
39.782982292369866 -192.68178418749585 -5.0806547932486605
39.89115447223974 -192.46779896605833 -5.0849934852878125
39.722487058835156 -192.7390322370564 -5.079303422370323
39.75962238383507 -192.45830693041106 -5.083971619638415
39.69839732657228 -192.36813513294047 -5.0848756602120835
35.228582319337114 -206.60549128467744 -5.039375134296065
35.248187634292776 -206.4791502492158 -5.032549287931355
35.19423422101167 -206.42630548033907 -5.031184521202554
35.19054835677027 -206.40750635607247 -5.030330580380044
35.0419959197172 -206.50458282000244 -5.038845966325852
35.12682360594724 -206.4114224045071 -5.032105551233243
34.98004837681809 -206.4806192925203 -5.039318779189068
34.98118792754329 -206.465141604737 -5.038530884593377
35.68634369910137 -202.4077373692616 -5.080406274435752
37.906667350788275 -191.86054049085723 -5.080076371882188
37.80869585750146 -191.96383060325329 -5.077812035838602
37.66834174734356 -192.08746467082977 -5.0750502241311315
37.72724505015352 -191.92674082620178 -5.0779291033441565
37.77669736676736 -191.8697133504144 -5.079218633029876
37.47163379652634 -191.94448255057574 -5.076178301289168
37.45184028367495 -191.66994229922847 -5.08060262235087
37.411005961064426 -191.6365851205181 -5.080844198334666
37.17852271589037 -191.90513582328086 -5.075314217030621
37.23450690562555 -191.6721998363887 -5.079321895749318
37.28486616529059 -191.5773031279986 -5.081207313076859
37.13976373282737 -191.84276161442662 -5.0760526084323905
36.57255390760532 -193.3477357641221 -5.048887317813989
36.53433055473778 -193.37336635715718 -5.048235993459951
32.925243490145505 -209.79180391726328 -5.015573303162079
32.95949422873712 -209.6449510548228 -5.0126249682079065
36.28188731495615 -193.70642041370317 -5.041813522946487
36.31682334576419 -193.64590554059743 -5.042873855016646
36.45886562907804 -193.2930656144169 -5.049218478891889
36.499402213113086 -192.68722824161506 -5.0593326908296685
32.82591045893969 -209.74498421462195 -5.01571434348744
32.90542562936401 -209.53164683265018 -5.011140161741917
32.892800870561295 -209.48686417084002 -5.010464544292608
32.967604378376265 -209.12466062377143 -5.003342826852021
32.95206908171104 -209.09005591927993 -5.002908297967051
36.13750050023435 -194.25508713908536 -5.032284242328604
36.42097503702665 -192.69918672238572 -5.058800840432279
32.82581581028892 -209.54600820373747 -5.01220036626869
32.83851593933822 -209.44090425650265 -5.010209238266094
32.90715714789112 -209.25503187337736 -5.006259002235673
32.92979916760269 -209.04455569506027 -5.002352007844312
33.06059853426615 -208.22573092572472 -4.987007235776677
33.04184294225409 -208.1737659592796 -4.986358956986446
35.9703919620139 -194.28498829227433 -5.031186812197634
36.3629856935331 -192.70650664382006 -5.05840234703432
33.03505918311194 -208.13613497982016 -4.985810588395991
33.04245448348742 -208.09573060967278 -4.985072373313634
35.85975911798116 -194.42938374438756 -5.028431657444318
35.906053895534534 -194.34950599402146 -5.029917685260684
35.9997213077829 -193.82312666092398 -5.038842378206411
36.03085904615354 -193.7417160222446 -5.040213076501725
36.0653707567827 -193.70432821911123 -5.041014871928648
32.952376013752605 -208.0124212630495 -4.984789810015586
32.96974078924923 -207.92164438477766 -4.983118085388591
32.91461140648194 -207.87020569900073 -4.982971908812552
35.82599054685975 -194.3974811674766 -5.028899580816554
35.7721354958394 -194.34105544237937 -5.029613248055496
32.56517033604239 -209.0735209902963 -5.006814978433947
35.72177661059937 -194.35075805006718 -5.02926511284721
32.431727619658304 -209.21072461997645 -5.010639774904507
32.58211134984387 -208.83141079412837 -5.002572562909415
32.60902329362287 -208.52606512032492 -4.997233676694264
32.75932243292115 -207.7514726968073 -4.983091139173755
33.995361060054634 -201.66809115545104 -5.050362114710927
34.028636531774076 -201.62788661793604 -5.0504462588493615
34.044582741215564 -201.56985203643612 -5.051860022377009
32.24374803370485 -209.79280304097085 -5.022581055136126
32.25839973056983 -209.77385014500152 -5.02211112383894
32.373146497122484 -209.22881890445353 -5.011601105467468
32.473639512636716 -208.67078139721028 -5.001214473123812
32.593298499851386 -208.2588790889 -4.99313775375923
32.63684837847012 -208.0635082252245 -4.989495714304583
32.71190275821422 -207.75976635547806 -4.983826086847655
33.955981054444855 -201.68056893828455 -5.05150902187988
33.95634935047218 -201.46586768047746 -5.058926184443893
35.421855538414285 -194.398480906548 -5.027702275689221
32.13467418160917 -209.76942999411006 -5.0233834909078405
32.38306523947682 -208.7619534295715 -5.003783976317011
33.82221766389891 -201.6096456033945 -5.059252507111385
35.390786676234335 -194.41998625741584 -5.027208817530668
32.35013275228361 -208.07145686123525 -4.993303936842085
32.34699029685778 -208.04578705317493 -4.992965530343717
32.42909711927244 -207.90715079790007 -4.989777480891233
35.243377826816655 -194.45274855923424 -5.026352727381421
35.510574485533674 -193.07387421900677 -5.049428695825869
35.55524708954023 -192.92865197893002 -5.051884149981051
32.35749668752135 -207.78397287658655 -4.98889453441149
35.15615351777628 -194.43571317246625 -5.026425643499378
35.06497152992825 -194.3852586402357 -5.027057875287163
34.98656407371316 -194.3130244397179 -5.028064824024154
34.89046918434634 -194.1529546325542 -5.030466247835748
33.89734596740314 -196.3718497077506 -4.994793049805118
33.9471249398258 -196.30154428317047 -4.995831954389753
33.97293621754244 -196.19643657121142 -4.997478276508911
33.7889134192527 -196.43662817966504 -4.993908130060979
33.8494656598276 -196.40407370205415 -4.99434029193205
33.701991687272674 -196.44606861720285 -4.993848828145629
33.6152031268274 -196.41647965782698 -4.994428026630428
31.00209234048056 -208.20838389764936 -5.0140331407184675
33.55202144774865 -196.36989789832265 -4.995256920723044
33.51341912144141 -196.3483452464486 -4.995584936370999
30.571707014802655 -209.9095575263982 -5.044583789012508
30.959248390748236 -208.28967496236868 -5.015751864945264
30.833442184966664 -208.2618968541518 -5.017220613295421
30.622279724347457 -207.80585879623177 -5.0145559447042425
30.316933169430914 -207.24726582548624 -5.012965676347506
30.23843280399214 -207.21923149684415 -5.013952037496276
29.91328981654278 -208.31049207367712 -5.031755970901925
29.966043746473108 -208.09558550594323 -5.028305694711125
30.13265616567095 -207.2329432641575 -5.01583427174315
29.38573451099532 -210.17473375962717 -5.064518767096911
30.026920307253725 -207.21761541602257 -5.017426170320488
29.305424851336586 -210.201515048024 -5.0660074139044795
29.33029732019939 -210.13579748447293 -5.0647379521512175
29.355166735449536 -210.06990812391504 -5.063436128900663
29.97193212003208 -206.86661943119796 -5.014815073884962
29.978582826176794 -206.80811203791185 -5.014144984711788
29.22423680269486 -210.11698696885662 -5.065955512848648
29.802255730131463 -207.34721849828145 -5.0224963461960925
29.92982885461891 -206.7618023121095 -5.014538664999766
29.762890879905665 -207.1605881878689 -5.021245090143792
29.791036182603186 -207.00476550374128 -5.0192174073373295
29.52845182926824 -207.45740548631562 -5.028192321875497
28.842246333335716 -210.37470509073972 -5.074997975293431
28.839789848872993 -210.23785116081567 -5.073105182669396
28.958582410840435 -210.05177511982333 -5.068826237604064
29.507518739128667 -207.17991036536372 -5.025726838963537
29.496938452841665 -207.11184135753783 -5.025242604604397
28.80228885250352 -210.31472989703192 -5.07472680763791
28.768875731312068 -210.20662415650332 -5.073711067876048
29.341926729395844 -207.47379474145447 -5.031459953439708
29.35220000498891 -207.29832785704653 -5.029517233073621
28.916120961038565 -209.21113597789326 -5.058333461308079
29.224641026643415 -207.48480717976437 -5.0335314557075375
28.599630988488084 -209.9394993501524 -5.072555472154036
28.814501841976725 -209.18393455490633 -5.05953389544838
29.19776659473593 -207.40190076680253 -5.033137542670905
28.578415049386127 -209.91166872182853 -5.072482358605328
28.46183524262421 -209.76176258994528 -5.072261149210968
28.965620953294824 -207.57873520476724 -5.038807942365785
28.35988519449176 -209.75055142173295 -5.073652061359348
28.933465881878483 -207.14787238535348 -5.03516984567985
28.93884154276723 -207.11457466270724 -5.034778541682888
28.15852154543251 -209.80748038749957 -5.077429151224315
28.201077311207037 -209.54095694693652 -5.073421529449788
27.86848455839219 -209.5284907218937 -5.078410052337793
27.837166232760467 -209.39854456969746 -5.077323819918895
27.757209490534315 -209.4067831350525 -5.078693531908818
30.765913392066516 -190.64731438919958 -5.086379191121019
30.75076794974629 -190.47988583724026 -5.089044888516852
30.578797510289668 -190.72677289128654 -5.085369625603568
30.627748644273417 -190.71167592423274 -5.085704947168228
30.65335206201506 -190.57936346476916 -5.087626795045156
30.489633815175967 -190.6483341384175 -5.086841625345893
28.063276605824917 -201.78160498369002 -5.030976317895499
28.10985559791016 -201.6984020620404 -5.030409310528631
28.112298643429277 -201.60594020047466 -5.0306573916297115
28.09931871220553 -201.53895763428145 -5.031119463451915
30.415973269939634 -190.6739863977756 -5.08646726623648
27.970889856117438 -201.85123719509602 -5.0324158274241
28.012948372749463 -201.83105849426428 -5.031738400379659
28.057428127123448 -201.47868530896426 -5.032060116732708
30.31771035780275 -190.64750531846497 -5.086930243517355
27.868411760580194 -201.85798633880796 -5.034231114834904
30.086590472550604 -191.2627189027885 -5.078103827758138
30.218455073034505 -190.55244526141652 -5.088684143814454
29.868689038988744 -191.22570616008113 -5.079191854123574
30.00554861087771 -190.58260753816637 -5.088560772140082
29.924692071474247 -190.65090390416484 -5.087670590223818
29.916546307869762 -190.51909280676887 -5.08950253467827
29.647129833936827 -191.5479136421523 -5.0747751877812055
29.739523168849935 -191.08776579127124 -5.081353822474252
29.412117197652883 -191.53257949909505 -5.075608006714285
29.28287572377858 -191.75632704457493 -5.07281265671282
29.30588004374151 -191.64897688733802 -5.074378599064988
29.306263115881045 -191.44790496107973 -5.0772949576419135
29.462050772918616 -191.0042602471126 -5.08322963622344
29.488637904979896 -190.94224061532157 -5.084247104303121
29.262885942921848 -191.47513440577833 -5.0768561821723655
29.302185613726635 -191.18477442267957 -5.081058224427023
29.335488657561697 -191.0871973660992 -5.082484046849068
29.10396113978892 -191.6007749069556 -5.075506445013393
29.002236690722953 -191.58134692271426 -5.076185156064417
28.885195558381994 -191.63042440504555 -5.075882737043112
42.087555832938264 -203.03076755543873 -4.981656985885916
41.849278640828544 -203.96637668248695 -4.975531768815008
42.03583404207235 -202.9837868292393 -4.980884456208407
42.02461632263651 -202.85815870137503 -4.98115469879459
40.9764919196861 -207.1826608336959 -4.979171971244862
41.83308770938919 -203.16670283437276 -4.976578395059364
41.909555904017985 -202.61975917534542 -4.980091231442044
40.81902705934114 -207.21143906639986 -4.9772711773329705
40.82577642074712 -207.18067515817276 -4.976991057243784
41.54675937319833 -203.76808598739106 -4.970048191191748
41.66730818228339 -203.2093720430404 -4.973398637008377
41.86148621643661 -202.5915236338635 -4.979362051958037
41.91890723482507 -202.32915512990834 -4.981766899535186
40.66288815722051 -207.59381334752706 -4.980024964969004
41.08473276452728 -205.53408841808434 -4.965842623429644
41.11387965407494 -205.43400028543837 -4.965765672677032
41.55130447572804 -203.47957442685203 -4.9705800073081745
41.654158497176454 -202.75721424673438 -4.97485020115183
41.04494442189772 -205.50219825018286 -4.964965643465608
41.00218093335689 -205.36303291321303 -4.9634054819820985
41.178674429187915 -204.61415722098184 -4.963716874244284
41.36331299949492 -203.89404615837518 -4.9665651712465495
41.385539317882994 -203.51214286560187 -4.967470838026785
41.62139004186607 -202.67026274862883 -4.97468072762535
41.591035568573744 -202.6392326451748 -4.974287145448821
40.44947760041238 -207.45810945284975 -4.975419564154509
40.4986119382231 -207.40159157927343 -4.975307092829292
40.94945444795841 -205.1742648172715 -4.961500756287367
41.01757284315848 -205.17535796803915 -4.962724808654379
40.94573768052239 -205.0545939943075 -4.960900691871157
41.56049550614539 -202.6085845222113 -4.973893471429657
40.408571672034554 -207.53523844932045 -4.975947232935535
40.40576599147727 -207.25137095429594 -4.97210579304613
40.47102719376395 -206.98375689867538 -4.969608548840908
40.482647324068665 -206.90479232356995 -4.968815140475713
40.838768295299666 -205.16916866853626 -4.95951768429736
41.085904651235815 -204.33722046549454 -4.961559347601267
41.474746407177335 -202.4210005727877 -4.973359410272837
40.399038033037314 -206.97257282244576 -4.968465703165355
40.74692891130081 -205.36592808965275 -4.958968952959419
40.76282392938222 -205.27085105966034 -4.95870880415628
40.73608488516335 -205.16474070605406 -4.957682804896708
40.75268815757986 -205.06284297396317 -4.957484174938346
40.815080403858595 -204.96532891504762 -4.958186554801019
40.79977965949528 -204.87422074679844 -4.9575598159652605
40.81161943579751 -204.79616012415997 -4.9575098712770105
40.9097626457916 -204.55931309166357 -4.958686233809006
40.908019595852174 -204.4691675477352 -4.958486382933766
40.90973286087875 -204.3925494798518 -4.95839676674252
40.90530375216329 -204.3364070725754 -4.9582400571158916
41.33860934094679 -202.42371566072916 -4.970949455987251
41.53791707222894 -201.41011286749867 -4.981738671399308
40.224575709191825 -207.28378568722576 -4.970158774895717
40.32189611274314 -206.59099091428433 -4.9628245073594695
40.38069889090197 -206.57023078476473 -4.963454861515816
40.63997358913159 -205.31362340776252 -4.956792973344337
40.64932631500833 -205.28490355546225 -4.956791731229318
40.65490689811347 -205.0610200903576 -4.955732755428209
40.68952437108611 -204.94885940240906 -4.955861034223486
40.76821437924342 -204.88339763267953 -4.957031127260979
40.73795219802096 -204.75445285583965 -4.956049127772125
40.77809433749879 -204.66467419809774 -4.956516392612985
40.786855065213125 -204.5770947298535 -4.956465208434605
40.81029461406061 -204.49347316071498 -4.956728829877816
40.820375479214476 -204.38325071399788 -4.956735470162353
41.4798441889399 -201.3427598014936 -4.981368581819577
40.1822904126167 -206.7853216836362 -4.963129337192527
40.28724519510597 -206.61696697485098 -4.962618373255284
40.2989490433321 -206.5448182565233 -4.96196158664425
40.639503906765135 -205.00946312501026 -4.955230248292524
40.65602311197719 -204.85322486641982 -4.954895888980492
40.73262481049666 -204.59547903091044 -4.95551976654611
41.19714244858358 -202.3211555488148 -4.969067386844104
40.10166171306349 -206.96349728337674 -4.9642820645926955
40.42526822990356 -205.27478609012977 -4.952830137919876
40.43143273096183 -205.13742110574364 -4.952165360652464
40.51141281083483 -204.9614639515195 -4.95272287158661
40.599110073750765 -204.67868563233833 -4.953284476311889
41.27590013325713 -201.05875436686435 -4.980690717532025
40.0062865892914 -206.8528951048604 -4.961564234017132
40.04043699847428 -206.74953914543153 -4.960718453887301
40.40524391488469 -205.0993298972436 -4.951504361867699
40.65956540213365 -203.9445297360533 -4.953504587524594
41.15866859757341 -201.3036418164751 -4.976462982986724
41.22704438269343 -201.02032821116887 -4.98031086126692
41.255029506702016 -200.90993942014228 -4.981844138165478
39.96497227464201 -206.75005189896063 -4.959692306994322
40.28213137284295 -205.07805705595888 -4.949218120198684
40.64339813256821 -203.4045779082449 -4.954055763634309
39.534279874675526 -208.03869795053203 -4.973517885762347
39.58202613722783 -207.98220031034478 -4.973115879980714
40.36674337884174 -203.73728461009628 -4.948273462740767
40.954379590623624 -200.43879234521305 -4.982391786549243
39.71818077594459 -204.1831019962137 -4.936166744428489
39.6619762013618 -204.19619105687903 -4.935139948049059
39.62789904090281 -204.13540842135725 -4.93445735811323
38.726909878738816 -207.83662790130987 -4.962607982290229
39.362475191971726 -204.96764539950314 -4.932537070626184
39.55090366551796 -204.10508565003101 -4.933010387463169
39.59183058821631 -204.02086691374828 -4.933742355426485
39.60361061674632 -203.96392108438803 -4.9339552423522175
38.65071593668509 -207.78247733081272 -4.961042053655688
39.28050395842964 -204.9783443425694 -4.931196069309285
39.44256704318343 -204.1410070466157 -4.93103968816963
38.560439278325624 -207.87447504157524 -4.961949854606394
38.61002360125194 -207.80598333501572 -4.961126552313764
39.030862636271294 -205.63895607681977 -4.9330921497742155
39.13261554862457 -205.01067839218226 -4.928902138501704
39.18431743634318 -204.98714744961484 -4.929611825703099
38.45813803208774 -207.88570450661857 -4.961386840126817
38.98973919746774 -205.5923003052151 -4.931965574681369
38.941288130321794 -205.5300405762754 -4.930558972544707
39.016163619958874 -205.11385828521992 -4.927753099724254
39.07221462969794 -205.05104496297804 -4.928184670947437
38.354400276682185 -207.90516100048606 -4.961002288842418
38.38624847091157 -207.88135525622656 -4.960796405021206
38.89565075797175 -205.4648169555098 -4.929169871786771
38.88870407120007 -205.40147203775362 -4.92840053522033
38.87397724328348 -205.29579646490257 -4.927107783125068
38.91154942232561 -205.19956812838953 -4.926796206734936
38.962017317820084 -205.14892826350427 -4.927157969457596
39.55177914557382 -199.10548315904978 -4.981068230487906
39.44469359156472 -199.1992956484491 -4.978443839152989
39.54580798210072 -198.8869226770012 -4.984090293938014
37.96107483926599 -205.8584833654202 -4.922440886054858
39.43243413398872 -199.03326819729148 -4.980646615585197
39.4041716130513 -198.96260633889693 -4.98134515858429
39.25963932230015 -199.11077718690598 -4.9775280601799095
39.3468293204713 -199.01930095378364 -4.9798443427064205
38.176629530756436 -203.78616435905352 -4.938379136971044
38.189531771871515 -203.73150024542076 -4.948812328492354
39.14758572665444 -199.2480761378507 -4.97426673985459
39.16268860332093 -198.98367596720163 -4.978273059554316
39.220996308562604 -198.919902636471 -4.979837329831642
39.04004097850681 -199.3601749492583 -4.971402829297605
39.04294472303222 -199.2807514265204 -4.972599501310265
39.12652623717354 -198.96631562554504 -4.978123866635349
39.14344227552123 -198.93458593320446 -4.978754883878086
38.97908893391272 -199.13929097110648 -4.973943391210355
39.02578133403781 -198.98764823057104 -4.9766963567065305
39.067031392170676 -198.86490743137333 -4.9789325125644766
39.05782775636789 -198.79583382543373 -4.979867336470592
36.53544134321745 -208.69271172229773 -4.9716962561820734
36.51763736240153 -208.62098839528028 -4.970305628595684
36.46877197441791 -208.57379689741228 -4.969440826873538
36.30486342998247 -208.33905517620556 -4.965105222570683
36.14922078782947 -208.57763540213904 -4.970345396659087
36.23654855151313 -208.3002034785188 -4.964523088899666
36.08231664875377 -208.55872649795757 -4.97019397627797
36.09440156509052 -208.53967099657262 -4.969783933640725
35.25876417169694 -206.58721213100938 -4.936037266354568
35.261035168692025 -206.46195400754385 -4.93365236594902
35.20217066981533 -206.41515636370116 -4.933263239037065
35.19359768576139 -206.40460771705185 -4.93313995478374
35.039013649850574 -206.4873797653508 -4.936020534699936
35.0967727551701 -206.45511117431153 -4.934914145773624
34.94209321920006 -206.46866537530903 -4.936585092001675
34.99705401744314 -206.45677997385735 -4.935851301095019
33.426913531613515 -206.8597961162257 -4.9607817413946185
33.45128865768992 -206.8159590767577 -4.959807370337168
33.443450359915886 -206.73200088699699 -4.9586684613926355
33.29340874590075 -206.94596898703907 -4.963855381544237
33.440414089948995 -206.68644193356965 -4.95804575847649
33.288438706651014 -206.92914542310112 -4.9636800658655496
32.916595581521904 -207.82754141160808 -4.982276127730501
32.86608232836278 -207.77428181708567 -4.9820778509748695
32.861776007135504 -207.71161641620358 -4.9811587386675225
33.03639607981039 -207.0129234674432 -4.968340466825732
33.136010537803465 -206.59980265896837 -4.961114792114593
34.115903355833204 -201.7176925318602 -4.931525468581643
32.93873724313681 -207.07778367818779 -4.970635859115028
34.03797131486131 -201.69850920090084 -4.932803945176506
34.0383093117451 -201.57900505351287 -4.934071880603663
33.94815133166315 -201.6803982375856 -4.934245572104433
33.97522821582951 -201.4834231115661 -4.935968417039913
32.636240663533975 -207.13793985444968 -4.975731383970071
32.32355465121612 -206.80167621866883 -4.9758744699253254
32.45649247775068 -206.297982656061 -4.967724006347097
32.44580384032107 -206.23498962771615 -4.967178744123982
32.38925615139418 -206.20124647298576 -4.967718607878118
32.482358814806965 -205.46729048368178 -4.958881018245069
32.39379835168122 -205.62485575076377 -4.961813817838693
32.4118385776739 -205.56746315300364 -4.960985612434182
32.45788094491849 -205.46694896990374 -4.959311448245408
32.463229474845825 -205.37024800829724 -4.958337712803231
32.450659683969995 -205.27565988261009 -4.957684824763142
32.469033391700634 -205.18121260526567 -4.956536821062721
32.414599946439736 -205.28556096695277 -4.958404527515731
32.410922025036896 -205.11371138970645 -4.956971700969555
32.39268261454285 -205.07322145016502 -4.956975042542737
32.1999271569665 -204.98433311469236 -4.959675993231378
32.240630684384534 -204.9225974108565 -4.958518829684537
32.23063844363432 -204.80541222977735 -4.95788715796377
32.24170684544513 -204.75746933638675 -4.957364400977209
32.1473006992612 -205.02109518948274 -4.960891772024241
32.15846718013459 -204.88350255765428 -4.959699251057269
32.15448755154601 -204.75942621438668 -4.958959794019519
32.154051890033315 -204.69941421921973 -4.958587901325844
32.17371143803203 -204.61524738641697 -4.957729364170669
32.12289835418056 -204.5739152977368 -4.958425000510687
32.10941875487937 -204.47829419349165 -4.958169488243896
32.09101649873101 -204.41120115401307 -4.958179172352765
32.08832881443889 -204.37982629828286 -4.958071688102731
31.951714857650593 -204.3465340738608 -4.960426761338338
31.987558251741113 -204.25649084872362 -4.959398067280821
31.986019119824498 -204.1939394270876 -4.959189578629251
31.87402543125817 -204.12786970571707 -4.961006604021416
31.903960713034326 -204.05501487866863 -4.96023243870923
31.821101668649163 -204.16283847283972 -4.962104892420769
31.409541413853688 -205.25508452503763 -4.975711741506866
31.396868625944006 -205.25812817183635 -4.97593348789033
31.286770036399005 -204.85080239394642 -4.975129287584133
41.489782916095756 -205.48588605932719 -4.788545027588726
41.51430356727537 -205.47410573966187 -4.788205011014938
40.90909988569346 -207.7526541837642 -4.780417314015962
41.01318922477276 -207.56055839113571 -4.78080254135066
41.448587480501615 -205.56931571312384 -4.7887690134944085
41.40616665133484 -205.40313999488484 -4.790257422463944
40.83600047040014 -207.8393897240752 -4.780551748700216
40.94966231217119 -207.45711779386508 -4.782602992279626
40.948778707865664 -207.16175953306671 -4.785217943008335
41.36133252141579 -205.37134389367415 -4.791127043310566
41.41685126594231 -205.10657908934766 -4.791385673604114
41.242313475479605 -205.46631392318494 -4.792537702473492
41.30108878822497 -204.95530221219016 -4.793844579389585
40.79467104067229 -206.99370890051384 -4.78881933052826
41.104833465976995 -205.55877658814865 -4.794225339560587
41.00300519535019 -205.51391220678084 -4.796061960184849
41.02946072813535 -205.06656926494992 -4.797759983634158
40.88842290785501 -204.93305707704596 -4.8005568453665015
40.85341023549772 -204.90165664410304 -4.801236628442764
40.832339918811954 -204.79167057200496 -4.8019729006759935
40.34755329946773 -206.58744241085094 -4.7985501525314245
40.37021119699431 -206.54304216338062 -4.798594993118681
40.78177482858017 -204.83015982463954 -4.802649568747147
40.78696779135306 -204.81481702840043 -4.802632968006124
40.19126496379481 -206.7605861607797 -4.799252995385514
40.315544848477586 -206.54558728974928 -4.799347520132283
40.12622415743064 -206.7617306787659 -4.800134847215409
39.342940662740865 -204.99553178584736 -4.824799173515334
38.70368228176532 -207.7647754075819 -4.805981716795258
38.65409771116534 -207.74161682585276 -4.806740672476496
39.27401826665146 -204.99862057445782 -4.825858754802033
38.54188095361967 -207.84406554727224 -4.806429961021696
38.58317652107318 -207.77330203990905 -4.8069793226039605
38.6259012060846 -207.73823312043868 -4.807041695578382
39.00545164338838 -205.60866546264907 -4.82570798641715
39.156395432990976 -205.00884493700798 -4.827627373142505
39.210071241420025 -205.0021468677608 -4.826834749056824
38.44871879161498 -207.79891709724689 -4.807838923999368
38.97958188713598 -205.57879641288534 -4.826321695807046
38.945923968515224 -205.53260314544846 -4.827172664515709
39.02076728140866 -205.09343295476478 -4.829204947040001
39.06977562219988 -205.03877523538915 -4.828788540116918
38.32702801184922 -207.90076249873565 -4.807504400899348
38.34127975585333 -207.8238019133678 -4.808418472921404
38.39153571898742 -207.78693185460284 -4.808485145070117
38.90661463395779 -205.47134526180878 -4.828227410959155
38.887859776950485 -205.40060782507197 -4.82904729365167
38.87582611007625 -205.2964968546516 -4.830001959781723
38.90822660532485 -205.1976851051825 -4.830219244510151
38.96796490711931 -205.1351317297292 -4.829739879148343
39.40046729762825 -199.28625170018432 -4.78449731892909
39.31683255839681 -199.33173098267181 -4.785760453574377
39.37355816443858 -199.29289911618372 -4.784797986318053
39.201134456629475 -199.39562221775265 -4.787498607756505
39.2524675607046 -199.38241325039647 -4.786953247048441
39.23457253988073 -199.19092317460576 -4.784089920814175
39.19025001091467 -199.1917126155239 -4.784350024874347
36.52554039769697 -208.59729074856125 -4.806951809425083
36.427480709710764 -208.64982622146005 -4.806377623419485
36.477325518157414 -208.53674952523534 -4.807945833402377
36.47742914061329 -208.50583669345792 -4.808398153109524
36.3371013174669 -208.29042843089664 -4.8118744334769135
36.30891114440045 -208.23155427525023 -4.812780193196902
36.14749188129354 -208.48479079605616 -4.8092254503591425
36.1818800581657 -208.3256816696385 -4.811561278213775
36.241414244661286 -208.2103850348303 -4.813190572228957
36.00937948573908 -208.67134199090188 -4.8065611659582546
36.03364456149284 -208.5912307995627 -4.807754017942736
36.09014135884396 -208.4988085798256 -4.809068367464337
35.98765143519195 -208.63309718097753 -4.8071501959449074
35.96537344730913 -208.61074987433682 -4.807502538050982
35.95971769129129 -208.5055782450839 -4.809037555702302
35.95919235134292 -208.3586693077412 -4.811229772659948
35.946918046859636 -208.32909978663653 -4.81165072342242
35.27803138607242 -206.63434031178244 -4.833945983613898
35.285292162360676 -206.55340000137696 -4.835037098527145
35.27751591710038 -206.4506203472986 -4.83630668089227
35.25105139051563 -206.4040674477831 -4.836724726382384
35.14809408469181 -206.42379686487786 -4.835723772477894
35.208370215709486 -206.40361137327426 -4.836418347316659
35.08952511091209 -206.42754855550493 -4.8352295271012675
34.95826063374842 -206.4727624893471 -4.833631750877667
35.01014210469599 -206.4450751976773 -4.834388753468997
33.41626835547821 -208.81887894735524 -4.79259587794317
33.179051172460156 -209.43641351961944 -4.7832266832941235
33.22998942108668 -209.24657334305752 -4.785920498509825
33.21979928506212 -209.19937084624507 -4.786404791109172
33.19096496212614 -209.12026305409447 -4.7870819128902
33.33235230641084 -208.67148747288346 -4.7935852469659475
33.44522447579047 -208.10586016151748 -4.801096588896985
33.46470272792997 -208.0013398083147 -4.802456455481535
33.45005106246271 -207.96190001446507 -4.802754032439268
33.26130250463814 -208.4585688914732 -4.795393200431723
32.94139050431535 -209.18486430836668 -4.784117605298425
32.98165893029466 -209.04804044672375 -4.78605994189817
32.89439915666675 -208.92403580696066 -4.786667523097803
33.35511937940348 -206.7159960574378 -4.814295863152885
32.92730312440396 -208.52686752116233 -4.791402141939743
32.928744403630674 -208.2848859311859 -4.794020950183208
32.956426247597676 -208.2815196694299 -4.794353957350103
33.27115788168435 -206.75100572941471 -4.81295762758306
32.753559577998416 -208.66676392540745 -4.788149518869439
32.77191008092333 -208.64299088521065 -4.788578741844858
32.848083557912055 -208.31884329017933 -4.792838589283609
32.8917361096435 -208.02676329127905 -4.796340048919455
33.20247030416393 -206.8122548030574 -4.811586046946112
33.187628014722904 -206.7449899609743 -4.811985807442736
32.807782336232904 -207.8935368771309 -4.796786184399462
33.12999625082095 -206.60564781676908 -4.812442129837969
33.10253965905829 -206.5510902814488 -4.812533516771883
34.15523299604477 -201.709846043969 -4.819618975136246
34.15010306328095 -201.64078621146945 -4.818622418191361
34.12705970159317 -201.57759782872304 -4.817493237671031
32.56667239236171 -208.56172216874748 -4.787341615807138
32.76940162647672 -207.8515273414603 -4.796782412276204
32.77579454457095 -207.78962956199535 -4.797454547430706
32.9476681527582 -206.91994530905262 -4.807510110343722
32.955118032938124 -206.77739377971284 -4.808809607478875
33.04403188867474 -206.51068244236157 -4.812096085963074
34.03518339560714 -201.71263672044606 -4.81825352256976
34.04236926902783 -201.64117562357634 -4.817397467581073
32.5950062823151 -207.8670957294577 -4.794660599490218
32.86823394038778 -206.91098598557014 -4.806591666231408
33.97300082455337 -201.71954243840906 -4.817600773793949
32.522057736661694 -207.91313601246333 -4.793370391990063
32.582875682560406 -207.82420993880245 -4.7949320711665795
32.57062814908078 -207.7817518212511 -4.795188161962782
33.89307078923375 -201.23078627373954 -4.810082303489151
32.28138234537018 -207.9281381954537 -4.790431971802663
32.3197026197774 -207.7529693245279 -4.792503858701433
32.31684247476066 -207.71586721901338 -4.79280105945753
32.493918958596375 -206.8849153989464 -4.802012642504946
32.516301370567454 -206.8142470907548 -4.802845763859485
32.536885572400465 -206.76780540043853 -4.803473699572964
32.56422325525324 -206.6053902354244 -4.805040293571507
32.27819162835612 -207.8463110088947 -4.79115824777928
32.2921062766818 -207.80554640421553 -4.791684817643234
32.4901100503978 -206.86637109480574 -4.802097068269157
32.438300889538844 -206.7967950848011 -4.801941587179184
32.49954372649794 -206.67008534585295 -4.803692992325437
32.5357252161346 -206.53467884946215 -4.80515718751068
32.52141035188984 -206.43576377742048 -4.805641297098807
32.371942839539685 -206.82253164962594 -4.800876592797079
32.43239855721267 -206.26246281935616 -4.8055242489682515
32.4398781852659 -206.2394460343601 -4.8057788595575115
32.36442737930727 -206.24432742253745 -4.804674741759092
32.358001350250404 -206.21653270104494 -4.804753870146733
32.30391337327471 -206.18330617062998 -4.804178953367878
32.27213470459412 -206.05109636953856 -4.804457471906111
32.35894270621881 -205.9620502033692 -4.806200734898337
32.36216277848713 -205.87123274061372 -4.80671500299642
32.35682226347528 -205.78368372591203 -4.807064491528401
32.41158074005511 -205.62667237613482 -4.808598435510177
32.418211000081925 -205.55763626063793 -4.808994743732883
32.41282785233175 -205.4624227034848 -4.809284210053633
32.40828253878989 -205.36398575346297 -4.8094888391318
