ply
format ascii 1.0
element vertex 817
property float x
property float y
property float z
end_header
-2.2960457753859114 -7.90601030654442 -0.5567157785780383
-2.219136590145024 -7.610130232813949 -0.5605485204132445
-2.23423795410622 -7.522505988651382 -0.5591281084874173
-2.189973926827662 -7.346049550434266 -0.5624116422744729
-2.1844797285890625 -7.231724122103376 -0.5631014518100921
-2.147883253507353 -7.125312503567128 -0.566287687955694
-2.04370538254382 -6.824795277702833 -0.5762540177966602
-2.030394057503801 -6.73105856303965 -0.5782654019766968
-2.0108439534958498 -6.654177569951624 -0.5806214434948551
-2.843814952745171 -9.919195023610833 -0.58306744850711
-2.383275273017217 -7.955673517613442 -0.5503893787919881
-2.4089936025792342 -7.890464697916032 -0.547697670841605
-2.3618299368176014 -7.655094975689187 -0.5497719510079442
-2.336498883618483 -7.485283922856835 -0.5513070220739613
-2.273430296215243 -7.402782292894761 -0.5560791570859491
-2.263790293155135 -7.33267858892906 -0.556905115583159
-2.549127881116746 -8.206004031490144 -0.5406450351392369
-2.519085785909719 -7.866809194700833 -0.5388943646771803
-2.4844663226882044 -7.7663783047949195 -0.5408756137091124
-2.1588777603917197 -6.106079062737786 -0.581024630997426
-2.596875248772749 -7.844533047250746 -0.5326775552567989
-2.551585635992164 -7.750768441899514 -0.5356110952384595
-2.281788654241958 -6.203863748018927 -0.570790177490831
-3.585840103283199 -12.123331633835035 -0.5673481281839334
-2.315179443191762 -6.12945707199429 -0.5704790152179957
-3.61276580556644 -12.11224242832114 -0.5654942564580888
-2.946981575764167 -8.736599296691859 -0.5203272651326686
-2.6855057848536843 -6.325444819385465 -0.5420881135575766
-2.762714582973354 -6.319448442465713 -0.5374080143948545
-2.910662987024385 -6.348784201345583 -0.5274245940745756
-2.9026718901777055 -6.267419399287817 -0.530241907192752
-3.4936046084699206 -8.789446884984498 -0.6113240275115457
-2.980739219864189 -6.243579682687743 -0.5262412437789725
-3.0711511903081528 -6.219099791840183 -0.5216397824403656
-4.877665928819306 -14.238451515483003 -0.5836741655175433
-4.373473120603578 -11.443534084512011 -0.608295383409882
-4.436819639994265 -11.556885582061131 -0.6183134009378608
-4.415969822702433 -11.309047201571957 -0.5901113730397958
-3.6633875702369263 -7.1297326628255275 -0.6066098522366072
-3.6540112759040255 -7.036450158358662 -0.6112448631897023
-3.6476210930025514 -6.953756350362351 -0.6153599138781416
-3.7351295000677136 -6.918905021228381 -0.6088168900808772
-3.4792162122873984 -5.710908969838991 -0.5192102900361512
-3.5005678393813415 -5.6818343665069255 -0.519489277637317
-3.8521068346117078 -6.900560477740303 -0.599055655777029
-3.55651409592016 -5.623682208741306 -0.519539011593018
-3.582194892051836 -5.548272284753437 -0.5219304956321328
-3.9210010666168897 -6.849512567386569 -0.5954734094446663
-3.919027682337862 -6.81684194514701 -0.597322838145989
-3.657117168793807 -5.521396299786681 -0.5199104415351445
-3.6900211672383465 -5.427131910414737 -0.5231949055026083
-3.9949773196782075 -6.819937285436733 -0.5905492064680495
-4.021860500753792 -6.760811957390688 -0.5914847898868494
-4.016405837062269 -6.630689231425315 -0.5993964373415722
-4.025415852951992 -6.591906838104341 -0.6009630725335919
-3.7021109383963506 -5.465240979137822 -0.5207680512338859
-4.071718238983575 -6.728223718841859 -0.5891122915910318
-4.050931389506596 -6.5855456848266005 -0.5992631642109865
-4.238005756717012 -6.692881369544811 -0.5775853991403548
-4.137133305024555 -6.627715466934841 -0.5897050906350152
-4.1593102544730005 -6.441464526322883 -0.5998638888855246
-5.059267830647572 -10.3021506599485 -0.6173354647923173
-4.278690693308619 -6.682775225332991 -0.5749648796627149
-4.26093282122463 -6.6127383130057265 -0.5808128990287333
-4.2140474600166264 -6.384035214430282 -0.5995846517528602
-4.249783250565946 -6.308360884438733 -0.6022441362043736
-4.028886442127122 -5.215431235294247 -0.5215435887511053
-4.283772663202678 -6.250294913985128 -0.6039636688510809
-4.3040928057103125 -6.187619684570837 -0.607162039698649
-4.320406671049152 -6.109965281760702 -0.6118774623026715
-4.089087339411236 -5.191198420686291 -0.5208960574262301
-5.931821122830446 -13.39858201077827 -0.5262153439649028
-5.971405166070894 -13.347386565562909 -0.5224204006045692
-4.474918057768681 -6.03928117204827 -0.6073838729029086
-6.02822787797162 -13.319111602296246 -0.5209848000957342
-4.636977868457454 -6.190762672371039 -0.585113683814706
-4.5889053744838835 -5.936222465512177 -0.6090131484657448
-4.575614705709079 -5.850700393783437 -0.6170228579830155
-6.162917208654751 -13.337188446026072 -0.5254162098820134
-6.157742940723789 -13.298603245931721 -0.5217633832571639
-4.7905259086523 -6.537935742438536 -0.547839788069752
-4.709606015405488 -6.2009276760048575 -0.5798588545098804
-4.7036460817065855 -6.119020972468416 -0.5869905065716692
-4.641338391192372 -5.920518681578562 -0.6073544693401733
-4.640101564086823 -5.848782609241299 -0.6136000104600666
-6.198748751551371 -13.262225932295284 -0.5193619999282747
-4.831380770898198 -6.50286254746658 -0.5479476174780937
-4.785980300651268 -6.078502881971404 -0.5857093986938169
-4.7519459756417 -5.957039832492118 -0.598075418059144
-4.757430612458022 -5.869613717535863 -0.6054650330004201
-4.8020532761300245 -5.845223779862752 -0.6053029192931709
-4.829726181412706 -5.797142661561222 -0.6082764582057494
-4.952271197213514 -5.834718046785273 -0.5989259461395344
-4.893900465639474 -5.801001174134004 -0.6048111846811662
-5.027668385501713 -5.845265708945972 -0.594435047970608
-6.4738318656675995 -12.376663290022496 -0.5606316986728941
-6.372907728632451 -11.921339478619664 -0.6048539550441479
-6.338447323623601 -11.770968248502538 -0.581571194340706
-6.33354921183015 -11.735313954198636 -0.5760646632707025
-5.1591001551201625 -5.928379212534043 -0.5806288749981294
-5.137091734478926 -5.852548779102198 -0.5887222903191187
-4.993469810020041 -4.850493542505223 -0.5197050302309885
-6.39102029780469 -11.73729140458339 -0.5759952502112293
-5.32775956819497 -6.041203387300949 -0.562557411082227
-5.302303839034901 -5.984509270786514 -0.5690521003812932
-5.294444289978703 -5.858926072478397 -0.5814473740542666
-5.268374614173098 -5.761126311531429 -0.5919813936147613
-5.246946270619401 -5.670099684317275 -0.6017186560916111
-6.806247061770751 -13.21129441164172 -0.5300329559262245
-6.827942129561064 -13.144532503137624 -0.5245029508255967
-6.702524099121235 -12.412357753475359 -0.5688268525630098
-5.348130325720532 -5.97520883402032 -0.5680509960530855
-5.32750999374517 -5.887942020744805 -0.5773327413109559
-5.325567809715242 -5.684194935524433 -0.5974254719419707
-6.983314179734991 -13.282522214818947 -0.5418701429003134
-6.939472773610979 -13.20654287865581 -0.533505968032493
-6.896421683572017 -13.141026246041713 -0.5261792947649493
-5.454219754509469 -5.872964602355671 -0.574056744692931
-5.426424937728735 -5.7377153580603 -0.588576003894296
-5.418670176468281 -5.634238737924181 -0.599270734642622
-5.408147754574971 -5.5759597798774525 -0.6055049567066354
-5.277962743772552 -4.757242139665418 -0.5226875404867974
-5.24759662013859 -4.690026101608847 -0.5279025044546921
-7.109181800922529 -13.325880709593958 -0.5498722222744404
-7.068883947123579 -13.268744023308074 -0.5432862721337463
-7.037116159150289 -13.210374010678635 -0.5368909638818503
-5.52554641223404 -5.616159742400874 -0.5978579300208142
-5.351793523918541 -4.738857613085596 -0.5234042345329427
-7.161902126517324 -13.269569865354697 -0.5464078003059444
-7.099896945178327 -13.219817961966193 -0.5397480435359898
-5.778683550113252 -6.445373232599534 -0.6165111762688489
-5.608711368277415 -5.614723367559071 -0.5957502781402448
-5.650395637230581 -5.540620373903163 -0.6024973073375232
-5.445199473396609 -4.78812481623765 -0.5191024719299574
-5.436530926098417 -4.74084086427109 -0.5226911534492733
-7.280216903796524 -13.295899898652777 -0.5528873902266317
-7.247394852199814 -13.278036795913131 -0.5500687802379436
-5.927519933068071 -6.406740931930387 -0.6145903776427024
-5.692914947221819 -5.685043434469732 -0.5862745919826423
-5.722033026919846 -5.5892811212963185 -0.5957597897057265
-5.702314682798642 -5.522313514077533 -0.6032874252043485
-5.515531180701432 -4.696150901083494 -0.5256716555331444
-5.550982805126036 -4.622863312761215 -0.5311207834338454
-7.405419238595575 -13.476539530751626 -0.5739601742067144
-7.403715146967705 -13.41776908714628 -0.5684870570902814
-7.3655760744189935 -13.323072059105222 -0.5584123966612471
-7.329915771566181 -13.268303063524646 -0.552066969629478
-7.114553817304396 -12.2516962185268 -0.5585994870136147
-5.87745616272599 -5.665262687794785 -0.5845899358108926
-5.811776563848091 -5.58421301494249 -0.5945225456553823
-5.613860852572173 -4.59797302718631 -0.5329451427159764
-7.493446618368658 -13.382400426030783 -0.568538650115491
-7.465160091218731 -13.308712048630081 -0.5607163697808021
-7.225461916182322 -12.264870727124448 -0.5638010441395129
-5.926391661899272 -5.633662405050012 -0.5872634545772873
-5.911067061590913 -5.579880575496841 -0.593352123054702
-5.714981028456802 -4.579203713966208 -0.5344543454823341
-7.6342024414202525 -13.56649151084223 -0.5908877177049328
-7.58900781932748 -13.462604166533286 -0.5795391605525034
-7.553052877843918 -13.358539751349245 -0.5686235702838317
-6.016443820165981 -5.637587705263591 -0.5856740688380309
-6.004179587313172 -5.549966712697335 -0.5954564543682581
-5.790853967476872 -4.539060175554281 -0.5377976158567254
-7.805195399293897 -13.798636153400269 -0.6190390503309037
-7.7890379836939525 -13.798385092027596 -0.618423886529636
-7.69310822962158 -13.46351679761792 -0.5837631718165348
-6.303377469667645 -6.3843644507013 -0.6054145899337902
-6.145034431304789 -5.585604731544748 -0.5903210688346956
-6.07969528708448 -5.532845493825191 -0.5966596352625271
-5.934941664142644 -4.6051495722496965 -0.533367555793425
-5.93428792574891 -4.55344223694404 -0.5374632520103744
-7.871873607340962 -13.688243232690926 -0.611740324071004
-7.824491554295766 -13.624956423347527 -0.6039293453414505
-6.323146680303515 -6.312961800347502 -0.6153423241961704
-6.220004486781467 -5.56176303139663 -0.5926948335740629
-6.206017030126273 -5.501375405179502 -0.5995678585649133
-6.0021566087982094 -4.514163922685507 -0.5411432183314524
-6.032889826027728 -4.433331110044676 -0.5479116404471901
-5.277733701431473 -1.033786929999005 -0.5185030147579507
-7.969913256332974 -13.684423879493389 -0.6155366910115609
-7.912806465877414 -13.640554903063846 -0.6090309367468929
-6.302603830815775 -5.4815342137773415 -0.60177219684834
-6.0881811818374265 -4.405683750530673 -0.5507542762912989
-5.408189005695223 -0.9491013914229001 -0.5252274014415022
-6.4734395808080505 -5.663133869913004 -0.5815891336550775
-6.450155077551666 -5.530820433358928 -0.5967208934412266
-6.38356195765111 -5.465827453127316 -0.6038309414111492
-6.147691673694196 -4.359916328978076 -0.5552004888293648
-6.2058870092154415 -4.301882880633678 -0.5607519765285743
-5.510875877893968 -1.0069384984913938 -0.5248067937949785
-5.5012639280687345 -0.9620126564896143 -0.5266962254428402
-6.577928336349185 -5.72005979098949 -0.5758956237963807
-6.537288405843189 -5.632061063097923 -0.5857017775066269
-6.487571606021271 -5.55009946393472 -0.5947722169799153
-6.243934593395016 -4.242904223862645 -0.5661708076938177
-6.247706038552924 -4.203374260506788 -0.5694491884361282
-5.628024149434943 -0.9989562655161315 -0.527935299273806
-5.599355015511803 -0.9551893896808412 -0.5293192909844993
-6.787021064291453 -6.312732878106626 -0.6130854024689474
-6.661091546382884 -5.673157597983272 -0.5824350757932865
-6.636097049552684 -5.662474895624291 -0.5833325491148529
-6.43410394952967 -4.450071705610641 -0.5526550292048713
-6.405534667099285 -4.382269963057624 -0.5576744627315302
-6.336826082815536 -4.293525029005944 -0.5636410607222286
-5.757836774020152 -1.0614134360891558 -0.5281740670824409
-5.6996145469421124 -0.9869792043331511 -0.5302518301718941
-6.790207831631181 -5.80814928997752 -0.5687589507342576
-6.741958878546049 -5.617905477917902 -0.5902861284342922
-6.453793928985892 -4.319812563988939 -0.5638111344584362
-6.4947932186671 -4.240971981113642 -0.5712234482930187
-5.854004882841202 -1.1165010265706545 -0.5280231609371182
-5.783930157557388 -1.0443867128757116 -0.5296385413502528
-6.856255270501102 -5.6606019681749995 -0.5876479797388064
-6.8224766020187975 -5.584590288093119 -0.595872978853383
-6.558415807258642 -4.259353244559371 -0.5711849250854524
-6.5698343051920665 -4.215582825663529 -0.5751134267369391
-6.00114645380946 -1.319331359973356 -0.5222451449250989
-5.94832627202943 -1.1741009578004267 -0.527783746675218
-5.902500484542928 -1.072303805074279 -0.531414756079291
-7.0600622740281755 -6.3124236083672445 -0.6183279736624703
-6.907643797372269 -5.618026524504915 -0.5939560107082031
-6.934625092106021 -5.5722393825418335 -0.600119754394416
-6.951162040008711 -5.470386901905463 -0.6126886337532154
-6.641994381262746 -4.361996851559876 -0.5647445481898711
-6.654013094629826 -4.187683274588354 -0.579576361396155
-6.65707123369246 -4.115712713011963 -0.5856569132179223
-6.049960144268279 -1.3521060616301028 -0.5220303966521562
-6.014659260222485 -0.8360159884478406 -0.5458830869224567
-10.116395108966017 -20.743834994656638 -0.5244778785262989
-7.05546763681348 -5.625038666837742 -0.5974643378357337
-7.029591412304579 -5.548351664885546 -0.605778951642781
-6.975554638693371 -5.451203358002662 -0.6156892817067513
-6.097078465059645 -0.9018606495155854 -0.5450863968809039
-6.093285011395065 -0.8770734505838558 -0.546163932611385
-10.161130936684499 -20.75137636829088 -0.5258861450626238
-7.251594141633685 -6.26588049980702 -0.528108716943394
-7.09662843277329 -5.539357060451914 -0.609069413572638
-6.915176868736422 -4.402570423517131 -0.5693543081428627
-6.925312626439699 -4.309893446717906 -0.5774626351318318
-6.860074147656294 -4.243390173264948 -0.580932392676
-6.185555930554904 -0.7873718880505365 -0.5532473493351855
-10.4290710115454 -21.463138966711305 -0.5502109988753858
-10.326090564685952 -20.895080115860512 -0.5344008399563756
-10.335469423129286 -20.76869574697399 -0.5316860948191642
-7.296875427882222 -5.6663288222855694 -0.6017298657919996
-7.272597054115712 -5.55692988975861 -0.6137649835142569
-7.024025045832318 -4.409933325817464 -0.5724640175617739
-6.995174535981832 -4.342592586941887 -0.5771096097382651
-6.939351228827744 -4.2650260340228225 -0.5817057534007
-6.4583574747882935 -1.4240532116668128 -0.5308790191513331
-6.326010630891277 -0.8586284527079275 -0.5541449683661264
-6.261538529642888 -0.8087966568539571 -0.5545414047869253
-10.401034413947892 -20.777087281120032 -0.5339765616588573
-7.390696798569422 -5.77131558666365 -0.5934939181784534
-7.345178968495927 -5.665193710851162 -0.6040272157617466
-7.334064148159568 -5.613353939811879 -0.6097278961024659
-7.137672723301729 -4.66674293530778 -0.5550440161889436
-7.165893991539032 -4.52252393223068 -0.5682884936527273
-7.145366346595226 -4.3515595870142905 -0.5818931685117866
-7.085910781126213 -4.326444814179459 -0.5817442106660546
-6.4013187736908455 -0.8776612880533801 -0.5556438571552855
-10.495207124633216 -20.88099013717916 -0.5393055935639175
-7.45950841255916 -5.65809348133201 -0.6104440264334252
-7.464482949344438 -5.602594534485574 -0.6173050560003488
-7.239588735469405 -4.651167189675447 -0.560421594309467
-7.2630789006988765 -4.537498368527055 -0.5709753417730226
-7.214235483613625 -4.497897836089938 -0.5723005823117395
-7.186705447788225 -4.314864012728347 -0.5866128407320939
-6.670842640707078 -1.6975209886082618 -0.5246766705458277
-6.465506054181284 -0.9374049598592062 -0.5548237744906503
-6.489010177928216 -0.8790071634084757 -0.5584630842628403
-6.495042740710135 -0.6236276628155135 -0.571117782227885
-9.430317910304376 -14.830158043428469 -0.6161435217469085
-7.767474168269309 -6.630797645692246 -0.6072001624455452
-7.586919690561131 -5.68753176403977 -0.6138034755643105
-7.529989113536211 -5.6414735298951015 -0.6161171438932128
-7.393266807698634 -4.782804622056965 -0.5560263571523734
-7.372377789582781 -4.670439047069876 -0.5645250117425324
-7.331362147957773 -4.54516426352608 -0.5732743844996712
-7.279436012019983 -4.457846899356918 -0.5783808984221681
-7.345991867723623 -4.402780841449043 -0.5859000469988216
-6.815096816523223 -1.9137008315315676 -0.519213485750141
-6.702488750373878 -1.222335375638882 -0.5490314954728749
-6.6568507650424955 -1.171554838768536 -0.5499037466352138
-6.567580776549005 -0.7737896541597635 -0.5662538409221223
-6.52503596977664 -0.6230292295907187 -0.5721734707162449
-9.512432043117345 -14.811755463283728 -0.6193064124046025
-9.45499907903773 -14.749838807981744 -0.6128230482342883
-7.672009719733705 -5.6906129457534025 -0.6184567652198091
-7.474112878675038 -4.849649701675715 -0.5541645454402466
-7.422127751021427 -4.336968654919902 -0.5948784316164186
-9.59468102642981 -14.733623148758383 -0.6191437917536283
-7.836789137626124 -5.98201862726048 -0.5949523365487571
-7.812905175018378 -5.812903600810324 -0.6131175963926716
-7.5197462552749155 -4.5507650362416205 -0.5815185729369734
-7.508847025402861 -4.456406407468166 -0.5889257755391712
-7.465389623612345 -4.3266354948065 -0.5977644279610617
-7.096301063634424 -2.1115655873213255 -0.5201671656861498
-7.935238282983419 -5.947517173817813 -0.6061572081355777
-7.615142626613007 -4.341370731583094 -0.6038883466624955
-7.5634048056191565 -4.21803709154417 -0.6116450708906415
-7.1457129160391775 -2.122559594763115 -0.5216024143123982
-7.169023791916531 -2.034277666362284 -0.5268815011594384
-8.053326082506631 -5.96794011973274 -0.6129882349586037
-7.697140948186816 -4.372117292413709 -0.6055884402779699
-7.737130224424957 -4.29786553838249 -0.613954795775965
-7.900729177896363 -4.716957733497383 -0.5883110595543353
-7.182852934381474 -0.975340018189927 -0.5795220003176698
-7.9419956404893535 -4.547953146645672 -0.604830365267158
-7.894865502864724 -4.473772044459838 -0.6081755670658736
-7.21133301510167 -0.9690957883218321 -0.5809939486054994
-7.254148696871847 -0.9230352188775335 -0.5850395974347807
-8.1544784607827 -4.799670635005825 -0.5975933836149714
-8.008372288008378 -4.48655791288665 -0.6139521319789926
-7.383046855977477 -0.9518954884964028 -0.5890875300652803
-7.32611177361464 -0.9100070703726004 -0.5887150338219348
-8.261261114333864 -5.317061775408641 -0.5631303144611179
-8.196361350040464 -4.751518922648168 -0.6043587259882519
-8.2130511147356 -4.671548112545705 -0.6120169941081033
-7.69486733675812 -2.3510047179081797 -0.534478780981356
-7.440007796860338 -0.94433895549105 -0.5919413053393707
-8.578400152492769 -6.027929887429744 -0.5330365625665331
-8.455688713012611 -5.479634777166341 -0.5652264490382612
-7.579275661711838 -1.0591682223872798 -0.5925038194410972
-7.525901448749696 -0.9246820872702912 -0.5967072523861646
-7.934272771562193 -2.581253437867356 -0.5350192400952059
-7.92403413631792 -2.4417057771320216 -0.5412993743499994
-7.687964021492981 -1.130872642301524 -0.5939822104754457
-7.6230010149042755 -1.0370180696528362 -0.5955843737818807
-9.144790177901683 -8.04608597088106 -0.5622048743412233
-9.195777049975295 -7.985318494248801 -0.5738167271304175
-7.957621506543904 -1.833001076234761 -0.5726815523546855
-7.8361737593627465 -1.3938042588831667 -0.5881422364277507
-7.842269840806867 -1.3141654216761873 -0.5923376989972788
-7.739598445379307 -1.1851351370450525 -0.5937424767298136
-9.298869802313117 -7.989704818135113 -0.592036168469869
-8.665200044804275 -5.0734087008458735 -0.6139934042888421
-8.636987642491645 -5.038597734226613 -0.6143815795738349
-8.362638329818651 -3.294345275014397 -0.5240040289991121
-8.337512595522243 -3.2612695117476544 -0.5241195832590582
-8.317249482588348 -3.0710893321395556 -0.5320407098998441
-7.94053139606333 -1.4604008302195703 -0.5900121755266283
-7.921100655670819 -1.1991437704109558 -0.6018147169517849
-9.424095554769664 -8.123452487438621 -0.6104148418931771
-9.367027044392776 -7.992003852462429 -0.6042157956149719
-8.501645606016291 -3.530465227093692 -0.5211392906174848
-8.38613130574095 -3.2825144197435643 -0.525946695681315
-8.410216407544121 -3.2709186875126033 -0.5279151277677119
-8.068811830370324 -1.5129633300237968 -0.5939303829546285
-9.56974710086001 -8.366677645110023 -0.5456209704147215
-9.456545659572317 -8.118574728237007 -0.6166000239956941
-9.423694671094879 -7.995756125189706 -0.6143413200589842
-9.452567448924516 -7.848119005081786 -0.5333262425450429
-8.146599310290105 -1.523634293828044 -0.5974389798590567
-8.186825688393782 -1.415745703486527 -0.6047859821809691
-8.115818801433273 -1.3212024213542044 -0.6056833431632677
-8.14861508627528 -1.2685558413381788 -0.6099420251902806
-9.683677122248096 -8.424197133390217 -0.5640859999948277
-9.658963381430242 -8.37986244971313 -0.5599100664363692
-9.597210418917797 -8.288630684238168 -0.5499558382479143
-9.581023117603937 -8.192114183484525 -0.5477307416951076
-9.586409819682764 -8.098299573384182 -0.5492595528115046
-8.422865391144047 -2.1614119773082514 -0.5816481849559836
-8.40952107305287 -2.084319997254404 -0.5845974014905697
-8.208694926942076 -1.472751902025105 -0.603172199596496
-9.825134278919926 -8.683290839679126 -0.5904970917614307
-9.803438925976183 -8.58146233177283 -0.5851606884248084
-9.736261474721573 -8.464255035744937 -0.5728735681028114
-9.626980144855748 -8.034360194961913 -0.556158082921637
-9.681658508822025 -7.962080102529935 -0.5654430161206039
-9.66383627358072 -7.91237505210025 -0.563486820590771
-8.450139437517322 -2.1497723987780475 -0.5837558472707449
-8.296436001459265 -1.431686084636083 -0.6098437527654625
-9.911553759980212 -8.595025497574422 -0.6030051283902118
-9.875916236407093 -8.535090061004015 -0.5963016590664173
-9.839944672071718 -8.49196665768346 -0.589903751918186
-9.712298000661516 -7.944015419186909 -0.5703415681514128
-9.715338552703578 -7.884845799927143 -0.5717081863429
-9.326297655800104 -5.975809215132965 -0.6094386131381226
-8.85506727018832 -3.6034912960511614 -0.5403696907604318
-8.441664739738528 -1.5556402178130213 -0.6118126950733644
-8.449553267126094 -1.5013631358724355 -0.6148668079156678
-9.984942473191603 -8.598734897485249 -0.6150561293104118
-10.142520125767746 -8.405275584928296 -0.5315712911370141
-9.966498850134379 -7.463695372636792 -0.6181060027037737
-10.17809740830133 -8.208200259748327 -0.5326884128235779
-9.308101165393369 -3.5368706259908143 -0.5749325870195814
-10.128437028398597 -7.490549013726843 -0.5230899418435547
-9.186537301318381 -2.7793227771049294 -0.600220996658194
-9.244733556009006 -2.6697794224781717 -0.6091405294775393
-9.395395164839497 -2.8862872147313476 -0.6099267861568449
-9.29700378003398 -2.658813591110855 -0.6132195342334004
-9.439879970090761 -2.9693204271747993 -0.6094214196690229
-9.420031929624685 -2.9211554133239472 -0.6101318062676244
-9.745908246022548 -3.8327502843100607 -0.5938577125039044
-9.741380917193494 -3.639748743079503 -0.6016985200472771
-9.882331705420654 -3.855167918412353 -0.6034088053781612
-9.841924092070515 -3.7727552046731283 -0.6036939515075536
-12.295363754449603 -15.560274909777284 -0.5252198334953061
-12.275877674231399 -15.536079792788767 -0.523851276598499
-10.603361514679264 -6.9849735723940825 -0.5815461125590263
-12.452549933338993 -15.667681715487236 -0.533417850877814
-10.686620048812848 -6.895884104154162 -0.5919064012650224
-10.692372004400873 -6.847989591016553 -0.5930135701546828
-10.77091458866205 -6.944181178837086 -0.6011343104918127
-10.598594908594427 -5.8867226719241295 -0.5993084451859274
-12.615751620838196 -15.823616465053671 -0.5431112989780696
-10.917824820827565 -7.3384745297212985 -0.6170191724281093
-10.923416779518398 -7.073327353765109 -0.6181155156934329
-12.956563130324362 -16.19567750707238 -0.5648034287102297
-13.0080381142308 -16.15959037088268 -0.5654471276094013
-13.045465518856805 -16.109667231099305 -0.5653077608158046
-13.167556540014505 -16.155886424613648 -0.570594923714487
-13.26651898782938 -16.32328054263927 -0.5785030493732702
-13.291619992504375 -16.197193402850306 -0.5757920606610978
-13.226886307945758 -16.173617785034033 -0.5729729912606873
-13.32618963632462 -16.139071432647043 -0.5752009022223901
-13.509941377082153 -16.253582795626055 -0.5842387822569108
-13.55264668603045 -16.253089591356883 -0.5855481941163896
-13.858485913466886 -16.494275921038984 -0.6020883992038477
-13.766159968141032 -16.44294495200431 -0.5977087325476881
-13.942572263643651 -16.482761888010316 -0.6042514741336951
-14.073689433197838 -16.522343389856992 -0.6093769125652498
-13.959195407401333 -16.44861443759072 -0.603656473234284
-14.138882866102396 -16.516261002813597 -0.6111074460729311
-14.258001542671437 -16.513724443865005 -0.6145844190395615
-14.189676202315201 -16.493231310736302 -0.6118819335521575
-11.832820234324723 -4.425083751928291 -0.5286895131468748
-14.355750189983729 -16.51412071232864 -0.6174856422610886
-10.974530946234715 1.368089341282781 -0.5188489374663098
-13.383404961780967 -10.480076404157305 -0.60393004617994
-13.404899679893468 -10.38483081161842 -0.6007886180856679
-13.42971743884291 -10.311636729411738 -0.5988944524039093
-10.865388455108693 2.184669281500579 -0.5216478608340467
-13.543560342999577 -10.55994451110472 -0.61715933147617
-13.460512747060868 -10.262518750167708 -0.5984594581665525
-13.494538633785316 -10.179518216698229 -0.5966885100270424
-12.166705065708253 -3.74471606874672 -0.5544633372430419
-12.029634513594141 -2.8085698193143482 -0.5470883178633824
-11.430176146527051 0.10354332164855506 -0.531315686762631
-11.165678714853962 1.2112054400636385 -0.5283660871375822
-11.077447602042424 1.5415959840307156 -0.5269746388722929
-13.51774358724137 -10.11663853699617 -0.5952090826621114
-13.552611906789467 -10.044245083328242 -0.5940073889121992
-11.204326416289518 1.657356772400279 -0.5358441400539471
-11.167491322550834 1.6749369269884546 -0.5338628430485158
-13.600481028778116 -9.938500052732284 -0.5921096693606773
-13.635310258652439 -9.836566367893186 -0.5896305100261279
-13.578611414846952 -9.758513000520756 -0.5827958660192043
-13.659626222454452 -9.811060774563686 -0.5899594178848413
-13.674824626670016 -9.722291263355798 -0.586928162647836
-12.601776595607674 -4.394563045307129 -0.5887587833265228
-11.969267635727935 -1.1142348851525359 -0.5538066513896404
-11.932012541259198 -0.8498057895387472 -0.5535545147163039
-11.929737162491357 -0.7501006627996958 -0.5543170457327555
-11.853034659953178 -0.7147949658989567 -0.5496153852974859
-11.612495491810463 0.7880057585431803 -0.5496131879326678
-11.46028846889373 1.216372068506967 -0.5453985682592648
-12.672261731941159 -4.415542697830906 -0.5944158210594714
-11.723722824664552 0.3955263701838998 -0.5523104606303255
-11.674498711153314 1.0269616221800195 -0.5560999727309041
-11.650437850036427 1.1188914510779373 -0.5556137934351565
-11.583776538442162 1.4186115047427847 -0.5551260620706968
-11.497086701414688 1.5246264438910213 -0.5511301133320126
-11.486342330400975 1.6083536694957434 -0.5516316615314574
-12.908154074770179 -4.770727448441436 -0.6153301480773304
-12.685133487036877 -3.576826522175403 -0.5939524459967971
-11.997030948398056 -0.26347543703520593 -0.562849502017078
-11.936155474870647 -0.11419983528399058 -0.56042462989549
-11.684379838826827 1.3509479594542384 -0.5601603445822687
-12.92432027591829 -4.566135840403073 -0.6154757892977087
-12.725358160617045 -3.6499422918222164 -0.5969977239141067
-12.755825938238393 -3.5425535806566852 -0.5992912918799861
-12.118696037977394 -0.33388751948773 -0.5700374278215774
-11.814805525004612 1.0570217131096413 -0.5647312931697457
-11.790481611597919 1.098403130827986 -0.563854376878965
-11.691569595211348 1.5774962695865327 -0.5631528442922068
-12.891828061013218 -3.716399340436796 -0.6099884747328108
-12.857116212533928 -3.635072341392582 -0.6072620268787896
-12.837826366849974 -3.4971469318625523 -0.6056582439721305
-12.804361876121453 -3.3726667669226886 -0.6030627518390816
-12.727403909961726 -2.8220471409722743 -0.5977721275394348
-12.698414110813047 -2.7656965933598823 -0.5958392358582792
-12.708094255766039 -2.661352122737254 -0.5967110796907171
-12.209136089265733 -0.4600853524824373 -0.5748341712322644
-11.99330335422248 0.6192305976666592 -0.5712269542112356
-11.775009707828541 1.6727069066262992 -0.5693183929765726
-12.856394715661956 -3.275968768720321 -0.606962205761824
-12.883156787246307 -3.1638352804937604 -0.6090322038756821
-12.037683469803127 1.2633342221496946 -0.5806126365869735
-12.600075235197679 -1.1254345219630402 -0.5960788247715966
-12.218882545360366 0.6883892021014599 -0.5859224707630639
-12.329362005496275 0.775797572202066 -0.5937890879792188
-12.238669950406209 0.9030210916364645 -0.5892602180950058
-12.215291705576018 0.9891389443121312 -0.5885894935732734
-12.809910846582756 -1.291000733192388 -0.609625036358618
-12.769710749111429 -1.231131824576389 -0.6071558601481734
-12.91467780098295 -1.2011815240305017 -0.6175486465737441
-12.669031035316001 0.278342436157919 -0.6111548896350335
-12.590672981898287 0.7697998186461792 -0.6103475042963651
-16.15265985810101 -4.501545618436652 -0.53690237034383
-16.148662037768165 -4.3074628767777785 -0.5307374194609216
-17.37707511551262 -1.5858726586986958 -0.5191628313662364
-17.510726251982387 -1.7064507482783142 -0.5298671856845257
-17.455847424093758 -1.609686736766915 -0.5241916386181746
-17.814976463875375 -3.0800526217891075 -0.586994595508779
-17.64373492288968 -1.7975103845294287 -0.5397985923556837
-17.57069401786127 -1.717662825765375 -0.5335836606680077
-17.79010805423145 -1.9925056449230407 -0.553502536753756
-17.644663463335803 -1.7178258573267726 -0.5375338582490171
-17.636187777340517 -1.559550339545586 -0.5327078969457422
-17.931772254444056 -2.2199856710734416 -0.5679558203344199
-17.803020472720036 -2.036504871388141 -0.5553781548759315
-17.796947490905414 -1.935168746896018 -0.5521227224135441
-17.777339784737514 -1.8960441644717942 -0.5500290866404964
-17.986038135746924 -2.237610388069398 -0.571380029987041
-17.999459503166406 -2.0679250158888323 -0.5672712947213662
-17.937293591033672 -1.9997117251692078 -0.5618460030700785
-18.12617093036048 -2.2005448610439178 -0.5781845109734731
-18.039449531492398 -2.096005874238779 -0.5702023322755614
-18.00062234728156 -2.011770769870754 -0.5655930685234162
-18.221826538617016 -2.2731086069403954 -0.585593827745826
-18.305814095249804 -2.326665016115819 -0.5918619603461921
-18.43710702726592 -2.40357166502572 -0.6014832338447721
-18.40725098722395 -2.3408821100890416 -0.5979915098483413
-18.539461310091195 -2.5819872531908397 -0.6126328222702501
-18.579004358286337 -2.5070632634474492 -0.6124894820755715
-18.625898451807032 -2.3997922730344996 -0.6119391953531339
-20.89665899587666 -11.508598004292164 -0.6129970986238699
-20.960682875543164 -11.423818707820557 -0.6112298564590446
-21.047988094398708 -11.316060939384734 -0.609102182703191
-21.29044602848185 -10.710162601627273 -0.5908002565121687
-21.510500745657914 -10.484563067930411 -0.587058151661557
-19.687034065887705 -0.5101787181371176 -0.6154385199667087
-19.721731490408065 -0.42016394361271026 -0.6149039335326081
-21.96904890889848 -9.552546576764433 -0.5599448713698557
-22.077772092798625 -9.375710280215165 -0.5552147914951975
-22.034174820481585 -9.246405879608488 -0.5487079475765125
-22.207333969833496 -9.455629571156823 -0.5617931444270337
-22.325941363015943 -9.037740552850465 -0.5471244593993153
-22.33680910397183 -8.935281015442614 -0.5430497836593962
-22.367454545672853 -8.984907085356896 -0.5458909679909272
-22.400007146148695 -8.884113779235427 -0.5424172548084263
-22.534871927165657 -8.828148315489992 -0.5434046822136882
-22.585645062047508 -8.77353550615319 -0.542313159684563
-22.620092128735475 -8.71627838502436 -0.5407521577497243
-22.64239928137979 -8.659475655287736 -0.5388583592027562
-22.696502060506845 -8.603697359868047 -0.5378401771669142
-22.721409221600148 -8.522602596337668 -0.5349745803854238
-22.689802967717437 -8.418883059879823 -0.5297409618409085
-22.746802205962073 -8.336946832121823 -0.5276201140597083
-22.877559971674245 -8.275161767937828 -0.5282275505617692
-23.011011470436216 -8.099490504005887 -0.5239381900508164
-23.040147793546833 -8.014572438668822 -0.520998834585195
-25.056243464157752 -7.212562718156906 -0.5361357336632434
-25.037577777310318 -7.153370351127385 -0.5330953854983423
-25.757611192692295 -6.745985235363124 -0.5330699174715755
-25.890929607432437 -6.596283009612982 -0.5297754025090321
-26.188325339385347 -6.756289311859115 -0.5442759085360002
-26.09567159259884 -6.500884340777592 -0.5306767981757218
-26.30978788249072 -6.8755353128980925 -0.552553028225449
-26.20652117101369 -6.821135053388955 -0.5475655922769996
-26.209058220404376 -6.417574939944451 -0.5297909056694599
1.4045507927471315 -19.27802494800875 -0.4941801417478954
1.3067506710867152 -19.309033091470113 -0.4987041029634638
1.3660200783528316 -18.95861380413235 -0.47740026888451015
1.2552655365291647 -19.03441392676566 -0.4847335682371672
1.2618530814601678 -18.973019785120876 -0.4811609250918544
1.2885219435131026 -18.80546365128353 -0.4709878931545145
1.3251383262873366 -18.74576782390748 -0.4666505016742576
1.1418710984878766 -18.76974528571707 -0.47314427035874496
1.1256935607758054 -18.397555145592 -0.4528572882121218
1.1962710128392517 -18.124178734339893 -0.4357214951415807
1.0394924460281585 -18.1452774295208 -0.4412184181150116
0.9725019298436335 -18.136476359813347 -0.442649238551863
1.0194458747174737 -17.82018021750289 -0.42379052890832913
0.7743927339172485 -17.738822712226934 -0.4260549091906255
0.6293820752518702 -17.644613302333198 -0.424914481129987
-0.8732749338141037 -13.562474619097923 -0.5148654418257603
-0.8534554520067035 -13.527920999727137 -0.5124593832386669
-0.8767946456364246 -13.431667716696854 -0.5054469138068857
-0.7738826425234269 -12.998535779822008 -0.47546747895999214
-0.9288232852106129 -13.376176521157024 -0.5012921012197561
-0.9382303738060784 -13.280990419969587 -0.4944608767534993
-0.9113700413383947 -13.190117393175512 -0.48817167704306913
-0.8629680184001955 -13.096936546927559 -0.4818355455906673
-0.8328256690318465 -13.023693770904064 -0.4768905240615987
-0.8662397616093891 -12.914893072628574 -0.46920851490542403
-0.9886400303810259 -13.157525224663962 -0.4854940692498045
-0.9381674582885333 -13.051451631330677 -0.4783014516294556
-0.9224606852121706 -12.970996564323869 -0.47278366213756995
-0.9404549510997589 -12.754760267235474 -0.457798323309404
-0.953439720705938 -12.689767564919508 -0.4532736342388729
-0.9017498245829625 -12.60529824866194 -0.4479100044012484
-1.2376560055776942 -13.566535816962482 -0.5140202159996541
-1.0638431360790994 -13.06497233994598 -0.47860878159426673
-1.045313346142314 -12.639153646055505 -0.4492918823105678
-1.1322585189359486 -12.704012880804225 -0.4531776829957363
-1.0807191337297972 -12.482216709109682 -0.4384464668721201
-1.0901518891387116 -12.366353172694547 -0.4306484738767383
-1.199374352791681 -12.500309910780985 -0.43892201382161466
-1.1394511094616577 -12.40931574188848 -0.43318589377697936
-1.1635168577421648 -12.35600950720256 -0.4294756372295722
-1.1457817536013124 -12.25942074259687 -0.42319837547306494
-1.4659260606140538 -13.619147113297533 -0.5174044986478773
-1.4711772405353756 -13.336890097976802 -0.4965391874535546
-1.2444652322764798 -12.449297433006867 -0.4351680922876497
-1.1950835604640009 -12.28616690631686 -0.42461775150726633
-1.22168689204858 -12.221222415280105 -0.4201150065511472
-1.5776845474770207 -13.351285537989181 -0.49732438359630227
-1.540831600556091 -13.19650734089687 -0.4861185963784441
-1.6285813360437684 -13.34301799162153 -0.49656367213429375
-0.4138661236141177 -4.9928309663947115 -0.43790401887042923
-1.0982774341719521 -7.796863594339676 -0.4280141574574813
-0.7152970765683744 -5.8792070621644115 -0.42419997607793414
-0.6650309764616393 -5.7950099330633495 -0.42609095000441205
-0.5169701561919808 -5.023594042542534 -0.4342120505230426
-1.73718668282606 -10.629781495207082 -0.5188040767672879
-1.7480886858389297 -10.52594479091829 -0.5117003845913222
-1.689166138796553 -10.519949197043317 -0.5140115244019542
-1.1731723928747924 -7.913909118831993 -0.4272578719002301
-1.160367710263686 -7.877823882691721 -0.4270155842642926
-0.8434687112426271 -6.041434488463013 -0.4194628825220617
-0.7818513420364273 -5.969667004383323 -0.4217334753243761
-0.6146531576329117 -5.051768819552008 -0.4307602277061996
-1.8665279163311403 -10.717371890556226 -0.5187282982144962
-1.841094832179107 -10.663158915355389 -0.5162901057419264
-1.794207370069878 -10.595196614165845 -0.5140053067501303
-1.8090484795831623 -10.471802865292457 -0.5055505945769916
-1.4130082494528757 -8.601107771669716 -0.43545503754507686
-1.4027267775447436 -8.467053743957312 -0.43162091229400734
-1.3345871189572387 -8.363406578212839 -0.4316611366489086
-1.3470762795828062 -8.32307597460894 -0.4299098020262786
-1.3365007662885766 -8.216628795988699 -0.42740643403079753
-1.265519511004606 -7.791515609217235 -0.4203253771990939
-0.7143280269362533 -5.050789328221263 -0.4274481397095183
-1.9495719568576808 -10.734119911987786 -0.5161443305340416
-1.9289097028525193 -10.633175554150757 -0.5104255609920527
-1.884877931107086 -10.532953822043552 -0.5059666366193891
-1.9058606235583255 -10.429719834579759 -0.49855305974068087
-1.8141039857692487 -10.114698496200289 -0.4840841600721194
-1.8145592027883835 -10.055867478309178 -0.4807692112445394
-1.5403863557569384 -8.665123754697722 -0.4315759748697263
-1.5159331352557448 -8.55198133196505 -0.4289871340629453
-1.4829355862436842 -8.445629176996999 -0.42720374684595697
-1.5066255167654354 -8.4183211534421 -0.4252541883890598
-1.4687054856040582 -8.28011327586864 -0.4230085509670062
-1.4333213530361153 -8.190736900620568 -0.42220496568005716
-1.4022737689338456 -8.100671568271233 -0.42128979265821237
-0.8110498055336492 -5.032748270063457 -0.42441980491371134
-2.0945118097252795 -10.850810896678578 -0.5176969011467485
-1.9869716842170249 -10.644000481288671 -0.508538205010987
-1.9382444740031621 -10.38316947727725 -0.4942091347321723
-1.9944405616425538 -10.312910957020625 -0.48736856443543786
-1.9217088672271796 -10.115820650743734 -0.47915864270656683
-1.88572956608592 -10.006820202523237 -0.4747219083540616
-1.9047826943964585 -9.899977233042675 -0.46801469536461043
-1.8958377812390603 -9.77647261273917 -0.4619612794025154
-1.7719954394266484 -9.118194533757633 -0.43753026176896875
-1.7486242054469718 -9.002918654805956 -0.43405340650588387
-1.7315812912220192 -8.944136219996482 -0.4325885747869824
-1.7043412177489188 -8.874659162756323 -0.43126116315547386
-1.6983242398413836 -8.72880568257014 -0.42627788104966235
-1.6137927227232618 -8.641633650255926 -0.4273007480047396
-1.639799674481421 -8.56583237988141 -0.4235953658649828
-0.9068461709624742 -5.046464568990516 -0.42119854334166423
-2.099943561008601 -10.328545801166218 -0.48347033185981153
-2.03927477405599 -10.218382467564378 -0.47966386590516974
-1.998528307923955 -10.159744097139487 -0.47810460871087723
-2.0444774142618494 -10.039257030668685 -0.4691008386929276
-1.9816639350671528 -9.93609658305409 -0.46635731877499986
-1.9654879443351092 -9.84472241510828 -0.4622253082796685
-1.9683011368540697 -9.657247027691453 -0.45250368343828384
-1.9464630460950598 -9.529356803467188 -0.4473187404018897
-1.8042548735199686 -9.099632805357874 -0.4352514569430021
-1.8252495886894478 -9.034150979836156 -0.43164321433083974
-1.7985599370906895 -8.908997490582658 -0.42807491952946175
-1.7921350411739434 -8.822365290314755 -0.42516781613789656
-1.7309023860797028 -8.760512923026843 -0.42585514147790593
-0.9664399194784377 -5.0539467296522504 -0.41919266051130877
-2.1820857274424714 -10.348093151475783 -0.48091711093844547
-2.133567668349386 -10.153985989287214 -0.47153348071971724
-2.1135129641101322 -10.111078886404266 -0.4699755038745031
-2.086201200968196 -9.97676556831559 -0.46367802809201686
-2.0667106725122597 -9.777164658616638 -0.45391728246143104
-2.0312466200658514 -9.706915145382482 -0.45200994874454326
-2.0043020218527143 -9.589340070640233 -0.4474599907757505
-1.9863719760300533 -9.526636968850246 -0.44530724882585593
-1.9681483928969241 -9.454200096548178 -0.4427636677999183
-1.998694414237546 -9.306053204118458 -0.43464074524386276
-1.955420586873097 -9.17681142763292 -0.43119706711326605
-1.889686551157812 -9.138890640404194 -0.4327732339832357
-1.807407972068443 -8.719371005181081 -0.4208031593394789
-2.269939019214715 -10.255141943565729 -0.4712356290793369
-2.2313341261518342 -10.181180215416687 -0.4686060710662111
-2.191884643094922 -9.781544384653404 -0.4482519648116587
-2.1761132871756788 -9.711249109709025 -0.44537762924311913
-2.1020320931421654 -9.627610396351091 -0.44468511003878686
-2.1032472056909777 -9.47416504991028 -0.4372665244345093
-2.0720553169789966 -9.386953333975788 -0.4347589315977435
-2.043305753883663 -9.268641898994064 -0.43089745726772466
-2.0384282230415094 -9.222997109516191 -0.42917431101335984
-2.374151114574768 -10.19760916083136 -0.4629970433897017
-2.276855120393612 -9.674988939990095 -0.43876963418226567
-2.1745133001933485 -9.372219177439835 -0.4291941007861457
-2.1389612065333985 -9.32097913570729 -0.4286177423173652
-2.967199197494102 -6.574159243234469 -0.5179671372964856
-3.008600525463912 -6.578962128710598 -0.515219999359261
-3.3606544792312945 -7.161498582981727 -0.4797868267042863
-3.3868634292051034 -7.0983891664059 -0.47914661755039206
-3.1711418171515167 -6.193569980396504 -0.5166463108839451
-3.1902746404924 -6.152262448230133 -0.5169577076194469
-3.486113277509242 -7.075181616713387 -0.47296694748440116
-3.270458788645968 -6.1684080819271445 -0.5118321448015053
-3.2570831293636915 -6.1363831006402885 -0.5137359424650202
-3.5438734739122837 -7.039355062935117 -0.46993618842470075
-3.557781018253869 -6.9861869972501545 -0.4702294489957333
-3.3380785692321013 -5.999475567786373 -0.5143658346514527
-3.432233276779681 -5.83629322533181 -0.5160808452859278
-3.447598479536323 -5.778750823801214 -0.5177747017398824
-3.640391174748689 -6.34771794592706 -0.48471587837931307
-3.6159951826574095 -6.2663420612312954 -0.48910764872030865
-3.487664023666228 -5.766912983934585 -0.5163098887218645
-3.527636295527113 -5.670372296096552 -0.5187092298105271
-3.6762938708967163 -5.540553653570942 -0.5181162381350116
-3.7981276427007473 -5.639098703268159 -0.5078598885194995
-3.7255831273086635 -5.539717424115933 -0.5160028581524962
-4.115595789337624 -6.594229338091065 -0.44955227944117804
-4.1671661670121996 -6.600773814688721 -0.446559280697639
-4.160639420450247 -6.5479500727357856 -0.4490460084053739
-4.059964131165957 -5.307896749647943 -0.5151729188872883
-4.111644295384513 -5.289524777403214 -0.5144161685065578
-4.245769820069513 -5.264766345622089 -0.5113539516256307
-4.223415583937481 -5.218111027256493 -0.5148940179352655
-5.927678406355908 -13.173767315508043 -0.5060394028673584
-5.879318441282132 -13.158744349526755 -0.5038532789791096
-4.3186910164400825 -5.246852212435946 -0.5101347245025496
-6.000785879210566 -13.304409537422696 -0.5190800519456183
-5.967886021690378 -13.216401643513299 -0.5105671126541526
-4.644021966121081 -6.178244807845861 -0.4449206590808058
-4.4072600888203155 -5.337553378320511 -0.501926232154796
-4.415725712578185 -5.263485463863078 -0.5062146797759094
-6.155865164575056 -13.222544899537926 -0.5148965141543106
-6.119333381867481 -13.168823915945435 -0.5092969340260247
-4.79917014307823 -6.520201710244677 -0.42046372764674367
-4.796498550174066 -6.3829633267455925 -0.42788845743758597
-4.668238487516398 -6.174371067998801 -0.4442012926602701
-4.6824329481094376 -6.14115005110477 -0.4455289930809818
-4.516739630991047 -5.290924781883721 -0.5016145413513678
-4.553545620750964 -5.256227233180841 -0.5027933677493961
-4.525978704600378 -5.125957619302818 -0.5118437117445545
-6.2376152175539765 -13.199298243107288 -0.5145523434821577
-6.209777687049968 -13.163602474838521 -0.5107748034540868
-4.830992033579978 -6.479776448921521 -0.42131211476671465
-4.821202303931203 -6.430470542101705 -0.4243322517906592
-4.608710141013644 -5.135557910344299 -0.5089816359700218
-4.207444483626411 -3.0110436477674636 -0.4196080443895595
-4.154190583482015 -2.6501063304763743 -0.4339393350938639
-4.097254139604244 -2.407282925215112 -0.44359473200084587
-6.342803249530856 -13.19162429518008 -0.516219804404552
-6.308799505771547 -13.150048788900829 -0.5116778880761828
-4.663240586153876 -5.180821357898339 -0.5046203689206676
-4.67668099958348 -5.077884200265224 -0.5109187443498461
-4.214530976481019 -2.834017425536701 -0.42671772432356503
-4.157081713864459 -2.5956636081306446 -0.43617322345558196
-4.16881391028355 -2.499655698842857 -0.44012033931796846
-6.409390038019037 -13.106201040829287 -0.510010290372642
-4.819715364538579 -5.168222936120106 -0.5015620328250658
-4.797130714039419 -5.063198335743363 -0.5090312984897227
-4.285606356595344 -2.571418379739475 -0.43766101710604904
-4.308699946128966 -2.5304202882328344 -0.4394792500185204
-6.498474341714998 -13.067603594714479 -0.5086663985416804
-6.495865779181221 -13.020119130938054 -0.5042852016430921
-4.891737467827564 -5.049125181058232 -0.507926831100649
-4.329069502516212 -2.4842566253619927 -0.44151165303423195
-4.347109499418164 -2.1288453068135507 -0.4565358371672756
-6.587942411449283 -13.075369073521287 -0.5116139689577801
-6.557172149779259 -13.019414480588788 -0.5057614815902229
-5.02046577778313 -5.094255501271533 -0.502338253367381
-4.976707090796933 -5.005798952415232 -0.5092471537138306
-4.974821367441749 -4.923682644823878 -0.5149139351797819
-4.639458178342209 -3.0772112184145337 -0.4186095597846951
-4.531246302352612 -2.7017935275073173 -0.4336577493911112
-4.50754573963254 -2.5816150944394796 -0.43853845470641606
-4.433058855420304 -2.2684718203032235 -0.45124187062141685
-6.716133652987046 -13.005129507527762 -0.5085938557280141
-6.672762496291392 -12.981960492670591 -0.5053160705369694
-5.057867939106403 -4.97328522025071 -0.5100628482497325
-5.083948803773485 -4.896880949582709 -0.5150272825438207
-4.604499675249271 -2.621640808925055 -0.43758429529531595
-4.631799023227707 -2.5567888765076665 -0.4405746004364366
-4.545155378228841 -2.3395942144861506 -0.44911720311760955
-4.520996823689973 -2.1385602620558597 -0.45754192605250854
-4.535540852054284 -2.1028511185397827 -0.45919465989462144
-6.785732930931005 -13.043039404905533 -0.5140243351357998
-6.7605482550125595 -12.93273182351983 -0.5031788123270342
-5.201207402878834 -5.001986355269709 -0.5058863162954046
-5.171648584977884 -4.875251443617271 -0.5153469748512494
-4.6637368945500866 -2.216637981356204 -0.45554183280844446
-4.601327587451884 -2.1247691978298127 -0.4588817396953937
-4.551593744909177 -2.0688863400602813 -0.4608332009293825
-5.251750622438597 -4.860940304996159 -0.5154088711161864
-4.702590972573793 -2.209663217461731 -0.456244190371018
-4.614868237567215 -1.8533533085125917 -0.4708495050269995
-4.622822117995997 -1.7549550469524826 -0.4752656302899386
-5.363647654354222 -4.849042698757536 -0.5151839043725439
-4.783096429454077 -2.0904582458037346 -0.46239156768114853
-4.758158314211245 -1.9382500265755684 -0.4687908084079389
-4.756379098408642 -1.7635007260878135 -0.4765100586294016
-4.732290095651313 -1.6926239950248751 -0.479369144455634
-4.855779329326892 -1.8041624139159085 -0.4760423212438902
-4.844592455320539 -1.6816625692550513 -0.48135105246762033
-4.77547335194277 -1.6475053457686766 -0.48192426311438935
-4.820312634057366 -1.515269151389142 -0.4884854012146248
-4.816334814779267 -1.4095559874523031 -0.493160388326898
-4.864252507435493 -1.4678689038046722 -0.4912625805766397
-4.907940113205713 -1.3227851972396545 -0.4984797291471795
