ply
format ascii 1.0
element vertex 838
property float x
property float y
property float z
end_header
29.08148306896344 -190.48555416466283 -4.983876903474189
29.15607511115405 -190.35420589856864 -4.932229731471845
29.151899242746687 -190.33637042015374 -4.92821094067511
29.24188973824462 -190.1322636590931 -4.960763567656384
29.201661392299886 -189.8569381252779 -4.8990478902343195
29.06836463613638 -190.47329987069477 -4.983345619464124
29.0515063245456 -190.41903661695758 -4.972373995512098
29.10950292788177 -190.27772160680445 -4.921260133958403
29.11281542303702 -190.05440099012623 -4.973396057689367
29.106053172634486 -189.36203624934382 -4.929097992040781
28.796298988228855 -190.42385986744105 -4.912791666017796
29.08060161105681 -189.3451397619304 -4.932481149130492
28.76165001271079 -190.43909232922232 -4.923111567188735
28.705351047343193 -188.8550059236917 -4.924388012257288
28.557700442017182 -188.88853736724465 -4.974792118097815
35.12446191044521 -151.76693173422285 -4.930169921121425
27.823024225333782 -174.3181432641549 -4.9115137070015695
31.084197737411383 -153.67882840074563 -4.935253914047843
30.958453734814242 -153.7250384733795 -4.983438695241846
7.530861240614019 -233.45153938324515 -4.904829335853875
7.319530992315091 -233.50978972832857 -4.9480856551814885
16.316169741718692 -180.40963324849406 -4.949949638526888
16.330130421598355 -180.30110278839828 -4.91992986958284
44.45788511538377 -216.50143456523702 -4.866908552096021
44.6603459467433 -207.8063656262718 -4.8137860604715375
44.51272021861307 -207.53887434964372 -4.794425588209984
44.19169047678127 -207.37179641312085 -4.844743680207063
40.93024573451549 -222.53442877218453 -4.818826389967088
44.085627091929695 -207.3504056373543 -4.868986835663733
45.29480873924828 -199.9217679742747 -4.8275683617351195
45.20941096377922 -199.99329392071883 -4.8555293584508945
45.304820415585354 -199.80727718277686 -4.800420054289918
44.35491959073488 -201.7336223573789 -4.814157136459115
42.071820347262666 -212.03397145959335 -4.876437961458298
44.59984304925305 -199.720858223463 -4.877423183684953
43.413878314478396 -201.19104009937783 -4.860759852431599
43.465915909782986 -201.047058872402 -4.817279556837938
43.828653706056556 -199.09189816905234 -4.840752834832426
40.4586804537861 -208.75728850517186 -4.83717422270518
40.50906734460225 -208.72349725625264 -4.814224591257366
40.737027598767156 -178.25975351537622 -4.795231146106637
40.71101175512608 -178.203286950282 -4.8085184936685055
40.64149670583719 -178.15630760222535 -4.830347370059638
40.568572991855675 -178.1171300740011 -4.852017521514967
40.47251034830626 -178.11356530650062 -4.87431703253443
33.13998649637088 -206.4368582568406 -4.8615429449211875
35.74647386407696 -193.93357747574527 -4.801846805584688
39.80634023638652 -174.21469871579558 -4.868927310919963
39.92216115233959 -173.81565456438776 -4.884970804710303
33.096426659791845 -206.45133690513944 -4.879128516891488
35.67723625344504 -193.95320751649072 -4.813669738241916
35.69797635901369 -193.9344712523828 -4.807735471749897
35.534272991201135 -193.97768429394876 -4.835384591427529
35.43382671413903 -193.96859667186777 -4.845777393345876
37.41039225415046 -183.84064415016422 -4.805340507993153
37.42619824201387 -183.64388688470112 -4.826765563362853
37.449265556668436 -183.5520070715259 -4.833480342346871
31.752228283757724 -209.8383651735935 -4.884743049223833
35.10372498762346 -193.69430189412395 -4.834350701467397
34.97150523776588 -193.7434595293459 -4.859075764756205
34.96684613044579 -193.66372065905207 -4.844943393336568
35.00060673537681 -193.44103120708638 -4.802213159100673
34.50070934924248 -194.5664104514036 -4.810412207891571
34.47496232196051 -194.49578342124863 -4.801453760208884
34.423393185547425 -194.43414454632034 -4.799705527796194
34.57439043606094 -193.49993016721015 -4.861646699981105
41.16258586291386 -161.92629796736233 -4.857269341353037
34.196815228628296 -194.97000629175957 -4.816514712655587
34.39414796934238 -194.1416146812868 -4.881809499542035
34.5062432519696 -193.44648186618812 -4.860102697299004
37.03045633998339 -181.1862334080202 -4.799734530036192
41.051587077788895 -161.92973150252112 -4.892121273109909
34.10456693318868 -194.95180458040272 -4.836028710313572
34.45277247701894 -193.39654131993484 -4.857552766524897
34.44247683828915 -193.34460441985334 -4.849792699449055
34.5198414369637 -193.18329173396796 -4.814525354270697
36.945760124190066 -181.2589929853684 -4.813958334525963
34.00112114490146 -195.05579511535663 -4.8834771020561885
34.02567361256228 -194.98444357226197 -4.862584938735766
34.382428469858354 -193.19838361623093 -4.832329395546075
34.348843114897 -193.1340803549547 -4.825871786458412
31.89765246686652 -204.5287343957359 -4.813272617461464
33.90470630306298 -195.22879740452146 -4.7997258056418906
33.908522323331056 -195.20476334914915 -4.794096858498156
34.299412224862955 -193.10718282673338 -4.8271693974462355
31.834254838944396 -204.44788405662808 -4.837747050353585
34.209702393949705 -192.96091154111886 -4.815069590230442
31.754283589391815 -204.37066005761992 -4.868606816349716
31.788037298983696 -204.31256055094664 -4.855284828522518
33.19644587247152 -197.29755153444802 -4.854163712415072
31.705980530774728 -204.14503964649194 -4.886670383644752
33.147373814446546 -197.33597781622964 -4.876989580537423
33.44035281439171 -195.58049675522648 -4.861633033600384
33.252302569129334 -196.00774216417042 -4.843161553442247
33.394361029213904 -195.59155782024467 -4.878607844890578
33.21916025735569 -195.91200786556485 -4.841070353050684
33.222328897488694 -195.82848348189643 -4.827904029662988
33.2476626302152 -195.73549313026484 -4.805594448448402
32.992571474149955 -196.29310623944588 -4.8167099868564645
33.03027610919162 -196.2438335461066 -4.796991236784385
32.65908578068498 -197.55770283287399 -4.885500715513941
32.87810431121223 -196.45005761448166 -4.877493077969529
32.90457737327226 -196.38600779576544 -4.860275907089932
32.94032616665925 -196.33054843379293 -4.840555455179936
30.447161794433768 -207.61389139831022 -4.810338003669379
30.49960182052922 -207.51180783546997 -4.793988235578949
33.005888421465734 -194.75943131515697 -4.8632987554942
30.317569026168595 -207.2517796764917 -4.871617561354764
32.35487283349489 -197.4110333642609 -4.7993173705971754
32.964850774058924 -194.78599501464214 -4.881107435109197
32.256343631225775 -197.42773325673008 -4.8391332389441
32.302696689274086 -197.40255097881155 -4.819699672030812
32.18230880899344 -197.4359639353832 -4.868780764020962
30.501458720755377 -205.07830824544322 -4.877291831158047
33.21382648426851 -187.8222613681822 -4.868538595103342
33.25708452247273 -187.7863265859889 -4.859021142738561
33.16069694821815 -187.8395098402637 -4.882648677389376
28.56937761433514 -209.55373928195513 -4.795217047216979
29.2012159765367 -206.26398066773174 -4.798798917522891
29.107265600340313 -206.27938384647229 -4.831530134784737
29.15665398928995 -206.25595264268605 -4.815471362242687
28.955647130314674 -206.36636766463164 -4.879832862609586
29.006328300987857 -206.3375789222842 -4.863656841216371
32.884236215474175 -187.68501624985146 -4.794282143513624
28.797138703416373 -207.06230755372047 -4.887808897574412
31.19476036807426 -189.91420884232377 -4.85075719601335
30.764098717950308 -191.10532517449994 -4.796318277701315
30.73330458057368 -191.00698452111783 -4.834468408309458
30.96110385510574 -189.82189028672153 -4.834209320008815
30.700030101921417 -190.81131377563938 -4.794145844827964
30.79428748487821 -190.40354835654585 -4.80985351521442
30.938808459156093 -189.8047133076896 -4.840704526929485
30.92890737474817 -189.78913689365294 -4.842668082520681
30.901428052361727 -189.66976757450328 -4.83921979951339
30.688364718623536 -190.1384970455496 -4.798288632503747
31.063684195198462 -188.7088346537124 -4.805614584088578
26.617735868620805 -209.3277094369471 -4.8438543550546544
26.676277899998745 -209.32643150482394 -4.82469361605083
30.658051157413723 -190.09553625907043 -4.801239290349963
30.77756168693506 -189.37451355294152 -4.851963271363793
30.75279150996266 -189.33669080172766 -4.856978700977022
30.989070244723205 -188.48483634682734 -4.816411746966432
31.000914314937468 -188.453395951856 -4.8094150524461226
26.560641308452425 -209.3270742991444 -4.862833985097021
26.547111214066476 -209.16400728869206 -4.883792339799214
30.58787264675656 -190.05030388971596 -4.818328476463091
30.703135966504544 -189.34580899698142 -4.876909410774695
30.366317592105464 -190.314513954224 -4.862848931143207
30.387691917401487 -190.2646007770239 -4.844334264952445
30.416473649053597 -190.14296366485095 -4.806961340811299
30.405755602853112 -190.03279832673567 -4.865226244189175
30.44329330059509 -189.95701708682526 -4.853048494935484
30.278866424777593 -190.23890032872052 -4.875803964591244
30.367884576928912 -190.04004217614835 -4.814325025651303
30.47777481088509 -189.46121302160296 -4.861344484743772
30.615700951274345 -188.84266256187928 -4.851526239415503
30.627171839386744 -188.56438569966198 -4.8147634032824715
27.892877456542063 -201.31962525436987 -4.882557457924409
30.134346576024058 -190.30973089684025 -4.851355002170192
30.184571231522188 -190.2281269010266 -4.814456343986479
30.37205200896056 -189.36279014196057 -4.8854872322323555
30.389356011095664 -189.1604254588089 -4.848094558044514
30.5336060318167 -188.4052915835351 -4.831774014233214
29.993909640768184 -190.57716733171068 -4.797110333758589
30.06371295651689 -190.28551894142618 -4.867458456451393
30.11938980164509 -190.2232613746578 -4.8341372067207145
30.516642086742422 -188.3792610627456 -4.8351821857633865
29.947681584726027 -190.54620073046632 -4.820615537805338
29.90536228964171 -190.48004259481382 -4.819547039688061
30.014587010716767 -190.32370064114093 -4.89230235903129
29.986374209743776 -190.29231613354278 -4.8179312654539705
29.719970083601048 -190.85484014106373 -4.868044133755164
29.860732748586035 -190.50107243785612 -4.808391142368418
29.835054834021534 -190.43498700418772 -4.840086577280757
29.863416037814805 -190.31169719653448 -4.8423947385561545
29.90298015369971 -190.28043340843587 -4.822342683418922
29.64517101581047 -190.80294359366832 -4.866982149288554
29.718597690931023 -190.39868654090694 -4.813339220209893
29.761604709375543 -190.3478499894994 -4.880817791418435
33.72981185320646 -170.95536468077134 -4.818438251612276
29.630401813087936 -190.70577421982202 -4.839534100469065
29.631116461998253 -190.47226254070833 -4.8569729743167676
29.674252433366057 -190.42024874154373 -4.830890654930579
29.529150549394227 -190.56501649457468 -4.846610314650074
29.537805503383026 -190.46987570661835 -4.878443798281043
29.437994738424862 -190.45608083312706 -4.848727995475324
29.60310094565335 -189.79598627835867 -4.88703030959605
29.271398618316315 -190.59621132262393 -4.876787270399643
29.279467219147488 -190.55133402652876 -4.861736548762108
29.382234788862693 -190.43983072540885 -4.806842130977929
29.31057532313798 -190.32284282192435 -4.888851826825863
29.185383918418925 -190.57524740732572 -4.886656841959955
29.232637807764473 -190.50786452532628 -4.857474220482107
29.247549158953245 -190.43227078065695 -4.831637967776663
30.37794118539214 -178.86798121840025 -4.799964029725745
30.296485393401987 -178.96423026965024 -4.835272364311205
30.33677202495238 -178.9200424228634 -4.817941473735048
30.21053698325627 -178.98529583092534 -4.86922251208783
35.25432689107465 -153.06515039882635 -4.840151530822267
31.521420543098618 -166.4168108770606 -4.820313047798093
31.437157906842977 -166.39334733391533 -4.852193700027351
31.209959213151265 -153.73110327679552 -4.887568247164924
7.516767380715727 -234.09944547449692 -4.813660084284173
45.584695793166276 -217.93922239888735 -4.742632897674039
45.47714285142366 -217.9451855561485 -4.779951496507182
46.81252028082569 -209.9082453809099 -4.695466322412907
46.40875929162384 -209.56959906388016 -4.7300156919091245
41.15848876710706 -222.58077406193266 -4.737939325566884
41.228233385085304 -222.4642409241602 -4.698206637315388
40.99422314793886 -222.40797421129335 -4.780123925202235
45.613901876679726 -199.4967351721763 -4.6902154038960715
45.530336035198516 -199.59974462543198 -4.723834310373801
45.54709161722303 -199.52001546066282 -4.704043099071053
45.336310138986754 -199.763464973599 -4.786184667802408
45.36567951539625 -199.69021352230462 -4.765959748434851
45.381645948425266 -199.611660610552 -4.746464105227537
43.77407677242721 -201.08201076008143 -4.769148947247284
43.7030223321579 -201.09401884982216 -4.784727834479842
38.87382586341634 -198.42569555984923 -4.695620212657938
41.18613814213559 -178.2006981188745 -4.703748380738358
41.049978374076105 -178.24250989828974 -4.72821143273096
40.95220061891151 -178.23848124373848 -4.750272897844515
40.859577655082404 -178.27383621391945 -4.76613188260257
40.842723297360564 -178.1989629346771 -4.779694231759455
41.30863074719412 -172.09061490520637 -4.710710309125386
40.71053756586376 -173.05339158204575 -4.759584541217731
40.84375106960154 -172.5400686053342 -4.784188461936249
36.02350758746899 -194.61640738523295 -4.7092885602952395
35.87138953323053 -193.87315167517633 -4.776275802238278
35.65449723526673 -193.58113619290583 -4.751156655185936
35.641127269078964 -193.30464663695903 -4.708986692971073
35.51842498542566 -193.5155661500753 -4.755780754463553
35.58318732803343 -193.31640954425782 -4.717152488985977
35.61681033418292 -193.27662445291267 -4.707457216671845
35.593086697984695 -193.15069101144735 -4.69171685003744
35.50024069858838 -193.31493602225135 -4.726075713667043
35.19384380075501 -193.0439789598382 -4.719976908904094
34.87475978249591 -193.8900073166577 -4.755073497853636
34.8474719754877 -193.83699734402683 -4.749755704051752
34.81155232869354 -193.77467292519174 -4.744129888068231
34.82637916611691 -193.642356203047 -4.718796792118356
34.54443684336922 -194.1475165398603 -4.71999185894448
34.566914873215154 -194.06596522583055 -4.700621117459573
34.65835300860111 -193.65908689775375 -4.747398067695516
34.70530787020089 -193.56342278870656 -4.723805771073557
32.1742246164022 -205.28760325160079 -4.707499727938188
34.430847508727325 -194.2786392517351 -4.767575040736926
34.515244935375776 -194.1495267455225 -4.726174778248318
34.50879539482792 -194.05631171974719 -4.710242151254939
34.63400797995129 -193.63746358349175 -4.74734514863387
34.63141847112243 -193.61646646136234 -4.744110756428684
34.66650263032607 -193.51915377212418 -4.722249923927058
32.067512791048465 -205.56157851391475 -4.750099764758823
32.130571229950064 -205.26541254308935 -4.724562660135078
32.08394972874985 -205.20318200685503 -4.74256017026845
34.41285465175146 -194.24039518190924 -4.76381311311651
34.540623959476704 -193.4551197627892 -4.730630356182576
37.13429760979169 -181.0785758450277 -4.784496389588914
34.09495299978761 -194.93996612497943 -4.69335308316161
33.93825277736422 -195.117794557966 -4.7694747934626225
33.94946765391446 -195.0757513619573 -4.758664423661745
34.01369253314567 -194.9712268440385 -4.721684233540767
33.920829772757074 -195.15409503132642 -4.781133198261592
33.950035607955115 -195.02419460113273 -4.749102880174044
33.95238262859129 -195.00945569444352 -4.745833164480665
36.20838604653324 -183.53400634591904 -4.749382527228889
33.52339590862262 -195.62258116922868 -4.692874720134363
30.441175363374004 -210.23081602606555 -4.722224749747956
30.504457762509535 -210.07868077664153 -4.703437953974165
33.08509109860493 -197.33743741363153 -4.702063173697948
33.30686356819593 -196.32780339225135 -4.70289258404369
33.45848186032022 -195.61108622211677 -4.713911461609335
32.959848470559834 -197.57697488966147 -4.769886475693835
32.9857955998092 -197.5200003928514 -4.755276843783234
33.02638596323793 -197.42666400659297 -4.732055562378922
33.05448296025608 -197.37636798771584 -4.717111730005912
33.26191150274084 -196.33574485244745 -4.720621336462138
33.2364923570956 -196.2690056980781 -4.72259655590394
33.34204512325923 -195.63722945529747 -4.758371917911517
33.392592822048066 -195.60683796514323 -4.736342756159433
33.13224512410292 -196.21411713812915 -4.755426959721891
33.21823627439913 -195.95931313299695 -4.694524200467917
33.288579338238385 -195.67426262920273 -4.782425711297729
33.06397365340745 -196.21855435527388 -4.781501528162272
32.62201129711198 -197.588675950983 -4.700254685708198
32.881207070954076 -196.38114962459946 -4.705969128905182
32.55689105633394 -197.54982266381418 -4.724646063576021
32.498320608638316 -197.49811355194802 -4.745836695029287
32.45436936709367 -197.4267123584975 -4.760356814928678
32.39810718179807 -197.37929910556312 -4.780786613512912
32.08842091663672 -197.61659619446218 -4.714786813653675
32.10872873691737 -197.54425903123715 -4.706267056499373
32.13308210000095 -197.49259588838456 -4.696218816685597
31.993658925149223 -197.78360855803737 -4.75348462269701
31.99510286908234 -197.6818559976694 -4.752513384441762
32.04273615248482 -197.6527315972679 -4.733280788782553
29.236162247036823 -207.42701916866827 -4.704184061817455
29.24626197334194 -206.97112484101254 -4.732764405032536
29.15724421860878 -206.91965624092995 -4.768595913555573
29.210058692689564 -206.882038076666 -4.752097329276567
33.09109834142108 -187.89553837956672 -4.717151246709022
33.14741986242434 -187.8684636080032 -4.701221369487397
33.042107692663215 -187.88545539867283 -4.73294793366816
33.03231360674562 -187.87667987041286 -4.7364966063017935
32.946671189780034 -187.818539174637 -4.766689015048597
32.899605997044624 -187.73831247042736 -4.786249525334332
35.97231709561037 -172.51892579970678 -4.729419065322502
35.90577413246109 -172.520977488578 -4.751892472988566
35.82299997077541 -172.59547853273196 -4.775255481691664
31.190973278339214 -189.95716219786465 -4.762131476814739
31.151548217345095 -189.84138097992394 -4.763728351331558
27.008924289797033 -209.3983852353121 -4.706425178041495
27.103169454693454 -209.24792840361243 -4.690245225964214
31.086932382559677 -189.88683756664554 -4.697000621276529
26.944110119164627 -209.42409147267648 -4.725424686244106
30.723783614675302 -191.08809727252782 -4.749572574711888
30.74770529560227 -191.0520906990827 -4.773152616599529
30.722835935409943 -190.9739643116228 -4.770522540762138
30.736167157157197 -190.8664701811447 -4.733155609864173
30.843594804621507 -190.39618004348898 -4.710986793345184
31.018677328419603 -189.56254132043216 -4.782004962446346
26.870084620362125 -209.48644040588957 -4.743833391768316
26.81800161667497 -209.45924613732168 -4.763934409344766
30.65140684229878 -191.09347993808245 -4.718555314831215
30.671135360646527 -191.00701969053824 -4.739275237309334
30.694672502852075 -190.92075058719678 -4.732539788850762
30.72623263538609 -190.80489844994563 -4.717793434528731
30.751401034014954 -190.33457618335746 -4.730891654570177
31.028747328283302 -189.11633127588226 -4.726142442784058
31.045770907129686 -188.91585762426993 -4.69627000158662
31.153934503181535 -188.7668861649114 -4.7757967356488304
26.790705303099305 -209.3370378054628 -4.785633363205449
30.56835402230923 -191.07017023752638 -4.735205263947042
30.568704466677133 -191.0123664786595 -4.725572955073198
30.724306641072413 -190.33886071922095 -4.741792254336854
30.88211433003779 -189.40542782987654 -4.700809072913053
30.941872679766288 -188.90578062806992 -4.734749590131997
31.10464940641218 -188.43638730764002 -4.768501222800318
30.762990828769095 -189.60046773825908 -4.775999134217741
30.95683999371533 -188.73054662075216 -4.708615211676754
30.546460840663855 -190.07940513082593 -4.746662879163912
30.721702013344082 -188.9729040919465 -4.694812415271486
30.339117893698976 -190.31218881538194 -4.742325400272498
30.44836430436543 -190.1579329495368 -4.708369831122983
30.389590001780817 -190.04621292298916 -4.699045271131035
30.633131837340983 -188.9518201789064 -4.724940568448308
30.76837284558879 -188.5822968005055 -4.7631515533187425
30.731203944658347 -188.52831797483307 -4.7710049227413265
30.18670670315514 -190.6741338111718 -4.6982004079969935
30.32095477211261 -190.29114696604861 -4.751191454504477
30.28449034194927 -190.23405542545277 -4.750534830189025
30.326754278503614 -190.13415064701059 -4.74338615168228
30.345703839595437 -190.06067127024977 -4.7177543416742065
30.608000437268373 -188.93648673075583 -4.732029214754391
30.566447058059673 -188.89525044146507 -4.741280342114629
30.111991185816866 -190.6646433224357 -4.714476539066347
30.076141893540747 -190.62204559954012 -4.708715741549614
30.1410621743238 -190.39705075822383 -4.727488179512988
30.15756679385485 -190.28854341254709 -4.748983387630942
30.203992825167955 -190.2199775704348 -4.727630945661989
30.383516970518613 -189.4868143928636 -4.785460944300882
30.370653782484585 -189.37363339264525 -4.768623411302508
30.391072061932938 -189.34921954256362 -4.756560581092589
30.00618428026838 -190.55105095289855 -4.785645171275311
30.0715717523299 -190.45966777951 -4.738727691908766
30.065646261029627 -190.38435510000218 -4.716181231448905
30.093781421930203 -190.28337245205674 -4.757938974643847
29.98518827088241 -190.48153118249328 -4.769437219876055
30.007923299545077 -190.26692734113203 -4.761120077267124
30.408596970935214 -188.40912071764535 -4.725632565340204
34.02590670179891 -170.85762608562607 -4.71388239114668
29.818548946313502 -190.44191864029744 -4.7103702337471836
29.884278523675068 -190.237845790758 -4.719806262735778
33.87342431107289 -170.9235519443761 -4.76715753129997
33.95027852212539 -170.8754063624269 -4.74079455752069
29.714632262678386 -190.52577335203202 -4.762863242435497
29.799971897779205 -190.38021195552915 -4.786887274990913
29.749935363408063 -190.32574673347136 -4.783044420516457
29.817208291497842 -190.11974612451928 -4.700756170216285
33.801475380136225 -170.9443678231223 -4.792702166448486
29.637826695202566 -190.53169832835874 -4.781998822160891
29.679594694218334 -190.4429035716336 -4.743364625647047
29.672290292723762 -190.27888069413672 -4.756368057744667
29.498124894271168 -190.39768124805406 -4.768893855545172
29.580860073835144 -190.24284999956348 -4.699184328342755
29.49266169657619 -190.22353805744248 -4.712967817009167
29.266934443381576 -190.20439938328417 -4.756125468587419
30.418327527275217 -178.7720637961128 -4.78046656768539
35.37415988542395 -153.1244650363825 -4.794214029018225
35.9893584713932 -148.7379238264848 -4.711173894820063
31.606506097822113 -166.39255925502061 -4.787916762523288
27.61228735636483 -171.25267889232055 -4.749666728762749
31.4749403610986 -152.17114073829106 -4.780427616186039
31.395008174087 -142.68019735887742 -4.77249654316906
25.76417035092936 -161.96289256147833 -4.724743937415113
8.26667574715292 -233.39393688089947 -4.7310791857214625
7.60427183027106 -234.26104705078623 -4.7680719094821145
47.18512413432457 -210.0906796528141 -4.634886346647468
46.6322775123883 -209.5937468110153 -4.674711649072337
46.38900831181721 -199.56835284465842 -4.603361988111863
46.295727729547735 -199.77188934731282 -4.6594790343921595
46.29493812225965 -199.7084107140695 -4.645968911032169
46.327940762713425 -199.600396755331 -4.61835874245616
41.414678694775 -222.69204482291406 -4.653947770005673
41.49005880953922 -222.59179335413683 -4.613959464973923
46.20343933273579 -199.60236152645462 -4.6350151260547925
45.21844116138202 -201.60829042504318 -4.628247476321178
45.129962288804 -201.67877423384854 -4.660146411799076
45.63749101073282 -199.15929897329065 -4.614448073384325
45.538958039366186 -198.99879393385098 -4.593235138155916
45.37898539172586 -198.98398443727734 -4.6107592786443075
39.04975686260819 -198.23734293658327 -4.616614291833516
38.934081076049196 -198.2498963725836 -4.644356365330264
38.8651041599449 -198.33645042803886 -4.678113467322052
42.3180440487636 -170.25062313956033 -4.653793090868671
36.61146407670544 -193.57020165512876 -4.642223489766579
36.47434283960598 -193.77275811700855 -4.689801550920579
36.26002394228209 -194.63094179732164 -4.674153526165449
36.266000171430726 -194.5350019011903 -4.655162906956165
36.252251941771476 -194.46061082787116 -4.643543374623652
36.228856239426 -194.38352055129238 -4.633109621743832
36.21954560028219 -194.35075291726733 -4.628657546067789
35.83118361661775 -192.96817887471906 -4.64125609093648
32.28876684480357 -209.4990181428953 -4.6753988484595155
35.60354190991801 -193.6412949441633 -4.601741863232462
35.703494351210416 -193.06070709004834 -4.667271327727181
35.78617576680605 -192.99352843822015 -4.649456749844388
35.77504709327465 -192.92932694997614 -4.642236175560017
32.47897200649398 -208.44941841107809 -4.597912101228368
35.50277770817513 -193.51229134411813 -4.596489524174768
35.622910220526904 -193.13299519305036 -4.685984209445511
35.64210924180818 -193.08953663846333 -4.677840565824281
35.56419006816565 -192.83980484974919 -4.6533955824338396
35.36859615750605 -193.43374364950805 -4.604240734158112
35.46551411086355 -192.79500883435014 -4.658359301436494
35.487308383027184 -192.7594278756424 -4.65173694366443
35.318904388557506 -193.3264921493116 -4.595479241932964
35.39961756976287 -192.7096300254087 -4.655108439800305
35.39123844937706 -192.51697011225238 -4.634515895185705
35.50092481217546 -192.23488540378756 -4.595586911200671
35.311273066334216 -192.47851213714395 -4.638920120599216
35.2721357588448 -192.48715718658175 -4.643927102594161
35.274342351061954 -192.39353910913303 -4.634257818628552
34.66096229398513 -194.39834306177042 -4.5973490399021175
34.64275216937297 -194.34113642911734 -4.591639017664085
34.705438974438124 -194.06793108900726 -4.673926053967938
34.74087626645639 -194.02534195715327 -4.659493307385141
34.805402767158476 -193.70735885533753 -4.59336164999858
35.14469568839541 -192.20298470208246 -4.630381440203955
35.10977207963395 -192.16470942940862 -4.630860152278233
34.63490157311276 -193.97027755062533 -4.6702484882090385
34.66235567164545 -193.89013113240912 -4.651011553764363
35.01773634963977 -192.11398080153805 -4.636485578670303
34.60414173627167 -193.84255931480368 -4.653932502398166
34.58096367319844 -193.6808660412042 -4.63122990333598
34.87155684351894 -192.2311482944931 -4.661656115596279
34.935268926525765 -192.09909607715116 -4.644052376640355
34.20378261832226 -194.93839774328293 -4.662748881685628
34.5082400362464 -193.654583312138 -4.640588174936079
34.514353597044135 -193.54128141993073 -4.621157538107853
34.476830993240426 -193.486946799853 -4.6195467779592745
34.812202995548994 -192.07235808909783 -4.655092536440083
34.13231703681149 -194.929752365027 -4.681121988146733
34.29960421469548 -193.9654588869044 -4.606849820823471
34.39693246831398 -193.44928268966956 -4.628509285637983
34.729690117941445 -192.03190779406881 -4.660911203957816
33.93898014154373 -195.28202235663898 -4.651534489387003
33.92874006813785 -195.1978248126099 -4.641297663848316
33.950543243116314 -195.0492190571831 -4.611177727902277
33.97015808811537 -194.99782031801038 -4.597096566656106
34.35809126711469 -193.4192031328288 -4.631023853757841
34.64741982939359 -191.99850465859745 -4.667347884169249
34.624262984773 -191.95694784365088 -4.667067208150089
33.91989513027683 -195.13476634371983 -4.634108598782616
33.930350412015926 -195.06037106630058 -4.6191698814413025
34.10141305023008 -193.90158118063508 -4.641554892171173
34.24456881032899 -193.3614224553974 -4.643107335204996
34.56939366248273 -191.9148216823502 -4.670296622891916
30.709052446037543 -209.92511076058526 -4.631028512253963
33.62592132403904 -195.6932582771198 -4.667084436827897
34.03235194292258 -193.8589160893904 -4.650256510887525
34.20068252595616 -193.03971764033085 -4.604445626089944
34.213264018746045 -192.99901785151283 -4.596699671702906
34.472002199793494 -191.87163261178029 -4.678229410902338
30.563169877086153 -210.04222088882443 -4.682489843486275
30.622393588054376 -209.97156962043854 -4.662368623764588
33.211101384606884 -197.32694237805856 -4.6519446625824585
33.56299719534164 -195.643092852794 -4.681956764645891
34.0437505966022 -193.24506006940643 -4.662436470119392
34.297286507877025 -192.03160880762545 -4.5943509988626525
34.297883191283915 -192.02098004310687 -4.593489557799199
34.38799141650874 -191.86376784003875 -4.686923819213075
33.14375985721149 -197.32211344228313 -4.677905059061246
34.20498495407096 -192.3062303625111 -4.629775596250356
33.34537515730849 -195.64575797415878 -4.611907320014527
33.118944023073226 -196.21213942450535 -4.599192322215274
33.21830911948687 -195.90731184576998 -4.688647954020849
33.215293117787695 -195.82613812738447 -4.680649578679057
33.245328411303426 -195.7393578791179 -4.6596990474651045
33.28559078891552 -195.68296324888584 -4.638354513128726
32.97920113772888 -196.2763417630602 -4.659205148347947
33.03977451094437 -196.21096972582842 -4.630207380137815
32.65346758361785 -197.6027321149862 -4.688264775146233
32.93556115977621 -196.3659139837909 -4.683460068818555
32.96140469732886 -196.31948356138997 -4.669629707329347
32.974428596192624 -196.21930121607826 -4.656520498793618
33.68608580658406 -192.3696316247995 -4.617597502348636
33.67247433482225 -192.34063282832705 -4.617291926837717
33.61199790509474 -192.25597293878383 -4.620377607864646
33.57385007224998 -192.20817916825348 -4.623104533452368
33.56864235137512 -192.15782710410485 -4.619941475561601
32.34404791882713 -197.47940367084567 -4.610491864193045
32.374670238480256 -197.42280559902082 -4.597647127920483
32.25848499294403 -197.4784690013957 -4.645330822890142
32.17281014623774 -197.47933413444852 -4.680083535050034
29.049607764700323 -209.79423601146004 -4.604616420139256
29.68672679208916 -206.39895544077663 -4.61260753911441
29.640159465593683 -206.4026202201127 -4.6293862495964655
29.288429493749828 -207.4049014463327 -4.686817796441113
34.208655129527656 -183.75545246712954 -4.603616976023189
34.16795029531151 -183.69245277693565 -4.6205107363262385
33.208399119331894 -187.852809199799 -4.683295965364269
33.27098265579159 -187.79687897247126 -4.667114513438798
36.907975709668904 -169.64574272293171 -4.599287537694026
36.48427504415941 -171.0231824436468 -4.653217747457506
32.9124842835612 -187.79010428171784 -4.59591547029223
36.217716972102934 -171.80330004520516 -4.692746761513736
32.893502755142364 -187.69878586916855 -4.604365187185604
31.43094445637158 -190.08286643963578 -4.593684774667194
27.498874809767983 -208.63667214165582 -4.620027508524549
31.279857868871787 -190.2661900306857 -4.596891319627032
31.359794503472475 -189.96028103392672 -4.602655844088511
27.362200285668123 -208.6220661172548 -4.667797780022084
27.429370495700955 -208.571449426693 -4.650414223969756
27.2461052844859 -208.88483522397237 -4.679782840059209
31.195282110529636 -189.8642080387668 -4.651757392492754
31.085431704555287 -189.9448973753392 -4.610943374855684
31.10783488675334 -189.90064076903818 -4.691103631779256
31.19677017015166 -189.31571444727882 -4.685143945955298
30.89016600324053 -190.36166067243246 -4.685560814240957
30.859320472438707 -190.25164270239904 -4.671719721862253
30.6432275765126 -190.98439668886144 -4.679828644435321
30.671767747225847 -190.8833635254594 -4.675048911380835
30.695054202310367 -190.8495241717946 -4.663561942049734
30.741788612400704 -190.33820956835388 -4.6526766007759495
30.838233845000964 -190.25311092139748 -4.637369587388591
31.097211945912246 -188.93409914594426 -4.678744482819681
31.077873068474577 -188.7556725336423 -4.665332225619267
31.150637069796314 -188.58378949726625 -4.617476506300909
30.567350811658102 -190.94889060567573 -4.690179999891114
30.6253672519925 -190.84782866749939 -4.6335853224747545
30.645100598560024 -190.58195442197353 -4.602178656431365
30.70078222254797 -190.39596208076532 -4.601366248679982
30.694246877478086 -190.3152582029872 -4.6637250407657485
30.89701382063262 -189.34547906060737 -4.685890226242371
30.910655293560225 -189.2619414857845 -4.667790716125694
30.91372669138061 -189.14497061121702 -4.648554447947317
30.93250034380307 -188.90516753324974 -4.604339111467823
31.042381906496047 -188.7707471297111 -4.680647674108035
30.832703057740694 -189.06989532314563 -4.667759978847757
30.917817779072397 -188.84780376377887 -4.6010810584014505
30.46053463334165 -190.27539523228833 -4.647775694718004
30.80187970489512 -188.9838975517571 -4.666171087915982
30.77760679336682 -188.91077212358852 -4.664069794264456
30.335175163191018 -190.30258664108382 -4.6087230099926915
30.371995537168242 -190.146476932517 -4.638455679045225
30.543709147580905 -189.64938530401463 -4.649388954236376
30.554862894952954 -189.5136098226227 -4.614219635300828
30.193156416529355 -190.63189696425522 -4.681289764114385
30.290432158032452 -190.31619734845384 -4.627220741143044
30.32467853326567 -190.2376850439794 -4.65131279210921
30.33620879531567 -190.16138152325215 -4.654692520009482
30.472334225128126 -189.54205405744466 -4.650629407928959
34.33795112269916 -170.6693528394189 -4.6069865273338495
30.151524747655476 -190.6133163433785 -4.685850525550155
30.135825574516 -190.51470696171776 -4.654725751236777
30.182157829187318 -190.2701949136803 -4.644937932369691
30.215318797179453 -190.25156761874484 -4.628771411371505
30.340524381987173 -189.7051337960507 -4.625893646214258
30.31741530155231 -189.65777371180496 -4.6213515240941145
34.239671800315406 -170.8484586996036 -4.636813038776751
27.789376249441634 -201.12249159549972 -4.5967336982805405
30.052781647857362 -190.49925280676445 -4.671366028015831
30.054581097563897 -190.35779630428334 -4.620339137892447
30.09623149397603 -190.27003653569696 -4.65509757380404
30.117163180031433 -190.23661525104777 -4.653268019474706
30.284079472508864 -189.34302588085382 -4.672454643539071
34.09688891048769 -170.86573294068737 -4.687918191297288
34.18931625751553 -170.7054397001675 -4.659541895196654
23.491549144281386 -221.76152689352853 -4.609192286614431
27.73283075201152 -201.10504750794522 -4.615774614198715
27.63692982571166 -201.10206295637786 -4.643424452521137
27.508990149296224 -201.17563698832143 -4.667344671714246
27.55676681885929 -201.1386911332605 -4.660019635753654
29.769087815921225 -190.30094128185962 -4.6739857113248195
29.766237825087597 -190.13240363070722 -4.616081535930853
29.67225691389152 -190.1653159043955 -4.6509957864323255
29.71424232182626 -190.13693772535532 -4.630772628059817
29.56809316829718 -190.1948409683643 -4.6859994284988336
29.495256932701135 -190.1338608745184 -4.682429237010261
29.37039336069843 -190.05867598535204 -4.685975216034929
32.05133477096027 -162.86675968958534 -4.605241350440719
31.955686732702443 -162.84336995930084 -4.641320964536209
26.951401882116812 -175.1470101517731 -4.64628443114004
18.115509380519157 -217.64077156395385 -4.5950742096429105
27.816750484595868 -170.7765407082335 -4.633329713308991
25.979308677681964 -162.0180849382143 -4.646316438867082
25.872116600001423 -162.00138132576993 -4.686248274517501
9.253131681429608 -232.53908569639196 -4.610440018850646
8.379537705729511 -233.50436836625497 -4.6864231903951366
7.522319010410378 -235.37907486123157 -4.623482843139659
49.113670566806235 -223.47307632887666 -4.537418154179104
50.227883418991446 -213.30963171930009 -4.522894856660889
50.292025012874205 -213.25001594388166 -4.4924296243643465
47.87915012024774 -203.10916097698444 -4.491575671425704
41.554803715782214 -222.46094869567096 -4.574657194957967
46.257050294410035 -199.03327938324128 -4.507880578849769
45.938104007072745 -199.06534256464892 -4.555624233763305
45.34988233780497 -201.43034310304023 -4.564747674895081
45.80460400781277 -199.06076907640335 -4.571771265093085
45.84147159484226 -198.9670674222524 -4.547397195138047
45.38534993701058 -198.70768360440158 -4.552047277360835
41.564151787113246 -198.37776094914628 -4.556981420474074
41.61260019702139 -198.27314906105002 -4.5265264995099335
41.60513780980731 -198.2239329424033 -4.517267574094773
41.51496535334277 -198.13008141584635 -4.51290746690857
44.16759076194127 -174.48233525834365 -4.530123064253203
37.75284087739611 -199.63994135754618 -4.5159309905626905
43.99104289231317 -167.3425719317353 -4.542995603374218
43.86429967246786 -167.38951335470426 -4.57164896918958
41.50633116532605 -173.406585274409 -4.505383293861624
37.10371457906343 -193.18531455220875 -4.533530634145771
37.07341759624036 -193.15187729107993 -4.532345404335275
37.02783884282852 -193.02804011779406 -4.521218309108536
36.717065969791406 -194.0155391858463 -4.495616135269853
37.00786757738958 -193.0054997735118 -4.520502736371606
36.70469954754206 -194.01191822321374 -4.496902108323943
36.769374689329496 -192.82961049776605 -4.5243198151746995
36.69297749911204 -192.7696543018569 -4.525364061131018
36.62976562848999 -192.73786091849013 -4.528373632468655
36.10056035893638 -194.83303958806968 -4.539990155448499
36.57435397352692 -192.70707576241543 -4.530703835726422
36.565122808477966 -192.68831814008027 -4.529560935345652
36.439506646898394 -192.41666211550753 -4.513942139683633
36.33191587617088 -192.31189505760767 -4.515097853552435
32.72689458798978 -208.87207778752898 -4.501906657690669
32.560035560243904 -208.7970416615251 -4.567152827097716
32.70936285996622 -208.16817356454254 -4.50647299365488
32.75290544267705 -208.09072118349945 -4.489123371737044
32.579218994407455 -208.41541900823532 -4.558485609091489
32.62282238167704 -208.32245869629045 -4.541006538614666
35.68019404499128 -193.3412372448987 -4.545038064411114
35.64284920328795 -193.3019928062677 -4.544836716728839
35.71883345113655 -193.07246754283375 -4.502543789307497
35.61008065898355 -193.24907907153926 -4.5421104856337875
35.612711613212376 -193.16471109754943 -4.5300908010454535
35.658585182067036 -193.10273298540173 -4.5151531675412215
35.77446401871076 -192.30069252329153 -4.572744682787641
35.66031919008016 -192.28138100870586 -4.582983383740905
32.726087407100195 -206.0622298276262 -4.492881428625764
35.488728245141104 -192.74276624306862 -4.494533361552881
35.58020631470978 -192.268838420169 -4.590266710199063
32.65244053554912 -206.01233925274607 -4.521792567208285
35.375177014147454 -192.74890115492062 -4.51130754723022
35.37074984308186 -192.63447666879011 -4.498940906024801
32.57043422634009 -205.8846107066448 -4.55370751245153
35.27937585329508 -192.75579852907927 -4.525669762048517
35.33671240073491 -192.67545375613437 -4.508323063787648
35.126371188672 -192.93407405323163 -4.569235730622181
35.21502358399515 -192.4751254108195 -4.503922546201089
35.16728281054613 -192.43815348984475 -4.506906630579544
34.64800493212398 -194.27803657686806 -4.57953492807434
34.64832886131558 -194.21731335764792 -4.569117584762566
35.05821487033362 -192.4265172070667 -4.521103559679782
35.04196555076384 -192.32708193518974 -4.513758076211138
35.09128823082389 -192.26301370381836 -4.500902850422958
34.99518139701364 -192.22306743526545 -4.5109001198476495
34.89439743602358 -192.3818803733766 -4.5397788116079525
34.91220974818602 -192.35582163187374 -4.534753263810859
34.8990501289104 -192.18952077566507 -4.521549903451573
31.019261412546044 -210.25646418740607 -4.501000180052093
34.433000526670206 -194.01663341166534 -4.584823697752255
34.43992315720293 -193.7290597226838 -4.537011376697815
34.81974879862921 -192.156514776362 -4.529969295860337
30.932596379220968 -210.24266422549687 -4.534658328181844
31.079765914730803 -209.51245666811684 -4.503510338077194
34.109047506191196 -194.91218728006078 -4.541121733379328
34.12922081538159 -194.84705072018875 -4.525056569995967
34.348620321532685 -193.80045482021714 -4.568792566700755
34.35704786434607 -193.75953332382537 -4.560405051287529
34.67399318429484 -192.1250157321641 -4.54800320620277
34.699323845778515 -192.07996047741204 -4.540829302161383
34.02012868337411 -194.9567131183581 -4.575303038127116
34.077331619284074 -194.86326374013436 -4.5433952576350745
34.65648346961585 -192.10833035055077 -4.549148868555842
34.621346309424055 -192.05826156070535 -4.550220052535465
34.089388113599355 -193.90160543889294 -4.523300414946573
34.25928688083935 -193.21213601624626 -4.501344653800332
34.49143364630704 -192.0540729862405 -4.5683723980077104
33.6402129581585 -195.72780383301745 -4.511306200825471
34.14178601455683 -193.3650744149888 -4.5485435483287135
34.15108047857892 -193.27745823650358 -4.534026324470965
34.204881249862666 -193.17437633316032 -4.508082390363161
34.19316225703875 -193.09623055936186 -4.50018657843304
34.43630192315889 -192.04294979194353 -4.575378041378384
34.43726495377699 -191.93470732387564 -4.56759368755713
33.604713127321624 -195.70323303050102 -4.521762556346413
33.535779733682254 -195.64454651725435 -4.540876785175726
34.093990165926996 -193.24197865354085 -4.541523243036924
34.2369564852711 -192.27229793333933 -4.511131562786527
34.339934240391216 -192.03740363854 -4.5886831871519655
34.32511416357026 -191.98465543669818 -4.5870605409446625
33.066288777586166 -197.40973400355318 -4.5133455085864655
33.09807017062534 -197.37123373773719 -4.498716160282738
33.28779591217381 -196.3011461618741 -4.539915789099342
33.48282593347456 -195.6388944300325 -4.559953879334623
33.45492039237285 -195.61891950465196 -4.568114498134907
34.02457622988448 -192.7636444527465 -4.495109992867176
36.52454071171189 -181.00784781922098 -4.497369384031462
36.48436459608285 -180.8973230872173 -4.518648827897044
32.914178571113894 -197.693431364802 -4.587378303559676
32.95096922294643 -197.63625612564562 -4.570036479252279
32.98949186430709 -197.53060243086927 -4.54982493698587
33.024266432695754 -197.44494463312319 -4.531962768232523
33.22775445235178 -196.25170366985623 -4.559565092400279
33.41007240595164 -195.62686723446507 -4.585698236202071
34.00020123437308 -192.7610736922437 -4.500026446343895
33.16283109728425 -196.2210560958227 -4.582651549700084
33.222745485748284 -195.93458045897282 -4.53598879422409
33.20964952021224 -195.82342642388048 -4.532166555595069
33.23799618306022 -195.73218297281775 -4.51358271423593
33.27033570633009 -195.6753945670756 -4.4961980742171805
33.80849407399027 -192.45528684114504 -4.507619266939794
33.8163305232231 -192.39012085823998 -4.499503332680137
32.84754885629878 -196.44610801335224 -4.559106348102036
32.90716604026875 -196.36989507526377 -4.531263706789124
32.92161976845462 -196.28387868178785 -4.521391038153111
32.9412310259034 -196.18055777844464 -4.508547981160121
33.75364919450969 -192.26143445400643 -4.500800494189117
32.59700843475689 -197.60025447066275 -4.507430826425607
32.54967679864444 -197.55977105039693 -4.526679644380132
32.83436387764062 -196.4501872407304 -4.564657139120359
32.8430160859382 -196.36530688959283 -4.557278527068637
32.47727879510981 -197.52271458174886 -4.556208918068421
32.409881136090014 -197.46339742365734 -4.58348635522942
32.12963782542781 -197.52878849877118 -4.500945372326954
31.992167992272716 -197.72522718545318 -4.551130599457852
32.02811497974843 -197.628485235196 -4.539561503415433
32.07801420252012 -197.57151614594943 -4.520888734414989
29.67727030196458 -207.96885268554027 -4.5041932467511945
29.2151891620208 -209.83771757082573 -4.541129778409131
29.201105248661804 -209.46660259199413 -4.572554973062231
34.24659097115182 -183.78574701770097 -4.589614630905413
36.587698562564405 -172.30365400136478 -4.535616508262316
33.20051893938473 -187.87195717055866 -4.500322902951702
36.975107829596595 -169.69235382364562 -4.57362360635404
33.09116483391547 -187.89390917876494 -4.535188711606635
33.1391866705787 -187.88666609105795 -4.519814570827422
36.52112104924382 -171.73791640254677 -4.59437732527626
33.03026768666925 -187.89083482649127 -4.5550530191714875
32.974722853743366 -187.87549909420534 -4.573517299462372
32.94672751975868 -187.8355753323633 -4.583599984808554
33.79055620901858 -180.59072677557845 -4.494797342747211
33.746220110258804 -180.51231201112284 -4.512651532944063
27.647580892475794 -209.36781726252667 -4.492697681513469
27.540253180975597 -209.6075008878818 -4.5044442056752345
31.482580947957732 -190.18446889805819 -4.499994041499395
27.422820884658005 -209.62260672038545 -4.543035090881633
27.378382463393446 -209.56238765038339 -4.5644131738268685
31.434423179211468 -190.23784288919109 -4.529686046607697
31.466133182337785 -190.19435557390398 -4.5085406144166695
31.4354841350189 -190.04841695227742 -4.586593480957138
31.253370467642384 -190.3803839712763 -4.548448232071496
31.287479776325107 -190.3170099066015 -4.5199908238696525
31.285455442449997 -190.2104513942717 -4.496125885388806
31.366435584505307 -190.04870044852032 -4.520572994930425
31.33910631322779 -189.8953729697065 -4.50192628596174
31.06562624146315 -190.75554793887846 -4.50634681003981
31.318980335516777 -189.9452952247577 -4.519538447512735
31.297924174778146 -189.63790755656493 -4.576995563161042
31.335907679160936 -189.4913899346573 -4.539594406181778
31.020330718502947 -190.74035512012574 -4.5190138591894735
31.01896626476978 -190.70955927071995 -4.508749322093893
31.045451440398946 -190.57584905119344 -4.527545858258152
31.012799302811324 -190.51808156606907 -4.522406172875892
31.186087283927233 -190.06573593395592 -4.502350070293408
31.151546517491926 -189.82083142709075 -4.561322075978314
31.201858902504153 -189.71358003683676 -4.520973931264515
31.231549864906054 -189.63038898584279 -4.49327816742012
31.32291840027049 -189.46683688598674 -4.540855371903838
30.851348190523627 -190.80477161564676 -4.53851251433489
30.856870167942322 -190.7712095850823 -4.523293521891284
30.961941941070776 -190.65118556833576 -4.510596977474135
31.00553799174536 -190.50241225461815 -4.52036750378608
31.01397148626678 -190.17553172586142 -4.505999024454722
31.082306495169554 -190.0518184424218 -4.5399799575043485
31.139181757838735 -189.8178657252493 -4.565562223059356
30.839634488409466 -190.8015198397726 -4.541558613234669
30.82483336740235 -190.74931822236414 -4.526528998298914
31.036884215113258 -189.7906296640242 -4.49704363975603
30.832331954187257 -190.23188303657273 -4.502446970410623
30.619395308172365 -190.51423196527006 -4.507501234250657
30.674960120503446 -190.40560430042572 -4.530708765711667
30.665604628577263 -190.30762579609114 -4.586751879233096
31.00164417625928 -188.8937891428247 -4.576166121808264
31.031013365517754 -188.69276950171422 -4.533847140815476
31.03011845172565 -188.65719459470884 -4.528683983240232
31.05249859829916 -188.54718313962744 -4.503100902285391
30.630538870107014 -190.27229483893777 -4.500065885652047
30.866139293110923 -189.06315685793206 -4.524841234763363
30.939047335035074 -188.80813063513943 -4.586849551786361
30.938055442904417 -188.54489552901993 -4.546544065246451
34.56580366306322 -171.01436794554436 -4.514090927943942
30.81279861774769 -188.82769479199754 -4.499709120365952
34.52208851381721 -170.83671124436356 -4.535415725443405
30.357019499895895 -190.21086482173547 -4.570823345601833
30.75021095268747 -188.67189660759092 -4.493387846533768
34.403968420519504 -170.70404421530384 -4.5821134551060245
34.50342846387922 -170.50537703213317 -4.552549563754679
30.327413995094606 -190.19546111804365 -4.575073076772185
30.32628240686193 -190.157482773055 -4.56259783230731
30.34660213500933 -189.96382832596072 -4.59191735153944
27.902272030027433 -201.3382644736935 -4.528204820088222
27.885534766239807 -201.25433198823688 -4.547113850083902
30.180784214696992 -190.3235622823919 -4.572565196222024
30.312431920475234 -189.826845816393 -4.562039554038947
30.61904572061417 -188.42402689967136 -4.495067672127183
27.8378420331035 -201.16546921615435 -4.575704464777779
30.104610886832685 -190.29178114827755 -4.5826048004840745
30.493890112995416 -188.29973127591904 -4.517963372995844
30.35143634508085 -188.15675339278008 -4.543399440056022
32.19691108283527 -162.8366152901375 -4.550180950133133
18.32719478724046 -217.8122753395593 -4.513838459919069
18.28188725898095 -217.70474043735354 -4.542219221296759
18.215054408057057 -217.64419949199336 -4.568716568267996
26.24814325824341 -161.85209360181477 -4.529759607296933
26.164963851823416 -161.95396260321968 -4.5698124191268175
9.691939280441165 -232.34801558919196 -4.5280665405631195
