ply
format ascii 1.0
element vertex 820
property float x
property float y
property float z
end_header
76.81276831764845 -215.48577811322565 -0.28456141733787194
76.83488601962182 -215.40740971295898 -0.28356447376238786
70.22282562469803 -241.50096127002342 -0.30075999334443254
76.65283790314746 -215.4154936985579 -0.2786294205621431
76.57895878820271 -215.37597610855633 -0.2756865025628177
76.52465277784125 -215.3306643643385 -0.27325053583327824
76.30838794927473 -215.3537462986921 -0.2675268682019291
69.46059557549026 -241.59845367535522 -0.2930827296700425
69.57398811926124 -241.20186652004398 -0.29505201786275326
69.77289307005276 -240.45348072690737 -0.2985109999964319
69.69795889274558 -240.31883975377437 -0.29792914278607535
69.7849657927578 -239.96745256913815 -0.2994372579720655
69.85734655434464 -239.63957949088717 -0.30069272665228386
69.77853009975017 -239.51508772414977 -0.3000041418584285
75.407426660628 -216.8770345204364 -0.2722531882933608
75.45047509634479 -216.77799077978813 -0.271562497363959
75.46875538519775 -216.69132591781056 -0.2704973417942683
69.21467925224238 -241.45758709894034 -0.29084457280602694
75.43148972888726 -216.63177725486548 -0.26830986598149065
75.37337474741683 -216.58356789952146 -0.26583515682422454
75.26632933005993 -216.5578001972791 -0.2623312965127597
75.25453540527238 -216.33095275067944 -0.2576368233173259
75.08418677278078 -216.56424134726777 -0.25743985588867
75.08723624212041 -216.48474749832494 -0.25593371956051053
68.59926527758134 -240.83715846900088 -0.28511406359829194
70.41203981522497 -229.33514977019257 -0.2924574874154555
72.54201493042235 -218.8145587252922 -0.22918629745616648
72.47265239621538 -218.75792581180252 -0.22628480799475847
72.4068550682154 -218.7031999032401 -0.22359593412915812
72.43752102273515 -218.59945749111242 -0.22253001234036163
66.10673192674892 -236.8545438886452 -0.2482943465296088
65.98415130433754 -236.78156130755087 -0.24616582227616057
65.9020681311594 -236.6664806304786 -0.2444678534187762
65.8441506909601 -236.5266984550469 -0.24313285144243535
62.732784881653714 -198.60290554707285 -0.2510493256576859
62.761193564958845 -198.49693726091553 -0.24579131923461006
62.66257634273233 -198.69637196386782 -0.2555710273032826
62.706029622321786 -198.3646695921185 -0.2397817994276661
62.53363813831132 -198.77812719175685 -0.25995027996223613
44.704946261444334 -198.35593704933777 -0.28751696051484654
44.77430537232494 -198.19254356798953 -0.28005929974414784
104.58521053807391 -194.05575964483373 -0.15104652553176012
100.85012387863537 -207.82470260157265 -0.08607575303807491
100.83579612966666 -207.76288535960296 -0.08459948847031196
104.11815685944416 -194.45200283871836 -0.16505787860078724
103.89165420561731 -194.59797171416528 -0.17054518890075532
100.10140549440192 -209.1304409782348 -0.1842780889939326
100.15594599263873 -209.0213190395652 -0.17722801991274773
100.22081098014246 -208.87827161178532 -0.16831403117951682
100.10180135154245 -209.08337010111896 -0.18288465862508696
100.31063513111461 -207.69679324843855 -0.11928231705049563
100.3046594364642 -207.61994664894922 -0.11652848539975946
100.16414513054553 -207.58287520410346 -0.1249860965855224
100.15145942732052 -207.46763101025468 -0.12092786120633581
100.21125192103582 -207.38028768262208 -0.11291172678582273
100.01938650428903 -207.2641874000428 -0.12134500518466695
100.02717509033704 -207.14908306603584 -0.11555363201565616
103.49323581045797 -193.23742611667552 -0.13581515066452865
99.97514998640132 -207.1237536933215 -0.11804525845976743
103.34121684996033 -193.24199661871648 -0.1370435844160124
98.62121627829731 -211.86072867186 -0.09808430976139926
100.62896371798104 -203.78211109311897 -0.16806800464713012
100.92563832286041 -202.57469825925187 -0.09694100824042573
103.33987153225928 -193.13101997825166 -0.1339739248501608
98.45806392678436 -212.08082928292197 -0.10782299857918609
98.56790415927541 -211.87521988658187 -0.10250529151342769
98.58619534708217 -211.86091713463932 -0.10103075527606775
100.49462124681543 -203.94443595721873 -0.18059737313284652
100.550830070129 -203.87876247511664 -0.17545710574056161
100.5880401404927 -203.75526756036012 -0.16805842250029102
100.61545595964691 -203.68748094973537 -0.16374625437489565
100.59520296415059 -203.51185096598758 -0.15550928514246687
100.58468059774958 -203.48472227070297 -0.1544880818411145
98.28841349327082 -212.36713109287118 -0.11562746461131546
98.3332862247196 -212.2687923080995 -0.1142145933823675
98.39388265553633 -212.1849784574437 -0.11104432472600945
98.41716225829806 -212.11957185520376 -0.1104433270942532
98.75991769968051 -210.63953863439085 -0.10072583746779484
100.49016482303175 -203.71487396824068 -0.16917935168801168
100.46933970557794 -203.49100573424673 -0.15851568327082466
100.50808625671007 -203.4411464721506 -0.15472006211924294
98.12677567445598 -212.6007550284686 -0.12293188191598348
98.19924586727575 -212.51663953128661 -0.11932665131931797
98.21220682853385 -212.45943680110724 -0.1196319710158481
98.21223742087103 -212.34664167563767 -0.12256090493413263
100.45672344348606 -203.3931539967909 -0.1539137821855564
100.47931867774102 -203.30707720153723 -0.1488018407701187
100.4404371576869 -203.24635569985045 -0.14692495017048735
98.06218518807742 -212.61374615985005 -0.12782067096635774
98.04593791072718 -212.46015531203977 -0.1333430599915557
98.07116004989325 -212.45425902248516 -0.13132053550084455
99.38887771326648 -207.16769564544396 -0.1614617679738357
100.28022160345662 -203.7809937877238 -0.17932618231741093
100.3874154058589 -203.1944286641481 -0.14593534162096178
100.38699657956813 -203.08465770619702 -0.1402968899887168
100.39057629007158 -203.00962220936117 -0.13629030711094092
97.851765646977 -212.44600826122561 -0.14942929810958105
97.76533660415492 -212.45852041454177 -0.155912278473893
98.29155218769586 -210.42713357730486 -0.14708160795191494
98.37924414007605 -209.92091911925536 -0.1399155532946451
98.42567490169588 -209.80411814400685 -0.13510247491713034
102.74030744285456 -192.43206747876405 -0.1197338405871281
97.6621719676513 -212.52210776241358 -0.16222064773294698
97.72452313602084 -212.40567813278165 -0.16062881331167
97.72852854079602 -212.37961362027832 -0.161152342846141
98.1668076108947 -210.5468768092789 -0.15805396991942966
98.13815277873367 -210.4691341684085 -0.16140813181436542
98.15179340696645 -210.37699082116305 -0.16066231581039125
98.23164869151503 -210.0423042472468 -0.15445248971756087
98.32958617592604 -209.94979372534698 -0.14478022069094154
97.13709211122247 -214.33419458084668 -0.13660529553979794
97.62769401347481 -212.39329098482096 -0.16878721528462703
98.06931479628061 -210.4735520807174 -0.16778695463187332
98.08009960967962 -210.24280221631486 -0.16846614878118438
98.15450490248178 -210.0379104589833 -0.16194981939846798
98.17276927648123 -209.96066002955527 -0.16025717681424723
98.22724339388976 -209.92699275788615 -0.1549943171124467
97.42475214982301 -212.63129710546164 -0.17729253359665842
97.48818989170084 -212.30262906381765 -0.18242690683417184
97.74239299114386 -211.40746228097035 -0.18379955400841852
97.87456379604825 -210.75013113367058 -0.1830426287124577
97.94519946186072 -210.5056357070288 -0.17921391218459093
102.389169776026 -192.53858393102462 -0.12542249760557966
97.30431382203699 -212.6796444798561 -0.18485575836108137
97.45262384111365 -212.2348965165328 -0.18709263726744207
97.84320239758141 -210.70990766390062 -0.18656560226481989
97.88043546960297 -210.4890851461214 -0.18558868001523143
97.92023975775912 -210.19355547508312 -0.1840581627407768
97.95131560400665 -210.0965195878627 -0.18153866891523762
97.9764503321762 -210.04319527730448 -0.17928039546067576
102.32572609752373 -192.46143970098677 -0.12392322887948004
96.813914727137 -214.38991695483094 -0.15481351115903852
97.02779855979962 -213.30679065169159 -0.1830187925849055
97.07320112710795 -213.1990221004431 -0.1838344318957481
97.91189280576367 -209.96916382687047 -0.18580891455319826
102.27375537642362 -192.36603340079523 -0.12184770025446623
96.31720059046917 -215.89668722970225 -0.11821617433380316
96.35125481226882 -215.81873803784475 -0.11990709789136045
96.70367341769145 -214.25135886329772 -0.16734917751783396
96.74860712956955 -213.93418647960164 -0.17742850004996313
96.79128850075834 -213.77333236516034 -0.18100945368983168
96.84453674243694 -213.63855118632162 -0.1829072013587988
96.8977017882651 -213.55376748261506 -0.18259735785102382
96.91450801670055 -213.4334294311281 -0.18607039068740427
96.97057781015391 -213.2764406702564 -0.1881220238901733
97.01011261688578 -213.16238518055744 -0.1896144786590661
96.26833409036657 -215.66828014841056 -0.13096825407452817
96.58813300432261 -214.45970767287517 -0.16570826249261617
96.61316002552975 -214.23221056549858 -0.17360445258527835
96.59320351419274 -214.13728945912945 -0.17883222689962042
96.67926311250473 -213.90138722302893 -0.18313261970245887
96.70965831678359 -213.8303116505733 -0.18400398381694338
96.70891606303297 -213.7190055538622 -0.1884697123339577
96.77973943810333 -213.637230387824 -0.1871527383611602
96.8069599902105 -213.53091380717663 -0.1894661826173082
96.19865475533052 -215.31769290253052 -0.15037209903322113
96.49458291990825 -214.37143564836614 -0.17499041288471395
96.50102054658028 -214.33094379281084 -0.17623808935376406
96.55083153161372 -214.07806881945308 -0.18382327139778432
96.59104005007565 -213.88044975522993 -0.18942581174552342
96.62580253815779 -213.8485439965677 -0.18854457386596146
96.11452701933182 -215.56357462193805 -0.1437529184185401
96.1276446774022 -215.44068281476726 -0.14861506727755303
96.14737286546416 -215.10038320903638 -0.16288982488584924
96.23588658266995 -215.0434485118505 -0.16063078315243862
96.27558520738094 -214.93142948051116 -0.1633119230088661
96.36336073711367 -214.43556279674561 -0.17995791204580058
96.39032060424387 -214.22842142389936 -0.18716391574064473
96.48664426142184 -214.08098796267197 -0.18757187936359765
95.79084758449466 -216.19852873319707 -0.13210674686080226
95.91754675558676 -215.75893251488299 -0.14554425594351073
95.94027329521015 -215.73824732797385 -0.14527458788719694
96.0397907296057 -215.26407474847394 -0.1612379756239264
96.12369139764698 -214.88970274492652 -0.17354167553719146
96.13693009740345 -214.85480210766144 -0.17430139522168353
96.27945214914617 -214.33182653835712 -0.1892167210218627
96.35132665954927 -214.2287701632134 -0.18940723997411668
95.71066615832468 -216.2347522697255 -0.13444704106830085
95.73934298146187 -216.1732964560522 -0.13583134048742107
95.85320189635912 -215.7420319542036 -0.14965362230302104
95.95858111871692 -215.3506585222523 -0.16165168245924244
95.91708544648066 -215.30761552294283 -0.16580413356516654
95.95701203307439 -215.22172388230678 -0.16747954217862138
96.0768538855178 -214.8348431789089 -0.17843649619272872
96.08994472176379 -214.55937434059376 -0.1899636037859046
96.14267044263804 -214.4975480891096 -0.18976270814485774
96.1929480945794 -214.42838274451321 -0.18996477263401068
95.26604712317621 -217.45917400156665 -0.09812795762005555
95.62489514193942 -216.1952107305997 -0.14047139361344474
95.61495918192199 -216.03903621845262 -0.14815529783004222
95.70616393401941 -215.73088614671798 -0.15770300271469417
95.76196611891329 -215.53179837391568 -0.1638886543861331
95.86596624532137 -215.278013197122 -0.16985447112461804
95.41692527311552 -216.5936021360391 -0.13191186322070048
95.47171808185739 -216.42368273411554 -0.13727931962076256
95.47324489844931 -216.34396391050277 -0.14088628659126612
95.53506228232004 -216.24648726670165 -0.1424647204254903
95.55585492168508 -216.03768554170992 -0.15110438614167232
95.69269534707807 -215.58106628397698 -0.16519154745860776
95.7009825778397 -215.463341593458 -0.17012027548807662
95.21337590980785 -216.98963446698545 -0.12258118249868488
95.21127869681747 -216.80707474665394 -0.13123034118204024
95.31049749643655 -216.60103285475373 -0.1364584471392981
95.36144525218278 -216.4790272913117 -0.13984051394787356
95.35555175749934 -216.17361497120183 -0.15434458570210863
95.5085589523218 -215.95892166650344 -0.15701052596124243
97.27370633400066 -208.47458365549764 -0.10193930340974788
94.9752464084536 -217.3038549710469 -0.11789826071706178
95.0637845376808 -217.05277949638625 -0.12605597869411955
95.22347608865304 -216.39157989361672 -0.15021835252287918
95.26347315955184 -216.15687704426932 -0.15935477376808804
97.2365103061062 -208.46172935453285 -0.1068543526351281
97.20139559832326 -208.41499050888245 -0.11063067053622533
94.78101194891875 -217.82538780804663 -0.10096708337589033
95.00214648770974 -217.06300089512152 -0.12819033119729106
94.96406926262053 -217.0206040100102 -0.1318393088094446
95.01630370247359 -216.9575068432828 -0.13262092776514878
95.07019153599744 -216.71825461824812 -0.1416151114526577
95.05842125994488 -216.65038666540082 -0.14530057730299817
95.18057627431163 -216.4031438426257 -0.15158528902316648
97.17406274318614 -208.36188580896635 -0.11306430960518077
97.15227197053416 -208.2783050383123 -0.11368790403397622
97.15394071734703 -208.1622907559605 -0.1096435296842373
97.20963908672593 -208.0794348895828 -0.09873967058872335
97.26557599051097 -208.02850915262522 -0.08883971606131036
94.5982946535474 -218.0597695056555 -0.09684962533000063
94.66999940624184 -217.75643852013636 -0.10866477983703504
94.72361296117924 -217.6353474615166 -0.11235544914536155
94.83836177949978 -217.2501075478189 -0.1261175803506791
97.12597060444513 -208.22154212349525 -0.11562166355414705
97.12259622346838 -208.17804592770008 -0.11465188652784986
94.84744490676286 -216.66481940639497 -0.15358584997772884
94.56962639794878 -217.44417928371888 -0.12748803653179752
94.61937867157808 -217.3067966983944 -0.13209084943214677
94.29154352978088 -218.12754103175845 -0.1049728097858047
94.37820489906412 -217.90420736597451 -0.11252827480899874
94.37103752430392 -217.81759307122033 -0.11700251626829528
94.45119973788951 -217.59372798573315 -0.12474222506777255
94.50274169263753 -217.46128771534424 -0.12921151660334695
94.25124436034967 -218.0523259696898 -0.10997082615039944
100.57398803636539 -192.50112270791772 -0.14052974533468698
100.56820271394103 -192.36921232805122 -0.13709020503633473
100.17375430248288 -193.5202983670696 -0.1707459576940692
93.91101778419187 -218.66109206919475 -0.09587886967871817
93.9349274236769 -218.2825677213677 -0.11313177682018594
93.76028835741603 -218.47688324282908 -0.10802138200355316
93.83132953389827 -218.3875017605493 -0.11062811462168642
93.79241761277919 -218.2445308287417 -0.11823824540993322
100.00234545495287 -193.07080366111524 -0.160737020478114
99.79731432195308 -193.12514678654134 -0.1642197724589911
97.66675835794436 -200.7973402192756 -0.09335283673115802
99.50224374396626 -193.40367094413443 -0.17427781641617057
99.57360518973171 -193.07682755848026 -0.16521583167624299
97.51287159946362 -200.92856281752412 -0.10476063006089154
97.62932585281823 -200.77628695998726 -0.09308087659137387
97.41299302444148 -201.02282491627764 -0.11265343759752688
97.32020575502195 -201.0187123257259 -0.11473935640390365
97.22680230160144 -200.9578759611906 -0.11356572722880298
97.16704107690533 -200.86068951256897 -0.10944056786773815
97.15235122329182 -200.76056154021043 -0.104055834785305
93.63069306236692 -213.37573084904955 -0.1629942476941013
93.6027281391613 -213.29219729301747 -0.1704724802539188
93.55707397821325 -213.25278991974872 -0.17465580865836472
93.46792102619571 -213.20320961788656 -0.18043315609146326
93.35897455289468 -213.21599142896375 -0.1812127052829089
93.17854738108359 -213.33684028174403 -0.1737217946770141
93.24661083551685 -213.27187407910705 -0.17821518250458745
93.13530317565565 -213.4034187692139 -0.16874577440271
93.15901437488044 -213.34729829674762 -0.17309029496629813
89.53080091467193 -218.7876515877503 -0.11849059141049467
89.44572028275095 -218.57093454774667 -0.12658556073152538
89.30533978407666 -218.7668233001481 -0.11699095162257866
89.3379962896929 -218.47739791359317 -0.1291918442251868
89.28902155735099 -218.38716483765432 -0.13226475926684322
89.20024749829294 -218.34486865610282 -0.13283530039241076
92.11964417287355 -203.98282207362212 -0.0883376509596625
92.13184865686614 -203.97214703944206 -0.08714462415265367
92.05214992806667 -204.01803279394494 -0.09191200676010369
91.93466308775406 -204.02749700930173 -0.09151003691019288
91.85386240405809 -203.9914020502596 -0.08585714287790924
90.1952177496379 -206.70403038615393 -0.1709447226438302
90.23325615175119 -206.65139827010526 -0.169860635983774
90.2548020187843 -206.55775045301843 -0.16335425352023003
90.25756158515519 -206.48328374933348 -0.15664758135093082
90.12635147040538 -206.73269532115228 -0.16687895204028846
90.23453592780898 -206.42279919402006 -0.14877938304232696
90.18212515751647 -206.36876722113993 -0.13882253000741096
90.04840221647584 -206.75221605058567 -0.1610936352656671
89.9666168219787 -206.75065853780475 -0.15311667883842572
92.1657161702208 -185.04225565437358 -0.07741620204266708
91.83766436456665 -184.92825336455496 -0.08092543694041876
91.76123628962976 -184.98828741489797 -0.08386190973130414
91.43717005241959 -184.98983482570708 -0.09021890777823871
91.48833395842678 -184.65589456056398 -0.0810807819924757
91.1162507563213 -185.0438637233841 -0.0978831878231079
90.35840571057614 -185.92899551251003 -0.1349048425981142
90.40761535703412 -185.73008561070884 -0.12900916649994632
90.27915071036058 -185.92653439803323 -0.13647732621691677
90.11811714389452 -185.92477357413784 -0.13978383147268436
90.1821334645424 -185.81371262895567 -0.13573556812336973
90.02798136114389 -185.85797132510496 -0.14003995715195527
89.93501015514043 -185.76364135911882 -0.13966549686572927
89.78884050127886 -185.83663000281982 -0.14454018749332997
89.83068901480928 -185.6105604325278 -0.1381142085399566
89.2062612390992 -183.46591182020455 -0.09862908168278273
89.11071419005714 -183.43221462328344 -0.09985120235735045
89.02340957743446 -183.45227827017743 -0.10219898256441795
89.1392237979464 -182.57625619724692 -0.07819273332536114
88.87219112342841 -183.12450087122775 -0.0973885922981007
88.68689209469638 -183.5494713265587 -0.111854012382407
88.49957142670188 -183.49565529218688 -0.11460472906274044
88.30216257447903 -183.8154130210522 -0.12685937205252307
88.37201431986097 -183.7288050718206 -0.12316083748970985
88.40243604145199 -183.45250571673483 -0.11568148725972549
88.08920263863767 -183.6535852310922 -0.12756385765707567
88.16778766621819 -183.6094955496909 -0.12471215336298547
88.04017634848998 -183.82054236119725 -0.1327720172277015
87.82234162296764 -183.6473139242608 -0.1333367838499392
87.89710373708178 -183.58257350868595 -0.130079120215429
87.55771159193957 -183.66989919802796 -0.1398693963216624
87.462434109179 -183.65034133683702 -0.14151719902996152
87.54232672027027 -183.2372723070448 -0.1294411124140279
72.65113269863932 -216.22931885575736 -0.18107449863017744
72.33185449420347 -216.2691138371898 -0.17272438429530101
72.20056666043646 -216.23445730733823 -0.16805266996800328
72.1085294095219 -216.18394591143877 -0.1642669634381776
72.01283533749387 -216.13439837108774 -0.16026796781301766
60.05107673536417 -240.16805402966358 -0.15847620926993644
59.76340707148811 -240.67101069141026 -0.15558955960808651
107.82719227421677 -188.28929663602327 0.03012481953956625
105.96224395290176 -188.97673673907235 -0.0019033484488677477
101.39131026157756 -206.83338651016757 -0.0046324645701993905
101.42448228386493 -206.75802255009648 0.0012761876286304652
101.46039996245784 -206.6958886894252 0.006760705101060638
101.27135461573079 -207.04293265900913 -0.02276859429952649
101.39074657404315 -206.8047881170985 -0.00329351136981737
101.03740219415124 -207.46704511880924 -0.058039757542866166
101.06970789583842 -207.3853494411101 -0.052233795666584815
101.17136215344459 -207.21560537346005 -0.03760157986344337
101.20298929756575 -207.15925904897335 -0.032832338287600904
105.36384360362725 -190.30828132034603 -0.042406581503154905
105.8055578401061 -188.629676960904 0.00631267669704505
100.97778990245989 -207.49784645670914 -0.0635457866817909
100.83468112940481 -207.73704255633874 -0.08367084569587757
100.83214592253182 -207.68561096336032 -0.0817557275049472
102.39125465544168 -201.23930306132993 0.018414885230792044
100.95090469522415 -206.17857971182033 -0.0030039861588474492
100.71675757991115 -206.77350198609525 -0.04925855526515088
100.71933753562416 -206.6954349608955 -0.04528835541755005
100.78487832543476 -206.56516769477537 -0.034302244088891376
100.8019581531129 -206.29767725389016 -0.019562523463611092
100.9052743146719 -206.21743355413474 -0.008223152518207488
100.9633911413119 -205.8305316589781 0.01644106999143813
100.70522008282875 -206.63334034095462 -0.0432539191480138
100.68072746162233 -206.61305051468437 -0.04393962394612039
100.70190696936025 -206.46472183449887 -0.03505339933936891
100.73361148414926 -206.28712487788684 -0.02374094366811419
101.87534252896403 -201.7067412896168 -0.022066707926279627
99.72958211724577 -209.81148542681063 -0.002956076260919094
99.76506015961272 -209.74043621202577 0.001662953523304589
99.81842562119088 -209.65080187973456 0.008513730211093917
99.85191224843675 -209.57790535042272 0.013158045918874484
100.58828435847717 -206.54186787516608 -0.04687529911871946
100.64488876578255 -206.4387005274324 -0.03772576158728369
100.66470155619328 -206.35775028157417 -0.032181771983841645
100.77109623190017 -205.73673075711952 0.008441983398861819
100.7966858696365 -205.68665044991872 0.01297645937100278
99.56071879510763 -210.10649544326697 -0.022693130345115442
99.6055950228595 -210.01632092191775 -0.017793649895028407
99.65935125361226 -209.92958201824717 -0.011617050653407013
99.69633416691532 -209.8591113803989 -0.006990230411414444
100.45944505287768 -206.60669125872866 -0.059113135687576146
100.51527037224842 -206.41849021635346 -0.045728490186189186
99.47589625320498 -210.26190728583023 -0.03163231287710544
99.50788012676402 -210.1930542171919 -0.028272186346337547
100.57787244709655 -205.71706809558768 -0.0036745644517379716
100.37018786596063 -206.250821120616 -0.047079234811283954
99.07079589865369 -210.87742354768528 -0.06947526364396739
100.2885090194382 -206.17168687460267 -0.048515385905621544
100.36113120565619 -205.73584747088796 -0.019499243622766005
100.20389969115065 -206.15852016761286 -0.05363485690086256
97.79709421698372 -211.34654883114467 0.008259836028822853
98.08538776380492 -210.19741933566527 0.008147603767371892
97.68219809683988 -211.5894729701214 0.005715608698138919
97.7670635565114 -211.34642120018532 0.004903532963253743
97.95560022705742 -210.51298828282515 -0.0010809921826426816
98.06371077706734 -210.04511949827057 0.0025315580320174336
98.11075478669291 -209.99122390732518 0.007772434405018069
97.4063004732549 -212.25834775731443 0.0099741946784635
97.58668672248592 -211.66774617886128 -0.001229544850982256
97.69071735892267 -211.3086851401055 -0.0055587301945031475
97.72426323406461 -211.1089545101357 -0.009686064609058631
97.7685730531749 -210.6942675259719 -0.018842039932401522
97.87224657466096 -210.35834753440986 -0.015448623471187473
97.89692227897672 -210.1731906209256 -0.016593369260394675
97.96297176039704 -210.0933930600877 -0.00968252481828935
97.99041520503526 -210.0469327475622 -0.006946608713586655
97.18555971973082 -212.6442329743628 0.010272080463478606
97.1926455927697 -212.5259721782319 0.0038631342014788794
97.255497457371 -212.40059240688103 0.002739744240257358
97.30680039043581 -212.35423178601846 0.005223700218303096
97.60486727922242 -211.04995800118047 -0.025877990271372497
97.63703088290514 -210.9266799107571 -0.026787954069764752
97.64822473027013 -210.88252874866234 -0.02704600991863526
97.7270386016551 -210.74918895446046 -0.022133130024919567
97.7330113232533 -210.73245078550286 -0.022068349431708545
97.7377353133904 -210.56799044627996 -0.026578230291761318
97.77255384607481 -210.5166345404356 -0.023745301704737987
97.78911898026604 -210.36229054859209 -0.02587634726233412
97.8190500422073 -210.292548520372 -0.02385345837707653
97.8499094168586 -210.20596153918035 -0.02189555721347436
97.08395106841549 -212.74593008323595 0.006920440367361502
97.08831295411768 -212.64985456973878 0.0013091755633662938
97.14497013812739 -212.56211859917522 0.0014956266140931929
97.16139455285017 -212.50866925303947 -0.00014136347373350233
97.20329856316235 -212.39933750304112 -0.0025051005738248033
97.42494219407565 -211.20888633925352 -0.04008889025011775
97.49417203641272 -211.0558018960507 -0.0385790095080536
97.56382321215729 -210.7496241912457 -0.04187477676246776
97.66730972665573 -210.54213631160525 -0.03601470491087255
97.71233003994578 -210.23584054114153 -0.038694475229642755
97.74996487565974 -210.21916473480735 -0.03425041445676369
97.00358640154462 -212.73906815827561 -0.0011305177983610415
96.98879538256708 -212.66697242350511 -0.006977107932252036
97.06859618793241 -212.5428207033343 -0.007060922770762645
97.28818641713283 -211.31957393700307 -0.05052844490433028
97.41059583054248 -210.93039833676954 -0.05330883428152866
97.42484290273696 -210.80723863922844 -0.05640129709091968
97.51588593298257 -210.65153115589737 -0.051038600154744374
97.52812657987329 -210.53400534966306 -0.053330917134892686
97.35494128857852 -210.78733304804507 -0.06535345951428284
97.41378925231696 -210.66206110331987 -0.06286603524248602
96.46278776514978 -213.51712003834533 0.004548661723139391
96.4793393073803 -213.50370475525582 0.00499001590764947
97.31469046700659 -208.0023479048914 -0.08082340537470623
97.14348301250268 -208.2713158422033 0.013065474444031944
97.84998546866241 -203.7710398352007 -0.04228718104322593
97.87383200668674 -203.72830916517393 -0.037605038705830096
97.765821811325 -203.75232514030552 -0.045352130341280716
97.67882268945162 -203.73883267221427 -0.048937809571589885
93.87766706563906 -218.78201836776284 -0.0909450254604538
97.6273292211713 -203.70285103766554 -0.04881338203824748
97.5821507705539 -203.67403774743235 -0.04887273840154405
97.53089691924889 -203.622959403817 -0.04743002254883044
97.52513088130046 -203.53459580192307 -0.040567152300568954
97.55136462505156 -202.87992765596326 0.014748838368137451
97.49947906045838 -202.8746021929346 0.012645561287506712
93.54291148938964 -213.2154351159321 0.005838446472415604
93.47186360150447 -213.19521743264588 0.002147420391805044
93.47299828861233 -213.1754661035888 -0.0001622253168259702
93.36345756714456 -213.20203314312576 0.0012359083973972895
93.26056189896947 -213.25829078081594 0.006516222735811872
93.28930801778223 -213.22615916547295 0.003080776779906036
95.74602881246177 -198.54662124372018 -0.005846465818404534
95.81614380938612 -198.4726926719386 -3.304259154013334e-05
95.68573673127139 -198.5882300519397 -0.009544627816201579
95.6402408231475 -198.5587407484067 -0.00869666756165799
95.55426926377994 -198.56382259769126 -0.010738706672180687
95.55995140251525 -198.5344505415577 -0.008843620534835228
95.5048871929699 -198.4660269808091 -0.00593674809668554
95.48143655341994 -198.4042849692059 -0.0027036073049564457
92.15230033178503 -203.91726862647823 -0.08050211017030218
92.17849309228266 -203.82905658070095 -0.0697128657679913
92.18522708829546 -203.75097381164696 -0.05998657503782989
91.8140154670096 -203.9770924979677 -0.08346894814571815
91.75340280745432 -203.9168214623889 -0.07509399703180364
90.2198129780261 -206.63407405717822 -0.03710406077650941
90.23935826971686 -206.556296303819 -0.03136019784085764
90.13396015680044 -206.72019668202546 -0.03490808559006353
90.19170459367797 -206.65681840520995 -0.03588477005986379
90.21446434947883 -206.44727045683686 -0.01639641000792036
90.02951989802615 -206.74379467928017 -0.023794542849189693
90.12559724575078 -206.3470750146367 0.005698076705022759
89.91492599878372 -206.73803107798892 -0.008408880601286195
84.34995227162776 -217.00374588530644 -0.03289791917989693
84.0117643522441 -217.07834222760997 -0.016936181228285885
83.64374482263023 -217.042719122107 -0.001438398196595414
84.03302870168545 -215.44842591225063 -0.04421004533850026
83.93393255720737 -215.36551562154398 -0.040341320278514115
83.58572258665997 -216.60255738743214 -0.006285912442860697
83.54501094764353 -216.54560921865888 -0.005293584372142113
83.84906712955132 -215.53723392296237 -0.03405994094781162
83.42440611782531 -216.55768313361293 0.0005240934617843918
83.55905154698593 -215.59849427691952 -0.019003526554992267
83.55128431128698 -215.30600536016715 -0.021831203914092212
86.71123553397173 -196.7257126768327 -0.03286801909944759
86.74830187129801 -196.64977573416857 -0.02815144295589167
86.7400350805504 -196.54534864678837 -0.022299550140919555
86.61838581445488 -196.79345442466962 -0.03765412916230981
86.5135280075844 -196.8029602723979 -0.039206083782378776
86.4270502243386 -196.75111071845757 -0.03712816299997479
69.06758083088187 -216.76721341581307 -0.08820932664123049
69.08250800428968 -216.66575251554485 -0.0861536907172541
68.92645910044507 -216.42909152995273 -0.0758079152577179
68.94794097417119 -216.32426006207604 -0.07382641893092035
68.85242754357967 -216.65003737250532 -0.0789909187258443
66.56397843490382 -218.83471139574954 -0.06210276430171602
66.64172749975594 -218.6946889492552 -0.06134075435054731
66.0611618570088 -217.19327987939593 -0.00885096817464126
66.00718221994539 -217.10665120338183 -0.005011540778815271
65.31450086039824 -218.43054435786925 -0.016411511216462005
65.1618527083465 -218.37993287722253 -0.010790134103520255
65.09740901464434 -218.29599935331407 -0.006817134185392315
103.69214447127781 -200.45577289979045 0.09991552575297402
103.66635382704665 -200.02440220055507 0.12156460489109511
101.96899771840843 -205.76365608101824 0.08936431953705315
103.48615642528583 -199.99801615063902 0.11732195460776418
101.91139040764162 -205.9032073816281 0.07800852810418146
101.89602611308253 -205.8761320116595 0.07839454950478542
101.94246753137045 -205.80285811017475 0.08547805062287295
102.00014004289538 -205.43799930686762 0.10914037925470177
103.38663620619356 -199.90521826573556 0.11914715554544175
103.38481211564334 -199.8500963269973 0.12196162626679097
101.54533325673543 -206.52382591669408 0.021024664420191796
103.19187685288547 -199.7832168655391 0.11956414997920073
101.59344322826647 -205.53355477657772 0.07601282031931811
102.58842285578058 -201.23417167065944 0.024833243068911326
101.29886676912763 -205.26683531906133 0.07099130480137783
101.39023504487145 -205.14005224484885 0.08449042207020652
101.19835896755365 -205.36252538860484 0.05867218390412288
101.20460292774129 -205.27004067224001 0.06440493764250577
101.27303875917876 -205.21377759524256 0.07231093508827757
101.31359032574984 -205.0456458322564 0.08485233866764419
100.08404627684513 -209.1860585918171 0.045094519220379436
100.11686877140193 -209.12107871655925 0.05004582479112207
100.17100859381125 -209.02350910368477 0.05810986911981808
100.2213333782674 -208.924613047505 0.06595502208795379
100.25789786769172 -208.87202647885488 0.07124040594504599
99.91686157956174 -209.47698602014123 0.021677001626194792
99.96405530903725 -209.38375729220783 0.028367726947954197
100.02532497036957 -209.29101099472314 0.036655286049213975
100.05291478370829 -209.2258301186775 0.04094280333792344
99.87675543011507 -209.53738689710806 0.016427613663255403
100.80165910762847 -205.61356561540475 0.01743616199401188
100.0163924473366 -207.85065842629092 0.08031258276272224
100.0576664889125 -207.74756266961782 0.08901445249851858
100.10259922077351 -207.67709032039895 0.09682019360290439
100.00808051907032 -207.74963033302296 0.08364717239106212
100.08748031466922 -207.36898089560208 0.10930052440405036
99.98183638316216 -207.3240861664583 0.10030425968533607
100.01619387129666 -207.24115671965666 0.10802783137262384
98.27037083619142 -212.35640842754407 0.10682905675037446
98.18236045494758 -212.3055185883226 0.09461580491245891
98.12608773179312 -212.40130555607618 0.09331943708744239
98.07038748312614 -212.31835705658114 0.08306136792567842
98.01373878012244 -212.3039658461298 0.07631437921137862
98.08659709728784 -212.1595977053383 0.07711094081320502
98.58961198779897 -209.98223837199185 0.0706398413466155
97.8561162965543 -212.4205963031565 0.06543139746937543
97.88683318549488 -212.35724312132493 0.0654197023069315
97.93968343169341 -212.3116765446927 0.06864184418972852
97.99201628601045 -212.18668472012143 0.06807766131426796
98.05348818701489 -211.90759031819783 0.06170769302677692
98.50321269652648 -209.9188559504814 0.05845033923926468
98.49587285495136 -209.81979491417448 0.05649775806272472
97.77024092795459 -212.43876390947798 0.057372942834810425
98.27427455406591 -210.32725916188576 0.035007339500839896
98.31495544235408 -210.1470438543668 0.03692674256474504
98.37728510267398 -209.95960454441288 0.04221669153358909
97.33934346592355 -213.58943463373475 0.08402118257097457
97.62280830982215 -212.6105746035681 0.0516294868428776
97.6969356356805 -212.4983625320953 0.05298172072845131
97.70038168256238 -212.45684322324644 0.051133746962694016
97.75233878911153 -212.20074341503408 0.043027153105081095
98.02312470672832 -210.8754764755199 0.017836712063231563
98.11883906615273 -210.67646483654428 0.02366966495169065
98.15065482900538 -210.59088609055462 0.025448910552729354
98.18605920645483 -210.225750554031 0.021533818543515992
98.21849638222622 -210.08519960458602 0.02323785213622398
98.30735607481121 -209.9980265853026 0.03362083849115893
98.30989564604184 -209.91386068894687 0.032899436887985356
97.58737995707054 -212.51840709337148 0.04279828400226082
97.61336503844234 -212.45403387825493 0.04189378866838267
97.77263822953549 -211.6918504361233 0.020591295389595365
97.7730714599835 -211.6422386994996 0.018388302270872625
97.79331445229748 -211.54071246466643 0.0160944873182578
98.20696211273932 -209.9846073546422 0.02031761197945814
96.90658800355756 -214.1999794108133 0.08875245188391945
97.34801593520196 -212.61932758813674 0.024702630022873984
97.28417587253878 -212.5741834914591 0.015670548419633668
97.33247340484006 -212.44445988903166 0.012892720353243514
96.75344983474949 -214.32431906126655 0.08551042453524171
96.8886507839668 -214.1166751831942 0.08131606952822978
96.92844419112309 -213.6925336292342 0.05509806681811591
96.9510245870301 -213.55502729602193 0.04763498435670244
97.00375096022132 -213.49233627735455 0.047971938113377854
97.09466688350317 -213.07742257628706 0.02880367869656264
97.09942855605264 -212.90568666937412 0.018365223796515173
97.1914256777722 -212.83653767900867 0.022632264866928486
97.18077696824504 -212.73668134804814 0.01553383946491671
96.71946359569192 -214.20519644623744 0.07416972109863351
96.8375682969787 -213.60438844912974 0.041428062801102006
96.86979075822542 -213.52915928241308 0.0388923701210675
96.91556617737211 -213.49733549849998 0.040686742564743694
96.93272987868109 -213.27772170464587 0.0274031617774676
97.00784343981725 -213.17872571279943 0.027566723209191735
97.0724190223905 -212.91928350918528 0.01667895221037896
96.51035135432838 -214.48965147701392 0.07917887518100886
96.57038775443144 -214.28032335974575 0.06822804050738229
96.58606615943577 -214.2304458713265 0.06573178460653817
96.5931076260155 -214.13572818503272 0.059375740417306755
96.78429859580099 -213.64500931451065 0.03970652599275104
96.74623516956736 -213.53591099391517 0.029053321443091917
96.91214023940948 -213.14996564939221 0.017093354965433516
96.93428945780782 -213.06880285123856 0.013694851618035964
96.33416926242154 -214.76945213890363 0.08743525277286612
96.46419827948624 -214.44735116269038 0.07255304807072538
96.49348866303836 -214.39647240012766 0.07093648231623151
96.51400393351408 -214.30144219687395 0.06548527732561937
96.66862479385605 -213.57723831608484 0.025438241250061777
96.72094707307436 -213.51370734471934 0.02537603250570153
96.20139057073716 -214.9505913041462 0.0921986283821572
96.30584387509731 -214.76618016335422 0.08528451266873316
96.3585436479835 -214.45346252832348 0.065365073258557
96.35770437368949 -214.27064551616968 0.051658354666368256
96.60173320143126 -213.50309485264643 0.014845251139225968
96.00473036889738 -215.27774083268054 0.10481180614640007
96.09700614735944 -215.22218129625753 0.10638098606220292
96.13044291348618 -215.0892135300896 0.09814936912050098
96.13724698434365 -214.88889363181954 0.08317242248656176
96.18135853858446 -214.79278257447004 0.07867538585176082
96.17418243163475 -214.70572334938768 0.07158458635669618
96.19063863036106 -214.61539123519543 0.06575946429811175
96.2691711951355 -214.36658799256406 0.05236906168437183
96.3326437606444 -214.27540308673886 0.05010396110563187
96.51696498851872 -213.5285212421974 0.009691754734674651
95.85727003823925 -215.42061939858817 0.10643026983313375
95.98760021623866 -214.99270352543763 0.08134247306004005
96.03664836956841 -214.94019749596643 0.08046824339409575
96.07759015289096 -214.83482208633984 0.07498848582587891
96.18680672385061 -214.23305703654523 0.03650768881960109
95.76967369125549 -215.5038862454285 0.10748698028338421
95.82686261368006 -215.41142081787856 0.10377748606068715
95.88389759466317 -214.99914339029172 0.0752450912110384
96.13436132557128 -214.19590583341457 0.02995209848292113
95.69896297508403 -215.49991507299973 0.10281945194985043
95.73347426156413 -215.477349507287 0.10314557918564649
95.75213784959936 -215.34902540327693 0.09418866476908783
95.73371305819806 -215.19634895556302 0.0810363971814988
95.78116394906166 -215.09172782924094 0.07582385541711811
95.79632314454348 -214.9318535018979 0.06431200196372344
95.8525184141599 -214.82984759582877 0.05999373518709905
95.86619154959743 -214.7926322068263 0.05792739348618814
95.54818885865778 -215.608209740855 0.10238975326103406
95.75104071095558 -214.91312060822298 0.059934860644571875
97.28555313533849 -208.48932092724155 0.03286256213396066
97.2335436013546 -208.45678910898036 0.024345983471702692
97.20858421500908 -208.42213561728508 0.020699514662726237
97.31069723399335 -208.00869484184489 0.05201741035247398
97.17749629541635 -208.3621680991898 0.016633764989247513
97.1557989370782 -208.26441170288516 0.015479426284262798
97.14844811625255 -208.16623160875994 0.017280823457469063
97.20981407517503 -208.0855737571431 0.031070220596330023
97.26874019026464 -208.03476437757843 0.04350426034987864
97.79237295016586 -202.7818707929719 0.03481724027966571
97.6836683452114 -202.8429763823276 0.02434186269174099
97.61166674604507 -202.85865282787063 0.019478768190997253
97.49476473137062 -202.80701799812235 0.01809700448943763
97.50579921608474 -202.69511448020188 0.028031072906978483
97.46640129367495 -202.650412531451 0.029901194070782178
97.43936094987406 -202.5877002652271 0.03393942945139827
97.42585788435721 -202.5045976251485 0.04036830468606245
97.39399666363549 -202.5092364339367 0.03845944335662055
97.39788715490732 -202.4406791657121 0.044496687943858304
92.35141921103312 -222.07905526216993 0.03737166525943525
92.21694297038684 -222.45605846601129 0.05332907365972128
92.29980115493501 -222.09456888832614 0.03747586193497632
92.10470348157854 -222.58360941700374 0.05795730734434312
92.06773228166401 -222.45731795313986 0.05167498151283734
92.23087810199884 -221.81514990418293 0.023569437367210067
92.05067843498298 -222.14805991502308 0.03702043129839894
91.7711007202029 -222.79363231910003 0.06407742915608527
91.83715943764798 -222.67885838412045 0.05942967023859791
91.92460692062079 -222.37322997460245 0.04617075568942064
91.56856227862451 -223.13644410609882 0.07787980999984578
91.71859069886214 -222.79521223488067 0.06355016771502564
91.54737164998099 -222.91985786258002 0.06762503910966888
91.49162464631789 -222.95458163674846 0.06866849151317089
93.6342120503982 -213.3668836789298 0.025567301519122898
93.58807114849729 -213.2748327540961 0.013739181252353627
93.21261571377576 -213.30229986436632 0.011170601332750052
93.16200028817117 -213.3639808949366 0.017936364021436835
93.86368819202524 -201.15464301782507 0.04497640251091273
93.9158812198158 -201.07064698876698 0.053946543887340326
93.7516620254844 -201.21512904711008 0.03708935870934671
93.79173467084638 -201.19703005766766 0.03956792980700641
93.67030899646836 -201.19013537055673 0.03792192507205283
93.6235257753621 -201.17159998221396 0.03881500389946935
93.58870720142774 -201.12563247224705 0.042528382314348745
93.53951527255269 -200.99820262489288 0.053685742250032975
92.12921006140148 -203.93078595427946 0.07307618907661018
92.16386555213543 -203.84409851031717 0.08609064062425908
92.17737243129625 -203.7641170011333 0.09854947310602746
92.05437410110048 -204.01311208741305 0.06183331737463582
91.94374447646057 -204.019911802029 0.0636456007038102
91.85203379083944 -203.9972522245818 0.06978435192736354
91.7682014544902 -203.92185632138947 0.0840078615081169
91.70714449541651 -203.88070441167184 0.09228228822860784
86.15527854267131 -222.9958110530098 0.0966482301944731
90.21863805229131 -206.64072700122696 0.09368534819075947
90.2342402202223 -206.56182818135605 0.10065486284561476
86.089971530138 -222.99681999562935 0.09785774979174011
86.10218521020758 -222.84639164072524 0.09196094819554179
86.2401264527841 -222.38867233907638 0.07216919900346108
90.12826337856887 -206.7164983926058 0.09947551813277755
90.19103514131542 -206.67021643951114 0.09464162555286115
90.22659780563879 -206.52126862049846 0.10680793226132201
90.23698255079022 -206.49180812592562 0.10882793345249919
86.05339551632045 -222.56570823023785 0.08235020067447074
90.0518586809902 -206.74324590667499 0.10887935123671999
83.75081205460218 -218.0611641060245 0.014224704272929767
83.60911120947897 -217.32965176790114 0.005361985363552146
83.31645146978089 -216.59051343172902 0.006073551079784578
83.25727195889078 -216.51908360259836 0.007804073201340245
83.14941293418468 -216.3093682217608 0.010042658629330625
83.10893434225096 -216.22576355502952 0.01090698127696732
83.05866883017605 -216.08901789155908 0.011636332950611394
82.50554347602719 -217.89996947012094 0.06467881121772545
82.8510856943638 -216.04811319508738 0.021471372332943495
82.99017629582309 -215.35723831706417 0.007435680559023439
82.74910973101059 -216.00620114914764 0.026122537269464563
81.71313801823797 -214.59278565410116 0.07316081538663877
64.47113709212506 -218.0649839921998 0.01737384130083175
109.53932520984358 -181.4792277525062 0.22767250685216478
109.07529478059999 -182.85362157966412 0.18721943621003334
109.01010005960542 -182.76212526431465 0.18907161731943511
108.67651571660349 -183.69300100531154 0.16143518063368834
103.85776818207745 -200.0480274568041 0.12627042690472812
102.60797338820421 -204.5967237583661 0.19835238759576457
102.5974484091795 -204.45539987647297 0.20598427106088946
103.7631004962636 -200.0356630645675 0.1239750868887537
102.58766527956116 -204.40444603069278 0.20834916685962268
103.68051688301018 -199.9255526588722 0.12716005507662587
103.68750404044981 -199.7741498845158 0.1353276303497054
107.76773636949419 -183.26754826437985 0.16562367832158598
102.17150147777357 -205.3187532392553 0.12747407873040562
103.43791561790657 -199.62837188044625 0.1353136064515108
102.0905924121361 -204.5370502995923 0.1671775677341647
102.10422710710526 -204.49734547023013 0.17049550226488663
102.27449903689809 -203.95427443669695 0.2151136972826606
103.37810660401757 -199.56195867722712 0.13699364184288654
102.07748682437764 -204.22620693582337 0.18525013720206351
102.18257906469746 -203.92359842366915 0.21101660298652059
103.2889148696183 -199.5781414489941 0.1333784461191172
103.25334432831319 -199.51943850895069 0.13542017576484677
101.93802285785605 -204.32410972712992 0.16998157001944558
101.95270843164714 -204.21196441441222 0.17789071266626966
102.00196718670661 -204.11931383435387 0.18690972899466074
103.16852978664927 -199.47210470744724 0.1353516713650832
101.06129522804126 -207.39832840591632 0.211145256976788
101.83169508000988 -204.47481289327087 0.1537120646395398
101.8215953746403 -204.41052622034985 0.15698373455803016
103.07627607769321 -199.40572039730944 0.13609385302595955
100.85121159977741 -207.77425311820147 0.17228319849140017
100.97016811577771 -207.56315642237664 0.19399630974192672
101.00951756002173 -207.48142119015282 0.20186979179255415
103.01635476724181 -199.30946946178008 0.13941238097587527
103.01016979881555 -199.22518117888347 0.14371162583976926
103.03237636050638 -199.14378792381717 0.14876763894668532
100.81436241424653 -207.82536869559655 0.16620812015072417
100.75085981780084 -206.66136096466406 0.21604452342006286
101.37978831790954 -204.17376065020994 0.14284985160711505
100.55531624539682 -206.98814953098957 0.1778208983968791
100.63186136173357 -206.73675730713137 0.1993866207699495
100.64659202169473 -206.70789147220393 0.20250083694841303
100.6507034840335 -206.5782890941497 0.2102398394594429
101.3142953173205 -203.96790334583812 0.15201546030112256
100.52905544290759 -206.8431152989164 0.1827789360026193
100.57592875535617 -206.7725129455965 0.19152198762812223
100.57453933154993 -206.51756797789614 0.20578686902749
99.5513780421214 -210.10391162945245 0.19957511029071795
99.60797831754958 -210.01767612206083 0.2066155269285902
99.65730429620405 -209.94093677359504 0.21315042341963097
100.23250813004829 -207.38895593529745 0.1237257930886092
100.43816209135309 -206.87080288263388 0.1717410787830247
99.39115201708275 -210.44099306574472 0.18191361814961404
99.45399865028658 -210.29008308813994 0.18825840696437068
99.50424405364008 -210.1998135936309 0.19411372735921506
100.28876269113705 -206.96835361039408 0.15080687349334554
100.33034261027524 -206.70686471055575 0.16946488351767142
99.2114297939305 -210.75503403889354 0.16380584871945714
100.35693671007246 -206.391005847059 0.19067609031373522
100.37047882775012 -206.0069034661012 0.2161152136343738
100.19838604301236 -206.52752029011418 0.16604381267531265
100.22572043188282 -206.4733940526175 0.17211154110825655
100.25075928526066 -206.39214068951614 0.17957278563974388
100.26525134499191 -206.0639807705855 0.20165383352703048
100.09391401917162 -206.42346993243152 0.16143776381360375
100.14511031846894 -206.19803694884334 0.18071485775874807
100.14769502994824 -206.13556893995727 0.1849687115401809
100.22359169682557 -205.92365435045738 0.20660058199769038
100.28219770184165 -205.87897372029533 0.2155320918892455
100.03853740272808 -206.37279403812312 0.15880921877867804
100.0382122892029 -206.32534095266402 0.16169893102233246
99.97586724709716 -206.29326084790202 0.15728639010455892
100.6295115750869 -203.32361567152125 0.15296531350130116
100.68295850016952 -203.32461354591092 0.15618520293448102
100.5522568121421 -203.30426030914415 0.14962886713329382
100.48056562535588 -203.28198079127978 0.146837437391947
100.43721118298103 -203.25979933045832 0.14580040061263433
100.40672141335457 -203.1919200087758 0.14882433841613252
100.38456336135638 -203.09763912202965 0.15428210220019534
100.41540457437547 -202.98435582523044 0.16434514886918117
98.17955240109471 -210.4519769279993 0.21038267130629795
98.17014522989689 -210.38741625295788 0.20625050184095184
98.2064743635602 -210.1480956656671 0.20383073466137813
97.00742178301591 -214.5979348536091 0.12515522217098118
98.02643624219158 -210.65543315058278 0.19507024707711673
98.05787478338387 -210.43786662130827 0.1905045649215037
98.08274762839713 -210.2500053890395 0.18725231072712778
98.1733616610255 -210.16169724580197 0.19884517644597977
98.18008113357716 -209.93655220819588 0.1932508889574347
96.92993198176217 -214.72582385522674 0.128195552013726
96.94997069478391 -214.57089134401113 0.11862958895412934
97.75608261025755 -211.30371325231638 0.18990614082827062
97.84070974943262 -210.91891014244842 0.17980261877492887
97.88934259390066 -210.63575787571665 0.17284207394339224
97.95316474251386 -210.41204974193366 0.17298363418370744
98.02626325453961 -210.39163483270863 0.18358020725660473
98.02428399429422 -210.23618250669503 0.17745918848885844
