ply
format ascii 1.0
element vertex 834
property float x
property float y
property float z
end_header
55.996095597291436 -170.33825391780465 -3.3356970344515884
56.27043653427302 -168.95920846914115 -3.3400274577351934
55.88495082733331 -169.97857940691233 -3.339795532527498
55.88276194090838 -169.87592482484447 -3.3405579524726106
55.79857962667484 -169.95201036656465 -3.3411057251354452
55.9414235397818 -168.82075969600757 -3.3454292551375175
55.314763559811176 -170.81522018558803 -3.339259204136271
55.734679391527095 -168.82759060964747 -3.3484633246182516
55.3575467806569 -170.2690934833379 -3.343948178445298
55.35085921507607 -170.061195223598 -3.345809853285192
55.67116355928165 -168.86537853116505 -3.3492453988332502
55.69660638789857 -168.83512833422176 -3.3490179583088038
55.77882289488031 -168.4163154191803 -3.3492442771978155
56.152320014309 -166.79405533203055 -3.3424055053628097
55.199148017855705 -170.1755152059725 -3.346612196693683
55.53353150811357 -169.09150582547875 -3.350122571727145
55.82834449137223 -167.9818173115271 -3.349323511562919
55.839928961786526 -167.94679821339915 -3.349153084543621
56.261973840826506 -166.12052910053544 -3.3370653662727636
55.135552117713914 -170.15865097342905 -3.3474999721897647
55.40991665460811 -169.25147030087433 -3.3509179019510418
55.38775401499616 -169.12040345193276 -3.351991867457716
55.712980495474454 -167.80824617136687 -3.3513539923268696
56.13658352397261 -166.2522391614542 -3.340044492775615
56.12571013255024 -166.1546844032227 -3.339731003721603
55.09938387315879 -170.02840059186576 -3.349067992101683
55.33340702418917 -169.00161353453086 -3.353393447191459
56.061884112037156 -166.0055228501671 -3.3399095265243197
56.21312771115862 -165.36891257559557 -3.3349851780694086
54.787041440600376 -170.92217986978952 -3.343386415599019
55.545265090507556 -167.70845204231185 -3.354175369899257
55.54268581839879 -167.56092826987427 -3.354260015328956
56.057192842994105 -165.4651165304602 -3.338192468579938
56.16129219039101 -165.4418906810001 -3.3362225085339623
55.128284833570724 -168.77048968606874 -3.357502068340954
55.46808554992191 -167.60733797327106 -3.3554839596621173
55.46870613103208 -167.51161119318263 -3.355438817638365
55.57980497691608 -167.2359433956843 -3.353371061766537
55.96101298808112 -165.4874863679845 -3.339975713641678
55.981303179734795 -165.39375489871398 -3.3391921596150085
55.06891305630627 -168.87102759917028 -3.357821416222702
54.63005251521932 -169.59361269816603 -3.3583502212466474
54.86874824247286 -168.80380206289772 -3.3609580927110656
55.43388912785545 -166.55993577873366 -3.3541449056816055
55.648823352665104 -165.5058688760322 -3.3456062471008603
55.69739828838161 -165.41772001309613 -3.3443557604396585
54.73933584128919 -169.07153802385508 -3.3610253504336782
54.65840518703386 -168.83073754809544 -3.363675660201052
56.17244760505573 -162.70819086378128 -3.3094296597343718
54.544359907816954 -168.9134988933578 -3.3646677247846
55.60539254386243 -164.37867415204806 -3.338887287377925
56.08641584742209 -162.82302813914322 -3.312483412838901
55.387896546151744 -164.90930695216602 -3.346927300433875
56.170710421969986 -161.71945679709958 -3.2935648635623442
54.37664242620212 -168.7504466297877 -3.367971997888136
54.78932999779917 -166.90406586444422 -3.3663252820562506
54.28998695026333 -168.71833405876671 -3.3693218622546346
54.30811911814043 -168.60645151417606 -3.3698146547423407
54.6594471191281 -167.0094630132607 -3.368737156355023
54.72951665790362 -166.6663374886103 -3.366849092867853
54.779533607572965 -166.4580399836601 -3.3652128203563536
54.90265530361052 -166.0618267027564 -3.3611122915340648
55.15839353977995 -164.94851207180457 -3.3512348721204592
55.247855407788435 -164.84853411603342 -3.3489629776134073
55.260594514309815 -164.6273790855477 -3.347043131469927
55.65266890878536 -163.06660057697326 -3.3228463688768994
55.678942760660355 -162.85287784780616 -3.3193513311354446
55.794889897855334 -162.48475506873584 -3.3119201570032493
54.19462856700984 -168.58311390698583 -3.3714838765537936
54.579192882685064 -167.06665043257817 -3.3701432608760844
54.77563416744112 -166.1437584612633 -3.363796415892836
55.0912936292703 -164.9144427178671 -3.3521836825554705
55.157205916430975 -164.8882841459306 -3.350845950931496
55.12513665007545 -164.75785286343523 -3.350448606627814
55.18594668081849 -164.67882501051656 -3.348761349936678
55.18337698836255 -164.51258950964154 -3.3474182680899776
55.64584638518809 -162.8404656308557 -3.3197135914274085
55.73372580339217 -162.53866680629875 -3.3137394462327885
55.72791151405497 -162.4067932525867 -3.31169739573944
54.25074954796525 -168.00614851572342 -3.3737352642025256
54.600274259143625 -166.674408686838 -3.36911655203091
54.659978576052346 -166.45493945172305 -3.3673564280666795
54.59987038412824 -166.38527198715394 -3.368087750939519
54.6505242263234 -166.241287366637 -3.366537228158488
54.70400336492091 -165.9442148043993 -3.3638842172544483
54.72571686632308 -165.92724309896118 -3.3634447817562787
54.81959361798554 -165.7818406904253 -3.3612402596484654
54.80524028375692 -165.60893184696582 -3.3609407571565617
55.027818968853154 -164.828760257883 -3.352691961270343
55.33294232226768 -163.57499736099902 -3.334843709338843
55.6326686353619 -162.20386994897936 -3.3098102283017923
54.019815187506 -168.4924088497309 -3.3743953633165806
54.1293230511092 -167.91037961235358 -3.375928583900824
54.125771461565535 -167.83393059138874 -3.376261022953052
54.35780013308743 -167.11365694230778 -3.373862199512992
54.50406522222237 -166.33044982407435 -3.3695502345354056
54.66382391992642 -166.07206578686842 -3.365451975661897
54.739740714457426 -165.5593783238786 -3.3619234922511403
54.74876417097518 -165.51195770342224 -3.3615647604362495
54.93072953718432 -164.9866502013429 -3.355516184874524
55.24334737649095 -163.58743487418766 -3.3364737054845737
55.54390854809154 -162.37284020406537 -3.3139304994877583
53.6066035122041 -169.5563769710994 -3.3698420254232566
53.993569709550975 -168.33699454098092 -3.3757205640375116
54.046325496589326 -167.74230013504703 -3.3777907730178907
54.05978452188262 -167.72853832401563 -3.3776105679906223
54.351896264121244 -166.87874806611083 -3.3737885580668014
54.3014509952295 -166.71568731629816 -3.3743724195306832
54.4356165918873 -166.54247055577105 -3.3715459950261284
54.43437781475946 -166.2256601982891 -3.3703590353384993
55.216285429884735 -163.41409354172796 -3.3346658168598413
55.23451230809651 -163.33855375643938 -3.3333696401093813
55.42690128596654 -162.41787523409795 -3.3164474749847472
53.58709445899218 -169.56492668300976 -3.3699249278697616
53.639570594808916 -169.22494726086305 -3.3729417625914317
53.90972804276645 -167.99273047798494 -3.3787649296014006
54.14915441040895 -167.00604733375778 -3.377303351949578
54.1703720693259 -166.920040773106 -3.3768580783992133
54.219546138390335 -166.71267301847826 -3.375728995942675
54.330012798871245 -166.46263047712162 -3.373181810924309
54.84756886543188 -164.34524798049466 -3.3516913231667793
54.87217795994808 -164.27008086268938 -3.3505208570775715
55.30154265555952 -162.41301293414836 -3.3182193775877344
53.84496227675178 -168.02941263437094 -3.3795046514283467
54.14150158087746 -166.65533645414513 -3.376953936599383
54.21659857060125 -166.45778222700542 -3.3751000172679095
54.70701971972274 -164.54742087955938 -3.3560148649233272
54.69425761500045 -164.39506165801978 -3.3548166560368045
54.80250811521558 -164.25463503640026 -3.351555841692425
54.76582773434773 -164.10282244679152 -3.350570499114674
55.28022229836513 -162.3580261039275 -3.3175887597779745
53.164334682572246 -170.16814017905173 -3.366156210078859
53.19806175515233 -170.0082188277438 -3.3680048192973104
53.63418148020982 -168.55086098936408 -3.3789590866290395
53.94218834958547 -167.04596536637482 -3.3807015665436655
53.98038553431592 -166.96863523586683 -3.3800668389926054
54.01412648885619 -166.6758249602364 -3.3792226002093093
54.21125963874808 -165.9650213051259 -3.372874221903346
54.22357825447822 -165.86288613208782 -3.372002212684227
54.59817929238851 -164.52679188963526 -3.3577179235888064
53.02279650227401 -170.37144202862817 -3.36436269665567
53.04535978474314 -170.364518990428 -3.3642807050410424
53.073743153180445 -170.17508469368624 -3.366711788233359
53.12300694706449 -170.1397344377622 -3.3668453128858435
53.143348225447845 -170.00964136323313 -3.368398200572174
53.18036901792443 -169.95516680510397 -3.3688496770027063
53.413582482813865 -168.8268395641792 -3.3792327974114804
54.05396464619437 -166.23421018215154 -3.3771454034577535
55.078216444405925 -162.0455110914359 -3.3149875072633304
55.28035884686471 -161.22433323980314 -3.296467468041954
52.794705990638604 -170.7349390640632 -3.3603381070361698
52.943800505863535 -170.33781118986292 -3.365321645689227
52.995004533542364 -170.12624752896852 -3.3679236608026066
53.77865765244575 -167.1115361565243 -3.3833405255902305
53.76258209993619 -166.66668054043708 -3.3834852713914128
53.85899347591884 -166.39912147428163 -3.381200338384972
54.64287788373151 -162.95171071943307 -3.336954501471976
52.57830481732747 -170.82768723940342 -3.359820859595671
52.57990857952608 -170.76364216189668 -3.360780983614584
52.800095103646065 -170.2124028470475 -3.367955504399319
53.13811786032399 -168.6540773606696 -3.383930119699943
53.1565085568045 -168.63548292118847 -3.3839035758947813
53.57261836642314 -166.96581179383435 -3.386799354361065
53.75199133359272 -166.07109093818363 -3.3816853686042223
54.44272396724667 -163.49612712812686 -3.348305420032682
54.51992871302054 -163.10614832895445 -3.3412668905001044
54.63910355616842 -162.5950003124811 -3.331053521580528
54.85859488391776 -161.69016125955574 -3.3112289802999575
54.94098142825226 -161.54844365180125 -3.3073964693343387
54.970065174441956 -161.29288283720467 -3.3018628311176066
52.487368599136296 -170.86963011012227 -3.359464657375133
52.50169703244692 -170.8289029609611 -3.3600842926539034
53.07078872487445 -168.65367516623766 -3.3846709081678754
53.54638782385031 -166.58209871046105 -3.387053435988795
53.70490409652875 -166.04036040111606 -3.3823899488222486
54.055858921042834 -164.46497274664767 -3.3665048853516097
54.29188024575336 -163.53263860230217 -3.351218983461841
54.48835814085423 -162.72055327478887 -3.335421611645867
54.51448634324517 -162.68429357527452 -3.3344463388680996
54.79587274435779 -161.70449527340406 -3.312381913247715
54.869719365346626 -161.4851710944024 -3.3070436585537126
55.0402966745714 -160.83317371878798 -3.291303337053553
51.98052164967581 -172.29837560815346 -3.3360822658980096
53.62136113802711 -165.71792796209633 -3.3822484303843394
53.69932742945056 -165.6315014585833 -3.3806073867925144
53.663128871527775 -165.5695494560113 -3.3810423732669475
54.83479956775272 -161.24543327515522 -3.3025062880544658
51.9406098888538 -172.26436235926099 -3.336575006089148
52.795492701545214 -168.65664600233296 -3.387539264388668
52.841941987602915 -168.63303343234773 -3.38731979921351
53.508981548070835 -165.99020180384085 -3.385643170072113
53.54702439437481 -165.77198321386655 -3.383697929314141
53.5943238042841 -165.71608477919818 -3.382719715772183
54.43826254428207 -162.07623037847273 -3.3243404701814203
54.51922691899115 -161.9450405253302 -3.3207523056205233
51.81587703036803 -172.2595542987718 -3.3365904054512536
54.47365469652354 -161.818578278482 -3.318840866100326
51.69240780259445 -172.29358947541206 -3.336142899223907
54.291070539764725 -162.02195398192708 -3.325220616129784
51.592299866079344 -172.27353391941995 -3.336633374621561
51.63186788546026 -172.23291984515586 -3.3372675112259937
51.5621790437359 -172.26441937446873 -3.336824954687404
53.757257419997 -163.1217815584833 -3.353046118194459
52.03495066356468 -169.63539833187437 -3.3804339376070742
51.972469066267955 -169.63702305620723 -3.3806478290156154
53.37038438608589 -164.01096514059873 -3.3726965147675516
53.61049256746242 -162.92618772436555 -3.351715646902657
51.16712168571131 -172.25457453577857 -3.337180468404461
51.855067821465994 -169.6780598328165 -3.380515158376341
53.283341337796934 -163.78843180491816 -3.37092302101364
53.41566784519592 -163.61490594755836 -3.366240225783268
51.06439724146762 -172.25245439333523 -3.3371676877179435
51.08781837287432 -172.24436132935836 -3.337314750777247
51.72716660175898 -169.95570233659575 -3.3764520555907436
51.79253328941578 -169.4250355818701 -3.384672791200921
53.4741677192397 -162.9665791108487 -3.3543682403120822
51.09716361615248 -171.72837858274252 -3.3463526616688486
51.63644888804929 -169.74798671933362 -3.380024674439493
53.125994848668746 -163.5981726804044 -3.3703757722237797
53.754201293015676 -161.20866660936488 -3.314068419839845
52.84377152663854 -164.45679007761734 -3.387043137150379
53.078296159656176 -163.40767085395385 -3.3678956871880414
50.900601445838014 -172.04449171350984 -3.340682273048988
50.910468390693445 -171.93416541879205 -3.34263964483503
50.98959921163754 -171.6851237430246 -3.3470839721135643
51.384114944443226 -169.8167719049277 -3.3793342297347113
51.447828686276424 -169.64061331990553 -3.3822524925700326
50.57448118895165 -172.59999757468304 -3.3300688462760153
50.72115122170168 -172.05895392112444 -3.340155524689841
51.26942351955495 -169.84992950780648 -3.378860454244946
51.37785314816351 -169.43176385104096 -3.385855484425534
50.53387896038708 -172.59267253573958 -3.3300650336668087
50.554818865574624 -172.3414971279792 -3.3346593561421995
50.646188334768475 -171.98751706236672 -3.3412737126108913
50.82720619456593 -171.50168155654356 -3.3502150063415987
51.1591038702498 -169.84895092643563 -3.3789028773873317
51.18603922576988 -169.7421883786313 -3.380760193986239
50.42766991853287 -172.6470521807374 -3.328709716725595
51.10647292210031 -169.80997375301064 -3.3796322011196573
50.32215969449292 -172.64926978101388 -3.328303499669179
50.392278145159956 -172.4168839186932 -3.33279396625146
50.75562599562103 -170.6609227878353 -3.364944654617559
51.057151234726895 -169.73275872247626 -3.380926797214159
52.22564082244309 -164.70846661205562 -3.2954124528434825
52.28376930567433 -164.6613936887944 -3.2915251434899164
50.14425758486825 -172.66537624174597 -3.3272069658847068
50.162971678881625 -172.60693426337974 -3.3283971147050067
50.8270102895379 -170.07687323104466 -3.375031373207371
52.12482993325529 -164.78529672126618 -3.3020039181066676
52.19618316119837 -164.731771306342 -3.2973473836504685
52.25024042014483 -164.57682497628034 -3.2914484125521346
50.12104722851166 -172.68207707588215 -3.3268239073192083
50.345644741898184 -171.75018916745213 -3.3447304408841196
50.46193171598411 -171.28803149582546 -3.3534131909914255
51.87317025132572 -165.3491792078096 -3.3221920128297215
51.86730091425551 -165.3316359153145 -3.3223954371550564
52.05787544243085 -164.77530087076642 -3.3052372172495574
50.78240951976428 -169.585699900048 -3.383445637574637
49.99799054668966 -172.3489347416823 -3.332309168789035
50.178804910867065 -171.3104055863128 -3.352143428981079
51.90948497129234 -164.45494847076623 -3.3054062201347483
51.92668245930191 -164.38084253955464 -3.3025667876912945
50.11007235194677 -171.31422964692342 -3.3517816274296517
50.36316926091937 -170.20106665133696 -3.3726957315175308
51.80037696800265 -164.54462581442598 -3.3130661783882522
51.86485160434266 -164.32726579247648 -3.3040099541617707
51.86674084362083 -164.2628514090227 -3.3020023249142003
50.31413267243272 -170.21747615100605 -3.372292295151537
50.33772542414523 -169.79084722552204 -3.379961884049862
49.69767511774639 -172.01288897020785 -3.336750441032874
49.73000776889046 -171.974952360891 -3.3376745974485464
50.30053791821499 -169.73364153956314 -3.3809194712663215
49.662043197391256 -172.01180405620812 -3.3365633187980643
49.510307571583894 -171.97072905579458 -3.336302356591743
49.57802954988975 -171.94251371211035 -3.3373015079542583
49.41832063560884 -171.95261992369578 -3.3359158558529627
49.463305778547436 -171.9198512202716 -3.3368589856630697
51.37847987019332 -164.193612236655 -3.321973013594109
51.336607791554755 -164.1401372799582 -3.3218041902288418
51.36451450822197 -164.03584210652377 -3.3165894393744244
51.290971193269925 -164.19304560089174 -3.325771504866485
51.324216011544024 -164.08851687249097 -3.3203445907734737
51.34974050940557 -164.035617967467 -3.317178614668742
51.247834754151356 -163.95325590602414 -3.3179970554183615
50.08034007672422 -163.50008345367516 -3.3328028248306025
49.991119613700725 -163.5137465435968 -3.3352779560667236
49.92041150283554 -163.4665583512616 -3.3337722204501095
49.898667817823615 -163.3864929862125 -3.3294665659877563
50.18131344060876 -160.23143476666286 -3.325479075556667
50.04052514816166 -160.24302745933085 -3.3261128017336934
50.096111255291234 -160.24297051397042 -3.326007741397682
50.022795038890514 -160.24067438374007 -3.3261498094787014
50.0003764933975 -160.20545633406908 -3.3252968159494665
47.589470699599374 -169.31546087462084 -3.359506515765932
47.57398914568931 -169.2412423675348 -3.3605472640684053
47.53636351907459 -169.1815528750294 -3.36097625994345
47.39813181573982 -169.19355509060205 -3.3584635944199968
47.461816779742755 -169.16640872374379 -3.3600033798416185
47.36979848048986 -169.21731307879406 -3.3575836288254997
48.22130191992284 -161.4409545717986 -3.3510440460437048
48.25841088904192 -161.4122923152724 -3.35066345928291
46.90389763154319 -166.30118849294104 -3.3404300203744346
46.970684525254555 -166.22377640509706 -3.3004181974391167
46.969944592404325 -166.118754522142 -3.302075437346312
46.94807561728746 -166.0532674330172 -3.301718770489273
48.16406684017416 -161.424890040992 -3.3501578472542577
48.17178616010512 -161.41788255867394 -3.3500661060856403
46.88435152896817 -166.02849289773022 -3.3276705307907064
47.94318744118532 -161.2112718106997 -3.3430498285219756
47.82296767153656 -161.3527554237818 -3.345136361141017
47.880563050823035 -161.31294882618477 -3.3448083939526674
47.92586899827505 -161.25625449660095 -3.343932587411517
47.76184295201108 -161.34259311831036 -3.3442360731348297
47.70389349791973 -161.31998172556078 -3.3430765763710433
47.664262060666864 -161.28082557484623 -3.3417246706688104
47.599694427767446 -161.18284017574683 -3.338737708178117
47.552928686329366 -161.1112628949336 -3.3365676868026606
44.80301485682461 -167.6413960436945 -3.3203992146417023
44.828648872684866 -167.57884518882116 -3.321558601483865
44.775670445961325 -167.68493238640812 -3.3193279651884207
44.80674001456208 -167.5123968747102 -3.3214841327451317
44.76147742092963 -167.4662144504149 -3.320641510503316
44.713937282834124 -167.4484001787405 -3.3195175269470134
45.316852282332206 -164.7527017639958 -3.34553813101175
45.3224977364142 -164.70101846026785 -3.3457428373131104
45.24081927734245 -164.84251954595263 -3.3432812589699665
45.28537732496099 -164.79807800615004 -3.344595554609119
45.31008396145835 -164.66533097399855 -3.3454399379626407
45.283910764953966 -164.6025211827451 -3.3447751595980955
45.16467850351358 -164.8768290641773 -3.3410899659839544
45.2172496454747 -164.55258361541368 -3.3429632788440826
44.255814342367984 -165.43229557521514 -3.313888179333704
44.2799560957648 -165.34436829173967 -3.3149599276240096
44.18090528365009 -165.495911007704 -3.311525280211858
44.222006434873876 -165.2640815731198 -3.3136923608851516
44.468505119923464 -160.73359363193347 -3.3012595594228737
44.5169891471094 -160.66676985391226 -3.3016200221714174
44.54511696809671 -160.5630332943345 -3.301118419059813
44.56163267752196 -160.47997465425192 -3.3005728563848136
44.38814165749297 -160.820405005318 -3.300405150482748
44.424443547879775 -160.77293775582353 -3.300711863626593
44.51968669032613 -160.36748470170795 -3.298453378525439
44.50043674348967 -160.2945208315066 -3.2972634730815207
43.20407293503365 -165.17726034698066 -3.2856092720103685
44.323887666344916 -160.82454398361796 -3.298995540603164
43.80071769652211 -162.25289130602187 -3.298393883825381
43.83387473729287 -162.13138030091227 -3.298470600653968
43.891960223539535 -162.08847176338438 -3.2995979287946513
43.73938761780382 -162.17861021797896 -3.29644097457591
43.77626359306411 -162.17461127528532 -3.2972824023536687
43.64493708351458 -162.20371503657535 -3.2941793609107535
43.49115635929045 -162.1574596351811 -3.2900818735894446
43.37476843205502 -162.30601605349136 -3.2879603010622023
43.403329495262405 -162.2426066852828 -3.2883460637605664
43.40518436783625 -162.16476929498816 -3.287964637791497
43.275436218544655 -162.29384388855985 -3.2853996758471156
59.43429684631164 -179.76869440676643 -3.192914543170382
59.54357416410628 -179.1989370868176 -3.2002600420879004
59.506783237468014 -178.65813014405276 -3.208061446588544
59.396303923669045 -178.42257411117052 -3.2119304397191772
59.491112881644014 -177.81028728473365 -3.219450861861915
59.45904152153821 -177.683952470053 -3.2214093115547557
59.35208270510306 -175.80548218714324 -3.245414518261743
59.16497742486555 -175.68293411568771 -3.248492576166241
59.21403137237604 -175.24263456706709 -3.2530708081871196
58.9790336201179 -176.00169539033797 -3.246397680214849
58.95238138456229 -175.89866498419593 -3.247821005651294
59.02302235020392 -175.6771810774443 -3.249834579258935
59.057318032539634 -175.6419673131008 -3.249981201356916
59.04119545469423 -175.41336398676475 -3.2527337364751836
58.90592547780284 -175.6973627739043 -3.250658335111637
58.929266338907944 -174.63562338615716 -3.262445255795836
59.03914144953976 -174.2279607200172 -3.26557888835305
58.5288802306803 -176.0165621119267 -3.2498809763000613
59.04380041856636 -174.1153137734257 -3.2666630471634943
57.524877604950525 -179.65465412442495 -3.2033772829353473
58.45388490166862 -176.00478170262 -3.250682008458703
58.46139271767947 -175.6471412020109 -3.2550284198485864
58.3773852354653 -175.44713802014195 -3.258206559917002
58.19676724727566 -175.4915030514598 -3.2591287988848583
58.46342838537486 -174.68892880422197 -3.2663460333331296
58.42302314606902 -174.33031876539928 -3.2707556348285887
57.46732806812764 -177.79117902788707 -3.2321841732548915
57.47208477382302 -177.60332199658274 -3.234946536862189
57.51620050997089 -177.5315407634319 -3.235826247189888
57.54287347710954 -177.4373413462483 -3.237117687774149
57.43724495461303 -177.64816661687343 -3.2345561424671434
58.212691945199765 -174.49794201711404 -3.2708831386810004
57.260383337860375 -177.8465445776719 -3.232319781652417
57.93698105874585 -173.91468626042843 -3.280001955206977
57.6314336332308 -173.72844657024447 -3.2849917221734968
56.90708110457715 -175.3845309817573 -3.2700313056846864
54.326064450313424 -177.12955706656038 -3.2516450467170372
54.27025794799836 -177.1140849029632 -3.2518044960538
57.061058232258006 -159.72516935471438 -3.2433605481089405
56.98278801918857 -159.6602983343184 -3.243064850816188
56.92678470358363 -159.57697458280407 -3.241936881983308
56.96709063617124 -159.4820694773937 -3.2394878614983362
56.95573577732276 -159.38348227845827 -3.2374957275888163
56.8342587356401 -159.68951621851338 -3.245503700562203
56.94081908576972 -159.35183340267002 -3.237081753458666
56.591629302331356 -160.37436604666811 -3.2625118121839654
56.537990380118316 -159.75454924732136 -3.2504735565194705
56.55721114839717 -159.40353316810973 -3.242709948623411
56.56689956326322 -159.33265800054113 -3.2410092318252337
56.484177151726755 -159.33864711936405 -3.24204375452248
56.52474205480054 -159.238451984051 -3.239419029467488
55.99143747586153 -161.09382093451833 -3.2846125538438993
56.37213221912513 -159.3034197856054 -3.242625498428842
56.41276160479042 -159.09260028249253 -3.237467504001737
54.30773031008368 -167.09909380601837 -3.190393250896191
56.28800191548648 -159.33480928416404 -3.2441798370947943
56.238672944293185 -159.33617521262178 -3.2448397755559037
54.33844140750945 -166.43110773056904 -3.1936436313862906
54.18013196392069 -166.65800008389235 -3.200672159662926
55.83373287671472 -160.08167079413082 -3.2658449251033446
56.131596802463434 -158.76609510858964 -3.232890828442207
56.0308213678726 -158.9089514037665 -3.237342095052929
56.06751873958678 -158.7835738344059 -3.234041671690488
56.05769399701179 -158.74813088550272 -3.233218784291818
55.682255883838025 -159.60554525830887 -3.2569560770244292
55.76331396374109 -159.46929128343217 -3.2529480457879734
55.94003452054113 -158.81979288233873 -3.2361738232266983
55.65895345831006 -159.5039240227984 -3.2548918644280427
55.694724504704396 -159.4076839145692 -3.252348070564203
53.03526217230677 -169.3199941228034 -3.1891126064929822
55.38874791297886 -159.96931342920155 -3.2683308287679576
53.79136108756847 -166.13456296923275 -3.2227086958836253
53.747653754263936 -166.1039755701454 -3.224989670140929
53.857449085228524 -165.62543192030284 -3.21868374068678
55.40946091655871 -159.5736620251464 -3.259117479177124
53.08703303606225 -168.29860486679948 -3.221546980049782
53.79042712607261 -165.6589093825485 -3.2222608004958917
53.820851791906314 -165.59237920735487 -3.220544970350773
53.017978739440366 -168.41178606213373 -3.220822974689429
53.04113863850328 -168.38785456845397 -3.2206639323174433
53.019510070823436 -168.28795618780526 -3.2245378484978486
53.095189113252886 -168.0613281266027 -3.2279772787193335
53.09472168260658 -167.9547544981489 -3.230870485062656
53.15664796305899 -167.90104872107753 -3.2296407617789904
53.59802888384003 -165.9135580450231 -3.2327529486915263
53.62434755687142 -165.85595065002707 -3.2312272292406066
53.70080244711836 -165.55775071331968 -3.226791326244337
53.060980453093734 -167.88484463790357 -3.2341285685490804
53.513496359613754 -165.96305810987562 -3.237272151478596
53.54474692196821 -165.89735502947337 -3.235482232129574
53.570688457244074 -165.78579993695695 -3.2338485625351026
52.74010329867607 -168.76730383238217 -3.219160986789506
52.69371052464932 -168.6315319032147 -3.225561047175907
52.73855136031373 -168.6278361121174 -3.2241062678171852
52.677740845919445 -168.63947005960296 -3.225831795261043
52.56796686233464 -168.32355745480942 -3.2405894246042415
52.109643808286684 -169.95885356783003 -3.1883600555741753
52.168485360173634 -169.6773109058193 -3.1995242811319664
52.2279642868782 -169.41115030351276 -3.2095546595040907
52.442861429362736 -168.3706306100507 -3.243476241483571
52.51572998581485 -168.37776075519974 -3.2406525824891723
52.54685215504203 -168.25266785363252 -3.2437230935688923
55.4300147404798 -156.52540251983945 -3.1926141711884624
52.049828463134304 -169.82677982225343 -3.1956283155788565
52.14666168919746 -169.4602601942512 -3.2095352674753315
52.03122730312513 -169.3530668955692 -3.217125462010152
52.34010027626234 -168.17636143135928 -3.253830760412115
53.42582016884656 -163.6130163362032 -3.2088274792278004
52.0069110354959 -169.23143329573574 -3.2230078053806657
49.165938567437784 -179.73199088928015 -3.1900020215047444
51.569739994688206 -170.04418769804371 -3.194912709316975
51.54633814334687 -169.95558631073587 -3.1995287097313834
51.662299842904595 -169.74246292416098 -3.2076108884897234
52.8625269888038 -164.9237938574385 -3.2660335604321302
52.93878546918668 -164.46660196120388 -3.2543771764147698
49.06610632609375 -179.7204959920485 -3.1893753302666976
51.673349362366665 -169.17655061771677 -3.233465520262326
52.79159372185512 -164.79717255217267 -3.2678936699081076
52.832422214871436 -164.4684341891432 -3.25979765480777
51.438548038199706 -169.5876595437873 -3.2190581101370026
51.53511556949112 -169.42167439617978 -3.225106281131929
51.54188977255883 -169.22867550883845 -3.23395335083018
52.755780127719035 -164.4635083267828 -3.263558798257092
52.7444680355294 -164.3891028497464 -3.262493075515459
52.79725392336086 -164.32012032036465 -3.258280767010365
51.39388318793405 -169.4131604159342 -3.22820500819967
51.498411109185064 -169.19957620700984 -3.236219220021285
51.47523670101772 -168.9978990168581 -3.245952203796694
51.567095157691085 -168.95082345344875 -3.246029893337557
52.6992419367748 -164.32523792627634 -3.263266889759005
51.368850553746 -169.28210150579451 -3.2349029461765983
51.3545585371912 -169.05134434888993 -3.2459986047818234
51.368261688965674 -169.0024092855123 -3.24797947404109
51.1138726172552 -169.80848270457466 -3.2132484636803573
51.13185329522653 -169.76443625929073 -3.2152078703105618
51.26120694292326 -169.15790072529697 -3.242753764389033
51.35272498478523 -169.00435386364683 -3.2482423704401775
52.36418919498599 -164.56115041303846 -3.285382657332747
51.033868846179274 -169.80900926779546 -3.214195665961287
51.032761351511425 -169.67429130890397 -3.221023909238369
51.03999737234143 -169.60753052218294 -3.2242017608505
50.948083550351356 -169.67503604818575 -3.221958416172116
51.98632282388747 -164.86612463306565 -3.214642746941782
52.05766805848849 -164.83146045823466 -3.207665989378476
52.04533112994607 -164.69356522627166 -3.204925660968455
50.81251694760654 -169.36330727291886 -3.239316607604212
51.92769832278587 -164.8925357031112 -3.2203102453009262
51.96085835743257 -164.80099913447987 -3.2151395899829476
52.00197208065974 -164.61442410573392 -3.2060978043599015
50.68321762712381 -169.39530683409583 -3.2392278948813513
51.89888087359086 -164.4707182335169 -3.209517985861903
50.46925072006898 -169.86218526806363 -3.2177071896663962
50.658563874439835 -169.07089685097637 -3.2557858654824776
51.800581673157005 -164.4921822196555 -3.218376866716394
51.80719923109745 -164.44339901486327 -3.215890702415373
51.829605006298635 -164.35810533091407 -3.2105477104207165
50.3014454971316 -169.63787423464575 -3.230514275397234
50.354704874861966 -169.53883952616056 -3.2352535647557894
50.23802549326869 -169.5619870335769 -3.2348282915194244
50.329039606281505 -169.37854557849676 -3.2437235688349544
50.34331873938637 -169.23866921280415 -3.2507960167629095
50.354650510716056 -169.0014690168068 -3.262830973480401
50.073561193111885 -169.74468027618906 -3.226000705804527
50.23331869172489 -169.28457078268139 -3.249254209090338
50.20371324611913 -169.23875447942592 -3.25182425746782
50.13969382230701 -169.24604985796472 -3.251812997400088
51.35094934356323 -164.13996947953868 -3.2364561461522516
51.38629245040472 -163.98074186752999 -3.224621894309785
52.74747240667601 -158.661232210318 -3.2701289827601623
52.72827076346403 -158.64034091978309 -3.26974115213792
52.757508348989944 -158.46735603217036 -3.2655529615426104
51.32072161909391 -164.10737276110913 -3.236764661462929
51.32082007070777 -164.0365830555109 -3.232568443481216
52.65480913426574 -158.73111437413985 -3.2726425024574746
52.685423736751645 -158.55008332843335 -3.2682425254913046
52.67439435430712 -158.4780838371206 -3.2666581883218515
52.662077121867526 -158.41233629429314 -3.265230243585886
52.59505921917019 -158.3633240258349 -3.2647858969398977
52.55307231509497 -158.3243118226501 -3.2643622654353184
52.48970837617484 -158.2652656561826 -3.263472031842817
52.46707172156092 -158.24883316449177 -3.263407767878342
52.458436563389924 -158.06654624221224 -3.2591706297283154
52.38637458211947 -158.09414341657802 -3.2605067553475453
49.870995320426296 -164.53984023261847 -3.2444203172715858
50.0770522757995 -163.4908253842801 -3.24260672945339
49.9906227410164 -163.53081720063605 -3.193494082767133
49.99387491883775 -163.509313369408 -3.229714340176226
49.91810611171458 -163.47247687945145 -3.2236797554874856
49.89854245901793 -163.39043942388398 -3.254828372640986
51.968551351955234 -155.05254560982715 -3.1907603981595747
47.564425981243865 -169.37207072650685 -3.206045149010506
47.56381560031517 -169.33677095785612 -3.207753933958833
47.541953517206295 -169.23959000264662 -3.211879701179513
47.450366169965726 -169.2026463667584 -3.2107942021309097
47.470197224297074 -169.1826655545399 -3.212402558436691
47.38000897285748 -169.2291353376796 -3.207226941392274
46.92507461260567 -166.2918421544787 -3.20662901422641
46.96581295233883 -166.21568033659244 -3.212659326013051
46.95278414259499 -166.1190427766786 -3.214061912257954
46.91624123134508 -166.0616519128999 -3.2120213094487786
46.88166468836857 -166.03923060458249 -3.2092526449067473
48.03543500723353 -161.41998828878033 -3.2010270510304033
49.6247718589648 -155.03426500872013 -3.196345736594926
49.680949912114436 -154.98795626143448 -3.195152989711913
46.840853082389614 -166.0270726891906 -3.205641716600656
47.94192462454414 -161.4184596948675 -3.1989835544516216
49.51485231928338 -155.07369176740764 -3.197279296802944
49.56948260165362 -155.06283684625714 -3.197083760132669
47.87074890658493 -161.3710212039673 -3.1947578125579215
47.84144750217148 -161.33282089057138 -3.1919629981834508
49.46090997564 -155.0468196804957 -3.1965249693703206
49.4080695106269 -155.01232734155616 -3.1956675983016787
47.75470733600671 -161.318096006762 -3.1891462519578955
47.77802695558712 -161.3013122100245 -3.1887492211430715
49.353298748301896 -154.96208350890845 -3.194400612188547
47.70319614819069 -161.2930639296306 -3.1865349632474276
47.31062166960102 -157.25335118855472 -3.242848794812886
45.313563736155636 -164.7432856813366 -3.2037387151034413
45.31988662798656 -164.72261003765487 -3.20402156304732
47.26086157827414 -157.2973847760853 -3.243554830584448
45.23219894031619 -164.8398256394462 -3.1989954742589446
45.285070216667734 -164.78942891511687 -3.2021427615546036
45.304176481345166 -164.66994990413826 -3.202816591682558
45.262992725973824 -164.5969260478237 -3.1998716940649587
45.14756137452904 -164.87322731811096 -3.193776769550804
45.21757598878978 -164.55848970079532 -3.1968016677907545
42.506989287679886 -173.63817810535002 -3.194270855468953
42.5395479743006 -173.5405236632007 -3.196399121368154
42.5342578268724 -173.48914859689322 -3.1970071251416794
42.480231904059394 -173.43824950782553 -3.196636776376727
42.424367312473244 -173.38777201440573 -3.1961724925710344
42.37047147535106 -173.36747675503761 -3.195338467255427
42.268299797405795 -173.3722094475256 -3.1931098645702805
45.0893911564884 -159.42181305368385 -3.264559726168855
45.14025772607292 -159.38404766090437 -3.264577221613215
45.18126085243314 -159.28354498809358 -3.263209549521874
45.04415401007139 -159.40237889093424 -3.2637071476909574
43.18106771788349 -165.17595884503513 -3.2850441008689764
43.10312810332431 -165.1192695388352 -3.2830494969506003
43.102498214190796 -165.08744025234546 -3.2831868200713306
43.019338206260876 -165.0178984961745 -3.2810871000561166
42.984711301457715 -164.9715061169949 -3.2802301635111637
43.06398498913729 -164.7801438133848 -3.2830736241041785
42.95648263061718 -164.9244760691491 -3.2796419831897685
42.962994083709205 -164.72484634213933 -3.280332766737918
42.980221181623286 -164.64877405067222 -3.281027549020645
42.926541948028586 -164.69832461166556 -3.27945739349192
43.158844461736024 -162.28977584738158 -3.2824132676053135
42.45109356091422 -162.6142409797781 -3.2653605191312502
42.39740358602525 -162.6614692053204 -3.264131603387102
42.734141405095826 -160.61504955048105 -3.260845367609115
42.80785272352467 -160.56486423886577 -3.2621672798659427
42.82417183802636 -160.45372493025025 -3.2616220037304196
42.8695289175612 -160.36292562556562 -3.2618792044724074
42.86543056869475 -160.25050093002554 -3.2607866323005763
42.63898444419893 -160.68692838407884 -3.2591659570286544
42.693805767474146 -160.65599128231713 -3.2602224844467305
42.833314338424636 -160.17043606021969 -3.259302948474472
42.58171701443929 -160.6992334624381 -3.2578673911208376
41.088103684429136 -160.2942774115159 -3.2188037237791125
41.14281203240423 -160.22965813684465 -3.21969435361281
41.177646839638214 -160.1349379952619 -3.2199141507960536
41.0147003931423 -160.30884128227927 -3.2171366446976153
41.12222173647935 -160.01810440073763 -3.217685856664153
59.85296099131031 -184.14392357766877 -3.1242265855009523
59.28168001360302 -181.13737747148164 -3.173437964760336
59.493497772083515 -180.0712898695049 -3.1882132101946343
59.35962282834856 -179.98627887543617 -3.190069960402827
57.500978715331975 -181.9356957833771 -3.166356214189679
56.329832723402085 -181.5008298153778 -3.1751443362462224
56.388322858669476 -181.33099497036815 -3.1780291101197364
56.432461222594235 -181.28063782580824 -3.1786868476298267
56.285209556285594 -166.19984670835083 -3.091743318466701
55.54658463838828 -169.07307100160963 -3.097313683532191
55.82190475395659 -167.55919972919287 -3.1100369165083253
55.64384258347134 -167.64807776516037 -3.117882178118755
55.73668115181658 -167.55604208920957 -3.114268863135822
55.56100499297477 -167.57014034263963 -3.122841155771155
55.59384542478702 -167.38764330959697 -3.123179582381963
55.480036384938636 -166.78605253469354 -3.133230243898452
55.18352258676456 -167.3264369119849 -3.1442819761447325
54.677542217978896 -166.91630609637895 -3.173487389803593
54.27015066200908 -168.41707606949245 -3.168795604616076
54.87997327160094 -165.94435651372373 -3.165234037611969
54.87776433353083 -165.82718958587515 -3.165219355364685
54.17595018371718 -168.4064350500076 -3.1731601210948224
54.64176704500193 -166.38589573413384 -3.1779727441138097
54.6504935233298 -166.22510314097408 -3.1777393322707965
55.205465616836676 -164.23608800613084 -3.1342476224497835
54.52560270266235 -166.564135823803 -3.1834002443698703
54.51000379134149 -166.35245855073134 -3.184938864398028
54.4582253465625 -166.4735330225697 -3.1872488649929513
53.480628963438214 -169.66766028676915 -3.1614970763664525
54.852920785595636 -164.26690418538823 -3.1528969443203128
53.18005737414662 -170.40132701701054 -3.142105594261867
53.214085732002104 -170.39136544151364 -3.1415764463876337
54.72760945981551 -164.25365608824677 -3.159103001606248
53.124688155050904 -170.54822447388625 -3.1374904550195684
53.36344818305872 -169.6059668744032 -3.167679765244956
53.531524957604695 -168.8859525103199 -3.186271133558386
53.22521011284685 -169.6372157388095 -3.1710313526944196
52.91132657400179 -170.29607320810092 -3.1538961831371672
53.149239613651304 -169.4678377828894 -3.1798495752869815
53.171606243766284 -169.25693102929634 -3.1868306845830223
53.10833398902066 -169.36899078366983 -3.1848665064111197
53.12014639767528 -169.29925028889292 -3.1870307357065646
52.55360050095848 -169.9236958471709 -3.1791538154251753
55.787873933837396 -156.14563040411159 -3.180071605054684
55.84850600028339 -155.8427066508864 -3.1727529259662806
55.851871669821385 -155.61855381824623 -3.168167697082847
55.956531432642926 -155.34740584512218 -3.1610249074876795
55.63906325280192 -156.0800286934627 -3.1805882871110396
55.857047005791884 -155.34576394982636 -3.162218469236476
56.0373605849377 -154.66803601665092 -3.145540941405031
56.010994853421174 -154.5834851030414 -3.144136738185923
52.491702298080305 -168.3767997080123 -3.088975522180703
52.50451164899252 -168.36896991198591 -3.0886581499690107
55.600770389809874 -156.0662812862698 -3.1806019121655984
55.70348915730094 -155.4313003079007 -3.1659255511860915
55.999244078994344 -154.51523692496644 -3.1425982244090087
55.9963563878978 -154.43395271943209 -3.1410766476674197
55.96041693182311 -154.3190132498487 -3.1390025043334924
55.961333850869075 -154.22879381638907 -3.136829152050772
55.937406447834135 -154.1347226255788 -3.135156157462219
56.01900470499567 -153.8572189773898 -3.1282661199678277
51.267104779918924 -171.6994174781709 -3.116285205324342
52.915642570709004 -164.88010058927304 -3.1347608833846228
52.90782861158072 -164.86864580893484 -3.1352196890558175
55.348782083352695 -155.42090185689034 -3.1698510793205563
55.519117401032304 -154.5455111550188 -3.1489829224729506
51.137129479147895 -171.62369850036967 -3.1215004390791092
51.48859637752358 -170.4453324443008 -3.1764877051223204
52.85390692931549 -164.83866457277605 -3.139287009947238
55.45446091280593 -154.5708817294487 -3.1500710850182125
48.99047592632205 -179.8059632527834 -3.1871984438155865
51.068118091093254 -171.62879001653155 -3.121905390329242
52.7939154704778 -164.81093617402848 -3.143890694973365
52.786905699996154 -164.2765013114495 -3.1292605768992154
55.20954185459031 -154.70011934959967 -3.155714582249936
55.08548933719876 -154.6217575268691 -3.15541712551846
50.63216098768129 -171.98101263511333 -3.106719053881489
50.678161993885986 -171.85959821363005 -3.1128474897385994
50.87084444424171 -171.32626972809322 -3.1391595725130226
52.4389944854768 -164.72142217879835 -3.172254519374835
50.496209256043954 -172.30242564044448 -3.090369037889789
51.26401913666636 -169.05520178503346 -3.1023260386741045
51.35112432803282 -169.00315095509063 -3.103245217960165
52.42910479678654 -164.68322674475235 -3.172087634542564
54.89795117323837 -154.70156532388546 -3.1589868391225955
50.85507541012667 -170.49697471044223 -3.1816721898640346
51.10019237779795 -169.28614360800697 -3.089308951962633
52.29373168414399 -164.65495977011204 -3.182787629572967
52.283826163946806 -164.59663895683912 -3.1818833785009377
52.153584966318526 -164.5864927447423 -3.087836094674866
54.507024886613834 -155.53726023490384 -3.1819328906159727
50.268377200643975 -171.76424292539585 -3.119192920509856
50.4343727502172 -171.20424087200027 -3.1481951719649057
52.05144891223739 -164.67303362877516 -3.103443797842613
52.0582653585645 -164.6041235474708 -3.0997778471390505
52.09039355802572 -164.5401174658801 -3.09321606934386
54.409401977151845 -155.47101568067657 -3.181296193969473
50.16689830367702 -171.8691031786043 -3.1137656689508764
50.83048782020098 -169.29013140983082 -3.096331183453092
51.93140468602642 -164.9265304685541 -3.126603180820177
51.93629451091545 -164.81147957636193 -3.1223161892302245
52.05158178303733 -164.54889425555675 -3.098151769354886
54.49122764744924 -154.48024466062293 -3.15826138362534
50.158505905580284 -171.55689421076346 -3.1302733975809254
50.20509725946739 -171.49499248202847 -3.1335175392684613
50.32571902389384 -171.06510050328592 -3.1558712891436858
51.91365989044915 -164.36026271824116 -3.1045507212503263
54.57399108960262 -153.7830846651156 -3.141376998987446
50.044817393819024 -171.6103208455549 -3.1274282559538205
49.91490690082456 -171.61999462650206 -3.126779305631564
50.49185968190312 -169.2507649145073 -3.107503632066215
50.39429882052049 -169.40282076125737 -3.096493412411042
50.40142686064243 -169.37404231557832 -3.098807389191741
50.432026352385925 -169.14803155031967 -3.11739802399388
49.661168532704664 -171.7906801017893 -3.116843441315667
49.72222303941239 -171.68811631098393 -3.1225764456342224
49.605615799195796 -171.8082797772759 -3.1156085959188315
50.23157419208817 -169.30984599921908 -3.1070546483179555
50.21622778705945 -169.07187535901156 -3.1277244781162774
50.19001053862523 -169.04744192726756 -3.1302222810988365
50.188439044727595 -168.7811078029586 -3.1530686953069273
50.085077753476206 -168.82006272858416 -3.151278418198989
50.169276180685294 -168.80438467125327 -3.151380585461606
50.07816446275668 -163.4955440595771 -3.144025961775149
52.499439115166915 -153.9896448961526 -3.1620739930397685
52.47707019636901 -153.91096455269985 -3.1604480606306096
52.59045353831604 -153.32846262733457 -3.145558096741185
49.96693750268088 -163.52594037021632 -3.121687156066168
50.015826529837696 -163.51755341270967 -3.1177841708956517
52.42626868271469 -153.78131165295545 -3.15760042780735
52.544561615243225 -153.17558724967498 -3.1421268748912006
49.90469993207789 -163.46910917385304 -3.1209728065808147
49.89124912580148 -163.3661868118632 -3.1766180476905523
52.283619378119425 -153.99609201621897 -3.1635834974175037
52.272184260373734 -153.44785437945154 -3.1502541453853388
52.402044165428585 -153.18859631934106 -3.1433534074234513
52.22414595469531 -153.37133683599978 -3.1485564549355454
52.2083576483051 -153.25046918596746 -3.1458409324529906
52.04807932268135 -153.27515320389642 -3.147130044041735
50.16438343461873 -160.23606478041742 -3.141148504628196
51.87054477736011 -153.58217274123336 -3.1555100038687023
50.06844110012265 -160.25989344081458 -3.143322910387602
50.1240878544043 -160.2529712230597 -3.1424812778981126
51.45299254877528 -154.60262181910494 -3.1821459176077584
51.799913324063596 -153.50598060732165 -3.1539435976968813
49.997590652053645 -160.2437207215681 -3.142858359366794
49.95740845508573 -160.20198199107577 -3.1406554977639582
50.672798221169806 -154.03537318962748 -3.1704279628923464
50.61078062132516 -154.04838897178212 -3.1709325047105548
50.510287820285825 -154.043577395718 -3.171002185480071
50.4343138052579 -153.98163905612688 -3.1694942027713187
50.400493284891375 -153.9222528073721 -3.1681809686607516
46.92933004421793 -166.299255340182 -3.1163443452077577
46.97597517120562 -166.21616096081596 -3.125715629809394
46.96177982195735 -166.1156234257847 -3.1277661750659096
46.93189925309806 -166.06566527702253 -3.125674401549369
46.8975895862231 -166.04337335033352 -3.121978832258741
50.329545591149135 -150.8676901685438 -3.091867721097896
47.66714133406091 -161.26217481041033 -3.183950465482287
50.251890585773914 -150.93974214670965 -3.0938055788054144
47.6231983590925 -161.19378622573507 -3.1790939091078774
47.56156619428584 -161.0829613579349 -3.171443555820025
50.15232761904128 -150.9267262990034 -3.0935374537170093
50.07831560482586 -150.88468166741416 -3.0925842669676418
45.1826768822827 -169.07533622463308 -3.121259480627776
45.214269841322036 -169.00864113713507 -3.1251973818221126
45.248018697656526 -168.91589117363853 -3.130120485261344
45.10749579732659 -168.9612743216846 -3.1215341326226906
45.082756857215315 -168.94428619703362 -3.120870356523386
44.97702185681689 -168.6856950969022 -3.124098506237278
44.96619107865086 -168.6224810077777 -3.125566455252469
44.945595089391546 -168.6616138559251 -3.123220788248675
44.92445875893043 -168.60611461750216 -3.1238719199172174
44.92056484460581 -168.51528533879937 -3.126511360302567
44.81134168593606 -167.6360790020411 -3.1444921237485204
44.821719116735 -167.5713121948127 -3.1465933067285983
44.76168309557081 -167.71064544780162 -3.1398974589103053
44.787428041367654 -167.51081858143633 -3.145979828685527
44.69715575811921 -167.4747532237802 -3.1415320653711833
44.321552928563 -167.61284988210173 -3.116666791448244
44.049685812602625 -167.56007764969857 -3.1018213628509455
44.03585314840738 -167.50080117524612 -3.1021957932914264
44.25516199582204 -165.4394824948798 -3.1367872495373628
44.26497967980636 -165.34254233290292 -3.1378603569527783
44.233555553529456 -165.27119725496382 -3.1361579634463688
43.57943282513795 -165.95076806373348 -3.0928236078675178
43.61545535486816 -165.78635541627602 -3.0957178180636196
43.55366043658589 -165.97374918185378 -3.091137490228376
43.57027843609338 -165.7493547793807 -3.093006524973348
43.565821929370884 -165.67900996119494 -3.0928908175270724
43.56157871061834 -165.60897769380793 -3.0927656404493953
43.46489403331542 -165.71589026377495 -3.086439537730091
43.500046394948114 -165.64152790272587 -3.0888215732303683
43.4273684312127 -164.93498420517938 -3.086184236786021
43.42608551762245 -164.8520399741983 -3.086106885026684
37.899496513170064 -173.1079845024629 -3.095067448414459
37.919060513546576 -172.97919233983671 -3.096864326315106
43.05918064592697 -152.41885818826808 -3.085302917732829
43.09588449458427 -152.38127301674018 -3.0849217301349325
37.827382463397136 -173.2154335910999 -3.092242309080671
37.870924560211215 -173.069172467204 -3.094817215468892
37.88259137945877 -172.94595915296048 -3.096356658541385
37.90309483629239 -172.87520927722363 -3.0975199371186894
37.92621264323193 -172.57856296860285 -3.1010881138596806
37.935123971830734 -172.51753500652063 -3.1018424685688997
43.00960216577609 -152.42943212669238 -3.0848818901398163
37.78653929838745 -172.8942518589466 -3.094494752086259
37.882652823928254 -172.49767356618997 -3.100776164398089
37.86943718273548 -172.42485355312323 -3.1011099979669288
38.40378794543807 -170.1467957108887 -3.133894553646772
37.68521842440521 -172.87372103110064 -3.0921505400853246
38.30277097881136 -170.12229925152562 -3.131365200799499
37.58376702997627 -172.85240247398266 -3.0898043566247195
37.61743512444529 -172.49362706150544 -3.0940948686456657
