ply
format ascii 1.0
element vertex 822
property float x
property float y
property float z
end_header
85.69339739192323 -218.9250888203185 -0.44987508940566134
85.68130036733007 -218.82299373922336 -0.460855884166671
85.7013567379494 -218.7049167732331 -0.4657573271668718
85.74365890140461 -218.66890105729658 -0.4593534705246316
82.33355000171878 -232.49397126701786 -0.4511572775193726
85.66288707873963 -218.7492302558247 -0.4706313448301078
86.07655975832871 -216.73080600311548 -0.45944174700257956
82.16000804748882 -232.57812646118316 -0.4571809946833343
82.23561902931252 -232.49774181527553 -0.45710591166104986
86.03571948804003 -216.7193389070675 -0.46792444234835284
76.95522478985768 -224.01441019755492 -0.4462257399836502
76.94641745983897 -223.9213909716378 -0.45860530399763255
76.85830508276314 -223.82169844283234 -0.4698215676249915
76.73344348317447 -223.84515158445146 -0.4633932575626525
76.4647812749721 -215.7705821984616 -0.4088956757126274
76.46514512964828 -215.67041003971002 -0.40387662739976316
76.39644097710318 -215.77389484205014 -0.39873911601540457
76.39565167771411 -215.68303371365562 -0.39413327735942594
76.30803814559289 -215.66602506490747 -0.380111153751685
73.51113236662886 -226.19362133871337 -0.46945327207828336
73.45519814192352 -226.13631586338363 -0.47469515048292243
73.28009488840979 -226.05403158451466 -0.48105099694293896
73.2045435810999 -226.04039678506928 -0.4815332988267692
73.11473559639285 -226.06677882263685 -0.4780064863237983
75.15175239667825 -217.30752124666515 -0.46375902939089664
75.21313379401448 -217.28045741429892 -0.4723740258947784
75.18494736362155 -216.36517981643138 -0.47266172435503107
74.94953074197566 -216.82823357748117 -0.44261511853618907
75.14645485640636 -216.17822701394348 -0.4659338622812008
75.22338018311973 -215.76846003498702 -0.46849131756187945
75.31534795046788 -215.56892030114938 -0.4747009533243254
74.8765896672872 -216.73932577461085 -0.43350453331376504
74.87646632560427 -216.6549298830269 -0.4337096045768438
75.0942268866605 -215.95666828462998 -0.45616158612984137
75.16099889892728 -215.77191586467794 -0.46087667871625815
75.1143089320396 -215.7021513510323 -0.45356238664145465
75.14957449560609 -215.52958967890098 -0.45352711761273357
75.22673749130358 -215.507055245545 -0.4622399627207143
74.81463077133444 -216.62443175875785 -0.4257401018615834
74.82962442188298 -216.53836263375788 -0.42767438306206484
74.8620201455649 -216.44377781820748 -0.43164435767858067
74.93829283973882 -216.13389409771926 -0.4390500991068891
74.9973044646849 -216.0808550529472 -0.44586205135537993
75.03404407886379 -215.91082732401586 -0.44786082196983323
75.00978466196925 -215.8764707841044 -0.4442167977360054
75.07350421447967 -215.56702755551012 -0.4452593401828613
74.80822181876178 -216.32742322108584 -0.42417303055580424
75.54395776242117 -187.19750627831144 -0.3628069592664518
75.44247269627995 -187.26302143634783 -0.3693375486432793
75.23503811837347 -187.37586091896705 -0.3812114643879363
75.32593593932646 -187.26271429508088 -0.37328085944195744
75.09107133570959 -187.21872189693443 -0.3799720715998016
74.91655709494036 -187.43318813130898 -0.3944003709361372
74.81101867350024 -187.47541494357694 -0.39996776481744867
74.95125786234982 -187.07119509599787 -0.3794540322879374
74.64955274734668 -187.73229529412734 -0.41538832695962813
74.71210222338524 -187.5329960815937 -0.40533149354584963
70.91828500432896 -185.1373744132574 -0.43143075761078054
49.02841611480475 -235.12832133243825 -0.46744645550442443
49.00492230657782 -234.9959795381685 -0.4756490138465792
48.899420707451895 -234.90443246493055 -0.4812217453593447
47.10253279881201 -235.67176115213087 -0.4427421062124788
47.148379681206585 -235.18250785631326 -0.47108978630041887
45.40768709607718 -236.36976300124797 -0.4074369479250455
48.42916139293386 -215.83814050341257 -0.46882142040288066
48.461513299490356 -215.72075832649867 -0.473964368556711
48.33166333561735 -215.94832916190813 -0.4622971457012135
48.08489229038274 -216.52595953574573 -0.43427945495654896
48.30971211627963 -215.47452636950507 -0.4780748233745198
48.08697596751151 -216.04705487652848 -0.45170669345926306
48.24936447701894 -215.35210253843962 -0.48029180533622806
47.99541886429027 -216.27858483859728 -0.44077646342447285
47.97215928183877 -216.15906165448823 -0.4445551491939306
48.05168186683278 -215.56908788152086 -0.467388046316479
47.390070168466565 -216.3689022829412 -0.42035701963877625
56.584718345593295 -177.54418016001284 -0.43020260219463835
56.41588518788676 -177.58814812246436 -0.4332819115790145
56.31477866768295 -177.73203229031049 -0.43790250391773466
55.39816776736855 -177.56412253438387 -0.44094423719104014
55.30527910733152 -177.72986651763318 -0.4464509943215669
38.679909412140844 -207.10379783538426 -0.43458663202672176
38.4835299075583 -206.72991112092464 -0.43689239880529795
95.35680072795574 -217.87381594027127 -0.3616688322919146
95.25889521691386 -218.06527264597065 -0.35893383631511666
95.3255445900541 -217.92234601698647 -0.36134286310856223
95.04022418829018 -218.39314706382234 -0.3578149930370189
95.16512792452512 -218.11324799855598 -0.3632342939813076
94.89756521369198 -218.62094440998914 -0.35646337196524214
94.58411645284416 -218.92591411189764 -0.36334994873668425
94.51746172101484 -218.96769390084495 -0.3661420337000143
94.25831788271135 -219.52699055447357 -0.35531214447692205
94.13813427179885 -219.68999192841386 -0.3554004927366772
93.5217854201421 -221.30967432158306 -0.31212375278671556
93.55930800744494 -221.23157705517912 -0.31371160562539124
93.58446306140546 -221.1511975930078 -0.3163273028581026
93.62254349602115 -221.0946246986462 -0.3166323692852524
93.3091001790934 -221.69352405186848 -0.3062775117137919
93.35683643868165 -221.59647515567778 -0.308202346974187
93.41999687410954 -221.50517345720468 -0.3086933163358063
93.4512759116042 -221.42540285873702 -0.31085108705277587
93.47473259847375 -221.3643106099507 -0.31256832386863076
93.13323380152413 -222.03437093660094 -0.2999706365539696
93.16655661847697 -221.9584812233111 -0.30181481257627807
93.2172900664426 -221.86500868296457 -0.3033795808709454
93.25398996173104 -221.76569981007995 -0.30626099437297527
92.99693413082517 -222.2095227814845 -0.3000217448537583
93.06107038835412 -222.1464374402542 -0.29891704577345224
93.08965874959027 -222.08968608237728 -0.30000360604056975
92.9276846243619 -222.3215205957519 -0.29873187598874584
92.71209846314362 -222.173047880259 -0.3228775325402906
92.48660724689137 -222.9273624444624 -0.29621805311696114
92.38225912046626 -222.7895393095178 -0.31169339516168915
92.42941519730769 -222.63037612315713 -0.3173738836326767
92.29091168244031 -222.52834910966902 -0.3333222695918532
92.39380088002 -222.20621480547942 -0.3441564288529224
92.14867778570722 -222.90523007603352 -0.3220501294024838
92.2033068883338 -222.75589803787616 -0.32666599937014795
92.18455038629973 -222.6376889404833 -0.33477330185953824
92.18217216053648 -222.57043459645448 -0.3388206921881616
92.24108302995937 -222.38300737019387 -0.34518847904314987
92.29391884819815 -222.2512454146355 -0.3488667352560608
92.19696730321363 -222.32238842615442 -0.35190658849403844
92.1559818989146 -222.2639658773885 -0.35816074913839024
91.91267214921344 -222.90668426073512 -0.33905022247982397
91.94441276210158 -222.76762341064705 -0.3447234490078803
91.96193600292523 -222.7341229328182 -0.3454292300089574
92.0391316985073 -222.38156662855488 -0.3599515473030741
92.07196189505588 -222.35450745610876 -0.3591639492180865
91.61985379416804 -223.622658012164 -0.3187276140941926
91.75474886610266 -223.27088064368846 -0.3294330529293268
91.75509787303731 -223.2047685086136 -0.33321636073094774
91.88351455317849 -222.82817575222023 -0.34565885874515856
91.55350828141961 -223.5411127577122 -0.32822578999261176
91.6046022554386 -223.4771525085123 -0.3282636844628033
91.65154251231199 -223.2838033973807 -0.3361634087920724
91.73250425157083 -222.97361479350997 -0.348265174455916
91.75919920809763 -222.90014964841242 -0.3505731792731792
91.09880974569653 -224.95530058759513 -0.2774692547846105
91.17539842334023 -224.7637411801225 -0.2834299751520448
91.51198710825126 -223.47221886126653 -0.33527616162981344
91.50909889274729 -223.3818659130277 -0.3407454942887318
91.52841783572826 -223.30639261376226 -0.34371258357562007
91.56742847778769 -223.06415060440347 -0.3549744996033688
91.64531812731332 -222.93172445435812 -0.3569485130041621
90.99816939322727 -225.06245332601875 -0.2782683262751058
90.99043677669536 -224.95466203524674 -0.28524930341479493
91.04897761483545 -224.77306195086746 -0.29190107998289294
91.51411123668288 -222.99273577919158 -0.36291788408182724
91.51848780644528 -222.95284292161844 -0.36495287767578977
90.85792527149823 -225.1851661599864 -0.2809009924814114
90.75482176392647 -225.4142172995109 -0.2744973933798458
90.7340248188064 -225.26692355419408 -0.2848203960569835
90.80246900120333 -225.01570087926885 -0.2949915911661638
90.56806809564186 -225.57236291765795 -0.27824308775868123
90.69490416259451 -225.15758300692988 -0.2941402014231518
90.7051201143936 -225.11564053983807 -0.29594952917270345
90.6840238539427 -225.00000790172743 -0.30436962644881604
90.4899216102187 -225.61340510896343 -0.28128239687121703
90.50306309755413 -225.25984427164744 -0.30164768189457436
90.38082729583708 -225.57229185989235 -0.29149668676808504
90.38819694394483 -225.32064016510972 -0.30611528632297813
90.16743397069376 -225.97353356933954 -0.2834495226257443
90.16196167250884 -225.80628860731767 -0.2928118853243351
90.34246279562147 -225.2042957158837 -0.3163615866313658
90.1621579429375 -225.75280433491312 -0.296019971397375
90.15217381468263 -225.68973282382078 -0.30055187146140283
90.13494421522086 -225.5685316936784 -0.309078125828933
90.20105212648267 -225.4694475538476 -0.3103925631007074
90.08755481321936 -225.52609976009765 -0.31500668327455283
90.11394930142144 -225.44510748917233 -0.3180352682799952
89.48052229970332 -226.92702343280416 -0.2817070497240235
89.6471016484857 -226.27490374402012 -0.3056900191219645
89.66080341189382 -226.20460926135007 -0.3084334569637215
89.41409106948059 -227.00722809709168 -0.28230047518422685
89.60249472458348 -226.31099736508287 -0.30718180584845634
89.63163520418954 -226.11878458618563 -0.3156710028262997
89.60709115328633 -225.92964592766606 -0.32773295736362185
89.59344798945283 -225.97150188090177 -0.32670465550237915
84.020415541488 -233.4477308378427 -0.28517437413151137
83.93086987634413 -233.59392827156879 -0.28231947723132245
83.78690517972119 -232.9270731531176 -0.3312996165656483
83.2209828911974 -234.21994747668063 -0.29111195008277324
85.8292535382625 -223.38091953799133 -0.2842793262998258
85.71560942854111 -223.42664286586336 -0.29238231098861633
85.74877002845578 -223.41157476199308 -0.2901472606831945
83.0492101996101 -234.20295701083882 -0.3027992339876895
82.95864662344572 -234.13407843733876 -0.31296780621475073
85.41489024685772 -223.75277283290987 -0.28906039493333124
82.87466615603599 -234.14838948304245 -0.3176855483639116
85.34238209619339 -223.70561780596472 -0.30274215537991567
82.75948823522151 -234.11223336665168 -0.3271813347618402
85.25498267172048 -223.67395170126127 -0.3161933481006791
86.80482694180527 -217.21202040640162 -0.2995063642409521
86.85860977343589 -217.0809026402928 -0.2911004477804311
86.83224284337695 -216.95672194649302 -0.29895198435018666
85.11760416017226 -223.6913232791495 -0.32924248591771477
85.17505141522942 -223.67658454340517 -0.32464704478985107
86.73027946485661 -217.18163564530872 -0.31622125300572246
86.74406898405485 -217.12862777433457 -0.31444008793314415
86.79136785544112 -217.03138676345736 -0.30639437223980126
86.80953903268005 -216.98075081969452 -0.30339997524091666
84.93273432846553 -224.02056906855 -0.3098961416781991
84.95586080958506 -223.91661247360926 -0.3199130026999699
84.99422045339232 -223.7990533811331 -0.3298361146989839
85.06236438441461 -223.73302242873012 -0.33032202363571606
84.93801168889918 -223.95581125922797 -0.31702485386332335
84.96187163489044 -223.85893634626368 -0.32625010541613175
85.75751089579707 -218.98414804872652 -0.28168777851669935
85.7641915559852 -218.83964231343595 -0.2931138261896111
85.69796411109917 -218.9214747024514 -0.30236558467446506
85.71870095669043 -218.85345245293075 -0.3032867782525326
85.88238228708384 -216.67334321078974 -0.3409964180859393
85.90019909980488 -216.62160349917855 -0.3358644044020107
82.93934381243892 -228.45433115910396 -0.2899209154491764
85.86092733386415 -216.6649201213069 -0.34603692648517703
85.85584533030273 -216.6506416656058 -0.34703269999502706
82.90719234226755 -228.48612147218543 -0.2894129945717503
82.95689842897207 -228.30597195759822 -0.3030342980113343
82.97370568320041 -228.14151838206644 -0.31720009259988435
83.00159481107663 -228.07985770639525 -0.32136353565540077
83.02891230314762 -228.00606956629528 -0.3261906613347343
82.76931550719621 -228.60294055094136 -0.28778179091440226
82.79799855204348 -228.51400637916444 -0.29399923875992084
81.43736023837116 -228.90011148028276 -0.3448923466455369
81.34742623213648 -228.82364563381267 -0.3576310294781895
81.21322487417655 -228.83206999523807 -0.3649129411422165
81.27217740815192 -228.81076991913596 -0.36333980479668715
81.13324036209353 -228.91173564861577 -0.362037437377716
81.17421279549328 -228.86003060092347 -0.36430932736577826
76.0100615735633 -215.8395169954221 -0.342618405476276
76.03754039241593 -215.79229079436337 -0.34485181023835465
76.12022538676383 -215.67609411283158 -0.35225049015026877
75.92644760118337 -215.85273575301895 -0.33023316134954617
75.97589854521624 -215.75488933882207 -0.3338072815430908
75.95641492670758 -215.66506211401125 -0.32683985883375377
61.5437573648869 -252.48684972557476 -0.38421737500188047
60.99061921684198 -254.28314560047227 -0.3092203113804035
61.461823102275915 -252.35962443827097 -0.39473599589626396
61.33569458076822 -252.30335320562762 -0.4043281799284062
77.04033045935682 -186.03960940513332 -0.2594086250819807
76.77085913153768 -186.4771916883813 -0.28740005343821173
76.6577240259479 -186.51147341407548 -0.2935714417213755
76.5451006406505 -186.50361614928084 -0.2974415705676008
76.4129711989252 -186.35950647117363 -0.2972159205354321
76.29859057668472 -186.3587910496839 -0.301374539191968
76.07452250016073 -187.06263553711196 -0.3379999164114702
75.94339867400053 -186.9751658380651 -0.339272864164043
76.179237117174 -186.3288552289642 -0.3051054104135582
75.84889618819366 -187.06831579388188 -0.34674841343440943
76.03947949800124 -186.2217819973474 -0.3060045626085539
75.76354541743966 -187.1906555296141 -0.3544408593955173
75.64909127661679 -187.1499556945521 -0.35734756565191206
66.5993757747333 -219.09606718261887 -0.32459943478092
66.51328327080218 -219.15465263276394 -0.31632277471278214
66.55552764936729 -218.8892524249288 -0.33173779560006134
66.3556669508132 -219.21874760843198 -0.3031102374338088
66.43331932520454 -219.0289288733687 -0.31734454195435857
66.48859640988483 -218.94616372074185 -0.32484580500501226
66.4114786804909 -218.84364429028906 -0.32478285964313036
66.23153325504231 -218.79696093585446 -0.3154659160553088
65.81839751368281 -218.7563387448086 -0.29114094842969274
65.80421851889211 -218.69976243953684 -0.29276742776687326
65.9168402531153 -217.67114422885186 -0.34265846090442986
65.94727801612264 -217.5618539878874 -0.34865321287419615
65.90843651022922 -217.47859046634628 -0.34919126839708303
73.78054757386523 -184.57708372560555 -0.32345149700985876
73.6684604163286 -184.62456360394037 -0.32932493634635573
73.53066804954139 -184.58415610704452 -0.33209614686022326
64.44196414120195 -211.55038297159214 -0.3566010550492129
64.43015190374666 -211.4748708098946 -0.35589668673861796
64.4111104918176 -211.39631910768932 -0.3547005399707026
71.66552946786679 -181.49694630655813 -0.27478850944941957
71.73899524351981 -181.2570168811316 -0.26376828779051276
64.33555167157171 -211.29864982314453 -0.35034880142439273
70.08595870142946 -182.19320509349205 -0.34690863199594535
50.817608521712515 -237.63978744021642 -0.30425362666329114
46.93436126273277 -236.3662428884823 -0.4021814417367511
45.38112708480999 -239.61036330728317 -0.38425276101173056
45.30839574328053 -239.48654335375076 -0.3937601436142888
45.16358998731552 -239.40099167505716 -0.40129127318644664
45.24296845754977 -237.91048170116034 -0.3165500794764078
44.90175846557425 -237.92684503732903 -0.31675187564120755
59.39366624630591 -175.7115653990139 -0.34295201461173175
48.39898574857395 -219.21834169856106 -0.33482716094787124
48.44131250668647 -219.10145605184093 -0.3410080799734665
48.400165021139365 -218.9861871586837 -0.34495925918176895
48.31333578992014 -218.87003299228678 -0.34734629481290735
34.18012313924764 -205.42117161515657 -0.3510334255236789
34.217108123025284 -205.25250335799538 -0.3550526451130811
34.15270856176777 -205.04781560874486 -0.3574241037660577
92.04937838466202 -223.93345737995247 -0.26960897381650395
91.86055045212365 -224.2798371971109 -0.2628900308151878
91.90156149631602 -224.2315172726588 -0.2627987632609947
91.94522721156912 -224.1364557492576 -0.265239125327724
92.00211954870565 -224.04994060163182 -0.26620464494664264
92.0168768817185 -223.98846811477702 -0.26871716701096404
91.6708869144064 -224.65258562952485 -0.2545382701464711
91.70365947797868 -224.59905253069613 -0.25537067119606194
91.74425165081844 -224.50323662490516 -0.2581203655068194
91.79980781743787 -224.41569420001872 -0.25928537152732556
91.82886249499828 -224.33520024625122 -0.2619341256544303
91.5048366185686 -224.94609048045925 -0.24903738126872965
91.56336860596122 -224.83383928705 -0.2515442299852473
91.60514745110088 -224.7866450350472 -0.25133392720241066
91.63549501627448 -224.70589688548142 -0.2539398468270151
91.47936425735793 -224.85208310620115 -0.25645121453071096
91.34441764011775 -225.0850471569142 -0.2522554245019968
91.30663361582374 -224.90564129015925 -0.26559499148985144
91.23653109780855 -224.95895962789555 -0.26742874634701974
90.80688277875385 -225.7726519633867 -0.24925496217482834
90.54215562315397 -226.67723658279118 -0.21631499156245315
90.80854726482099 -225.40486042148447 -0.27126909046015846
89.98743198210005 -227.80918650861219 -0.19430474673354592
90.32880268296933 -226.52802944170259 -0.24032362540762864
90.39689934569408 -226.24420639264366 -0.25092690744521184
89.81837952903203 -228.13547495306335 -0.1886254161116523
89.85790605624138 -228.04434730572225 -0.19081861430773062
89.91112469748316 -227.96305378306693 -0.19147651858459147
89.95607156126425 -227.87484442569487 -0.19311151812116623
90.20344061436467 -226.64008443447085 -0.24351489913024826
90.28245056806485 -226.3643454398574 -0.25288947270212714
90.28024750608708 -226.30342665374508 -0.2567239590397685
90.27684214865405 -226.24361563086143 -0.26000284065494483
90.35088839725958 -226.0891739245951 -0.2629588137095771
90.35448727198612 -226.03828073646233 -0.26577267229680857
89.65680039092184 -228.40486495185706 -0.1851906791433977
89.69732092068845 -228.34575549434615 -0.18570939859738922
89.7555240173518 -228.23582694215904 -0.18767321683798532
89.8797797165062 -227.54731113280715 -0.21702948970788394
89.99080188846617 -227.02871526782394 -0.23778207622314218
90.03566026788444 -226.88580865323226 -0.24272660503911547
90.26390799757799 -226.1762255195261 -0.26498299006658765
89.59330141815852 -228.51339620471242 -0.1838764842966305
90.01046523429603 -226.7971572563842 -0.24926227313973004
89.41084400903038 -228.76697048654583 -0.18308485752009696
89.79871433640372 -227.03432159544042 -0.25197921161348913
89.78726526657104 -226.92905908899976 -0.2585708131927704
89.84327739549647 -226.80964171174688 -0.26133243278408513
89.84003034164246 -226.7417866988867 -0.2650823053787259
89.20057332869091 -229.02908432719292 -0.18323875007312473
89.29317351481822 -228.76051959431354 -0.19209305236777952
89.33930729359811 -228.4716216879115 -0.20497250811125833
89.4608794248514 -228.22375217801985 -0.21023131961438013
89.69040407419719 -227.0084936768028 -0.2616517854264364
89.78887833237302 -226.8708460374322 -0.2619937310736471
89.26835452532012 -228.4889381967369 -0.2090429194008705
89.61445352385512 -226.98548448743503 -0.2683047905970899
89.06957862039683 -228.75893018258003 -0.2085742042798373
89.08250313170755 -228.69912005317138 -0.2106996049884704
89.08437346696522 -228.58480082115116 -0.21723942208580982
88.91446827030893 -228.84982070713744 -0.21474609912210996
88.99641625768525 -228.80900085800616 -0.2110906146981466
88.87482112570122 -228.8714598822154 -0.21606929932183983
88.91024138580936 -228.7614690649532 -0.21977201575823346
89.10960514207679 -227.9798930253164 -0.24962007682284804
88.78088821713523 -228.81176787033786 -0.22667809472056888
89.01782497874541 -227.9290043537406 -0.25957867616240193
87.67086958113475 -230.64361218763167 -0.200922563951192
89.46693809445128 -219.01125711324212 -0.18965545359734248
89.17653903207695 -218.93976691946813 -0.2358406796643957
89.1277238002112 -218.8954045226126 -0.24556548316998716
89.10587635286322 -218.8280678237062 -0.25283088697342326
89.1322747446147 -218.7253422196821 -0.2551733785148709
84.46758410946391 -234.15589792121844 -0.21328430635610496
84.54507051812885 -233.91952920801947 -0.22228897144767656
84.19672410275992 -233.89707565716776 -0.24666663862701332
83.98361288974246 -233.57217349174553 -0.2797462243648181
84.07869868453717 -233.4752038467691 -0.27928339376339406
86.38180486234022 -223.5998763348756 -0.19419511607573803
86.39989474033607 -223.5442409604053 -0.1981434080659843
86.4672025180389 -223.468578157839 -0.19828553597193066
86.3795779417424 -223.4430412480018 -0.21171568858982526
86.08223179938979 -224.06676062423415 -0.17718221102816445
86.2041880323819 -223.48515810499416 -0.22814891941424276
86.04665388281931 -223.97529486028006 -0.19152210418308413
85.99926313544462 -223.8703642688604 -0.20913177054477683
86.06822385017753 -223.5698208067222 -0.23491111889649807
86.11661869609941 -223.45848918820104 -0.2416698965057138
90.04478736439512 -207.02194293018027 -0.21488100602120608
86.03991960554362 -223.5934482460557 -0.23569127659007338
86.05068808847336 -223.4518998690132 -0.25013804568176123
89.95524332314189 -207.06211025965314 -0.22522369210549553
83.29102494930918 -234.3696442051763 -0.27717619623584433
83.34278643947022 -234.3284740012581 -0.2766997362113517
89.8675566788803 -207.05937834284126 -0.23448055892610786
89.80117265937803 -207.02572198314584 -0.24073869853209984
89.76150055870562 -206.9994889038495 -0.24420728419330384
89.7432461166386 -206.9446961933803 -0.2448956764686656
89.73403495924207 -206.82930603419422 -0.24304582808822328
85.24163629049251 -224.84895696809613 -0.17750573891776233
85.17009198970068 -224.7958976718067 -0.19149057782358025
85.12980768277112 -224.80432546409403 -0.19475378816439348
85.6427045881957 -218.8780025225905 -0.17296674896402653
85.88814609524009 -216.7025118427471 -0.17898385396856242
85.84877454597704 -216.67586035039008 -0.18917438185722246
85.85100711895508 -216.61798871578088 -0.18691137748223752
80.20871426239049 -238.97890572310217 -0.19163655604529617
80.29219331230473 -238.83465416675045 -0.1957376848926915
82.52227779295426 -229.32913753414968 -0.23543055843695337
82.55449230362863 -229.21898599506136 -0.24348461865715976
82.6439416512667 -228.87040059221016 -0.2708960894764565
82.69827399473955 -228.8365810984066 -0.2702965525486831
82.74609856586814 -228.74317536131142 -0.2757778810966154
82.27219425880725 -229.95802105331109 -0.1916708106832261
82.30936300746704 -229.86454968212792 -0.1984397005791272
82.37603836326014 -229.55597276881673 -0.22347259337054726
82.41382855263002 -229.5058572613423 -0.2254906233745131
82.44390521988807 -229.34046522659884 -0.2395283158623689
82.47550273488856 -229.20869608719275 -0.24971768990102494
82.57228013677327 -228.93021938856648 -0.2700365661105071
82.60510035422287 -228.85566617304815 -0.27463891757732006
79.80749138448608 -239.3251192757076 -0.19529185857547504
82.10765237245707 -229.9207969457801 -0.20583120546964628
82.19796247338382 -229.60066764994824 -0.2306544073376242
79.7419812375291 -239.2509007801029 -0.20319643428590095
79.66989893555424 -239.2360559644072 -0.2088345637491833
81.85940913024808 -229.99213314744998 -0.21475571572020158
79.5926117319896 -239.2645466265554 -0.2112576383815592
81.79635043864022 -229.86030662096508 -0.2313979950138838
81.71483033934605 -229.83470252948638 -0.23890620475631041
78.757577576621 -240.42399227871383 -0.19134042976593957
78.67931852864209 -240.43159593053355 -0.1949963210432859
78.52381026914756 -240.4159733305955 -0.20499683601675645
78.61226215120868 -240.35184266735655 -0.20415351410330795
78.45305998065929 -240.35126160970725 -0.21343917294674464
86.39168742928956 -197.11820299000118 -0.19901755058669623
86.28106257701967 -197.10941201559885 -0.20667492680742527
86.2137894193456 -197.06242466546908 -0.20939322110916136
86.1552172038104 -196.97463972020896 -0.21034228932171795
77.40279576549709 -232.77864078723272 -0.18726399310619013
77.32934765048917 -232.74435241773355 -0.1935409893732336
77.2194845219244 -232.73709622790716 -0.19901862421228533
77.12035602219655 -232.7930466592026 -0.19802714436650626
76.9359951638802 -223.9241022384085 -0.18980904992190095
76.91366269160653 -223.88907273703688 -0.1944920176097611
76.87162826171632 -223.83713027373213 -0.20084688144945462
76.75131375527326 -223.83446355143613 -0.19544788671066482
76.81331827387655 -223.82387343889877 -0.2001506014124157
76.71481365923295 -223.83674312780096 -0.1931978561158585
76.63956270216224 -215.89714756006143 -0.23695935145221725
76.64608743336548 -215.83527021757942 -0.23426444335756824
76.63356469329992 -215.7653348437013 -0.22742299702482782
68.0193785123716 -250.07550520680508 -0.20410814898018592
67.63797907523306 -250.04270963539238 -0.22480748023621278
75.34742113192439 -217.21925491234478 -0.2566783448054377
75.3623335943726 -217.1645360509203 -0.2596505680461676
75.38426952408146 -217.09942036434796 -0.2637581440230701
75.25525815211151 -217.29909532457563 -0.2403123842150594
75.29440829252458 -217.2580910423212 -0.24738473916196502
75.36650347044679 -217.03895646299645 -0.2610650910547909
75.34175828653837 -216.97706768838563 -0.2571066942151732
75.19768062482622 -217.3148804716066 -0.23044608284108614
75.3747658144273 -216.52641298809175 -0.2599610958137897
75.3601242472062 -216.4874933698472 -0.2570463456909151
75.3949998312358 -216.21915655604022 -0.25773414788367566
75.40743976517183 -216.19807124991058 -0.25923694606245373
75.26202820386591 -216.40127257783288 -0.23978697714662567
75.3699613241654 -216.13825709249213 -0.2517850405771054
75.07435704398429 -216.89134834747878 -0.2127413068458477
75.08375265592295 -216.6258657145085 -0.21333251280586762
75.15101159663232 -216.5063843336657 -0.22317068075988522
75.18744674332511 -216.26902263208785 -0.22536468577111868
75.23204756086366 -216.22050909410225 -0.23156262569968344
75.28396731427463 -216.06225595110027 -0.23610989534049787
67.00040277079938 -249.9677608921995 -0.26169340704452004
75.01014904025281 -216.84253317055135 -0.2020824568805928
75.0107075496613 -216.78191936160127 -0.20207328229725263
75.07527706581892 -216.57378517067943 -0.2114793877649872
75.04199306546764 -216.516562832082 -0.20546101974876474
75.06528583071474 -216.37338759301718 -0.20738761683372586
75.08266120078433 -216.30264265842715 -0.20903387160000486
66.13424081419959 -251.52717251747313 -0.21496880795575368
65.26634320270954 -218.54627895001605 -0.2654940232425642
64.95651958705096 -218.67035410440636 -0.24025764561349883
64.66456229556528 -218.259520994645 -0.23949811319069014
64.31820646636652 -218.62849064590955 -0.20147955943544704
50.90308007801719 -237.88934442801641 -0.2878653988992237
50.912018710385084 -237.73256137498447 -0.298023336747383
45.33124956458741 -239.52842871645083 -0.2172336281591074
45.21270637243293 -239.4251465947101 -0.22396033877245158
45.168221834430774 -238.11598436290492 -0.30418398805311275
38.41126745214987 -242.89315701513655 -0.25712399200237024
88.35554745019014 -230.80112377015345 -0.14250880125841014
88.4247662898227 -230.7195798136107 -0.14226687288031048
88.10707086943219 -231.32751857715326 -0.13006189110782196
88.14800044466273 -231.23443571591466 -0.13236481029092917
88.187313297969 -231.1395366072982 -0.13489352661581977
88.23383189720722 -231.0616866771185 -0.13628860090629602
88.30433378727096 -230.80981249985874 -0.14606343482819373
87.9441327468764 -231.58963100792127 -0.12597131979262133
87.99550293887263 -231.51517441907276 -0.1268669383178389
88.0695464614641 -231.367668023352 -0.13000440979859174
88.19517760657274 -230.8165976675969 -0.1534753574754184
88.19208354147513 -230.6995316781222 -0.16012128282392224
88.2414352435121 -230.4784032028174 -0.169763793804788
87.75934608482532 -231.94355692082607 -0.11839252997044958
87.79232886583841 -231.8877360653536 -0.11972702764731924
87.83817333437155 -231.7997429755078 -0.12140930661516536
87.88363394178708 -231.70936585092176 -0.12327159261994858
87.91202416435478 -231.64606886808218 -0.1253510350546443
87.597186417946 -232.24669096656876 -0.11247836772959885
87.64377901346914 -232.15365218386813 -0.11442808410583893
87.69505357047433 -232.06690095179508 -0.11570272516003977
87.72442905710076 -231.99786194180544 -0.11808434833965498
87.38812732842112 -232.59974410283763 -0.10642792163503922
87.44627084773394 -232.5232125865858 -0.10664716911704408
87.49571323863557 -232.4261184243653 -0.1086720662898557
87.54341553634481 -232.3281503226453 -0.1112763478716321
87.25068958180248 -232.85739126155153 -0.10089478599422419
87.28884573765878 -232.8003657438731 -0.10116426502356002
87.33888495644406 -232.700118774518 -0.10377067141026508
87.03110642494123 -233.22778315221512 -0.09437881034082563
87.08996995592588 -233.1466066777967 -0.09485049507907384
87.14605196721247 -233.0554081517319 -0.09610363557119661
87.17560480489213 -232.9745785248935 -0.09922782369138905
87.21028855617672 -232.90650160288482 -0.10040258297366411
86.8467470534048 -233.5667940461571 -0.08671759578669636
86.88548026437324 -233.5034254368915 -0.0882142026871211
86.92342202006273 -233.43588080046527 -0.08914229831207332
86.97929314723548 -233.33661187808275 -0.09134263883628524
86.73735881790213 -233.7912577280817 -0.08143728234713743
86.7751895853661 -233.7182881104797 -0.08270180899220825
86.81108146713856 -233.64367420291313 -0.08506889579875221
86.95862713897093 -223.9641751132248 -0.08452652467255084
83.72223095594913 -236.8853186038347 -0.09884527897295037
86.59390350595972 -224.4383108777577 -0.07531621341901107
86.32662841744525 -224.64562178693126 -0.08274144192235933
86.35213254142644 -224.55888897196962 -0.08974586893410885
86.4889041236356 -224.34712274444726 -0.09809964540993654
86.28498576634092 -224.68360514098782 -0.0829815010245969
86.22988366735021 -224.65206004284735 -0.09309213727851207
86.14772247077626 -224.5790897206652 -0.11063794832802376
86.22262346165888 -224.30654483305983 -0.13341586645127723
86.07772932461408 -224.57281127656435 -0.11947759657288648
86.00641999106944 -224.6144141132267 -0.12266127296259821
86.00376235717769 -224.46194742397188 -0.14047746310935283
85.26998011679294 -224.84749929339506 -0.17491509391745974
85.30312497935222 -224.82432890673215 -0.17412769689586605
85.23139723820574 -223.67146429432975 -0.08521640805008812
86.7681164193757 -217.2182205258433 -0.12176077862043622
85.13964921323938 -223.69839173277762 -0.09307016935594992
85.17986163634968 -223.67707695983262 -0.09105445095019293
86.68702340737285 -217.19845361489413 -0.1424404251647169
86.6851465252059 -217.16322610644477 -0.14348033390026704
84.93586146615391 -223.96968489213953 -0.07792510946652964
84.96734182640922 -223.88477915134214 -0.08690895380922936
85.00935954827173 -223.79523377394483 -0.09515375923691471
85.06910495514481 -223.71459557053106 -0.09967171439613165
86.67388829360124 -217.11110063023094 -0.14711525590790697
84.93368130492293 -223.91706949114982 -0.0863392634771607
85.81654338191257 -218.99953852483097 -0.1109542223397062
83.0003315952261 -230.1493644674918 -0.1251044779199828
85.66683401602057 -218.9253326550843 -0.1613214103426388
85.68597004012148 -218.83586399557905 -0.1645607942573606
80.35332940752129 -239.04085831785312 -0.17924228801665776
79.94105977861688 -240.4346140757596 -0.12027807616906094
79.86635317300119 -240.38051721576292 -0.1284656441571954
79.78020808942294 -240.46940315683392 -0.12778963024549306
82.1640355771129 -230.37695559995785 -0.1590544222327408
82.076036552157 -230.3838666782922 -0.16401325109953624
81.97036311500196 -230.46416909340067 -0.16293104931504887
81.90584895506636 -230.39567971681004 -0.17367379239133096
79.27127439469825 -240.80938011433435 -0.13761910540882893
79.3567681063041 -240.75817557753876 -0.13611844178372667
79.1879532310715 -240.82843161394666 -0.14187866469449273
79.11725108068923 -240.74807003979407 -0.15037852003334873
79.03756592432389 -240.7368265587062 -0.15621096504603127
78.87904207770237 -240.40947680881214 -0.18487937765352602
77.43993154831595 -232.8434525005802 -0.17933537901122798
70.92639670882153 -249.1320453873095 -0.10850073895109635
76.93341478782659 -224.0099612354434 -0.17571313119951482
70.4980280485011 -249.64458864712873 -0.10109086050631877
70.29631901756036 -249.51265188252904 -0.11937627681764096
70.16476836140635 -249.53266963803998 -0.12454063719434005
69.91098632953677 -249.87362623407313 -0.11845083580958371
69.78907336879493 -249.862218765779 -0.12491700406217765
69.73840187644646 -249.65942416735368 -0.1399160805111117
69.52484734767454 -249.8859902443158 -0.1372691149751164
69.51459352760808 -249.58220515769827 -0.15600865200650915
69.54555985058991 -249.19097866355474 -0.17662608138809688
68.08287230260873 -250.23941603703574 -0.19088432676791212
76.0950351869654 -215.9128437247656 -0.13625231562874784
76.11869399596233 -215.79640619659196 -0.13431199764382185
76.133695234353 -215.73450841568516 -0.13350250537108255
67.46214557178138 -251.0521373562015 -0.17546679075300564
66.77250504550904 -251.6817080328735 -0.17460661885133177
66.65151611182685 -251.63853830832915 -0.18263669880721634
68.94360552474186 -217.18332542596184 -0.09700130572422716
68.99158831720372 -217.00637365870705 -0.10672690754793579
68.81001324582822 -217.12672126334667 -0.08546596319283983
68.84702615236442 -217.06266941127572 -0.0909457261330513
68.77079715361323 -216.80139264131677 -0.0904227527533994
68.80162992948588 -216.73541695734218 -0.09503697991538296
68.84067233587128 -216.6706287725423 -0.10037582328059158
68.85832922285957 -216.53665883888635 -0.10519202795235127
68.71833819565552 -216.88844417329318 -0.0830576439065569
57.52467504174338 -259.95646309947807 -0.1561707191217876
57.27967727485051 -260.0500651312848 -0.16196416249524614
56.24368165857321 -260.47321957600286 -0.18727592180427677
56.0109942540813 -260.51966847216727 -0.19622114513436295
55.692448931464426 -260.700304875776 -0.20048638504947047
66.88166851295621 -199.07860412299536 -0.08154899163747653
66.94930087269357 -199.02844447332996 -0.08017931313136173
45.352755554720964 -239.68664197783497 -0.20702608436927394
43.95025800760368 -241.22850537221896 -0.11853906696694505
46.93451180741239 -223.1851914292817 -0.1001664557472357
46.90305305015285 -222.81725805242047 -0.11865792994742552
46.8988024092581 -222.69418727806868 -0.12513222294020143
97.28620453403106 -208.73792937477188 0.001018951818648528
97.16337269648179 -208.73511647437292 -0.011281588258031272
95.29213584134276 -216.2027024084208 0.02820059210335324
97.09849658813474 -208.69767777963855 -0.018615257476692237
97.06752371246498 -208.64337261109625 -0.022807273031085318
98.61896322346837 -202.4878785562226 0.02649647872865324
97.03869156358877 -208.58925256621814 -0.02686851291490222
97.00418934745032 -208.4964353176648 -0.03220812536268003
98.48273513923208 -202.50538653829122 0.014149823639066472
98.47760714161694 -202.4005162871134 0.012304053049992492
94.8707264612275 -216.93962098179557 0.016714235467687244
96.99730504934368 -208.38842710833183 -0.03508677782117098
98.43087406394447 -202.3333359286664 0.007271561859010234
98.38448790937937 -202.26700942320264 0.0020938069593130493
94.57054158510405 -217.7806324442022 0.02557908864631897
94.63673863279482 -217.57595404379933 0.02249090600336401
94.80336638747279 -216.99337638093297 0.012078907363294755
98.3388771164658 -202.19606876128006 -0.0028462189073292787
94.38106946568752 -218.09795852662114 0.021405605003753214
98.23906856961159 -202.1787179695248 -0.012358671181474712
98.28249798626476 -202.02260435369206 -0.010032232090880555
94.26028182710863 -218.27424550305426 0.01750480012910427
94.3368906874706 -218.18653915928508 0.021227786473506427
94.39453778175289 -217.96447252338905 0.01584285809349617
94.01727403594 -218.96448629717779 0.02846042708971419
94.04538996500817 -218.66080701136653 0.014730870998679091
94.15422850339549 -218.31659726377802 0.00809672155225738
94.21721638378168 -218.22982268416774 0.010369622214261298
94.22789457176175 -218.14230760919162 0.0069394336611499075
93.9549783079012 -218.91616312983973 0.018907803942566526
93.94334228601141 -218.8499949011592 0.01403351397099506
93.9702829470663 -218.76532164897225 0.0123101335174296
94.00544339332671 -218.57303473078784 0.005622978572698223
94.03968476579327 -218.44491857071608 0.0025568199694949723
94.02256614780461 -218.3797236892959 -0.0028369330057482767
93.57821975154087 -219.71402427569006 0.02354102721994078
93.62855529612749 -219.4854909925992 0.015646730364760053
93.6787526164795 -219.44895356668167 0.019076888489935717
93.86248296664499 -218.69628341548542 -0.0031532098005913056
93.9052547571901 -218.4842787026736 -0.010067743122144979
93.52276388446771 -219.64262726959234 0.013297190467851605
93.57132286674761 -219.58454087364174 0.015223727135188048
93.58793197412082 -219.52334124674982 0.013513276015334252
93.78447836206317 -218.523625202775 -0.021006212220028964
98.8896924742514 -196.9001628123226 -0.001000679899020085
86.69817254953283 -233.85812777129362 -0.07974461507654329
86.49921296971586 -234.2112059504664 -0.07295047252799236
86.54240967078448 -234.14829850061923 -0.07327279668915887
86.58330851993352 -234.08174676300263 -0.07484928845358452
86.6188624694986 -233.99573708285365 -0.07705253088524744
86.6559333128481 -233.9195075661812 -0.07945424920526523
86.30247349406187 -234.59568967938912 -0.06319988016640421
86.34045266242407 -234.52085482424798 -0.06547606136888007
86.3826964847108 -234.4383686671428 -0.06704816670699909
86.42539680485895 -234.36174913611296 -0.06914136301313989
86.46253998830939 -234.28442468362968 -0.07070313076168322
86.13687366633984 -234.90917114908584 -0.05587275982843942
86.1800796698018 -234.8296283694353 -0.05812801634614839
86.24007000090134 -234.70079460494253 -0.06145874844321675
85.92081008515736 -235.30978620135318 -0.04718586947600212
85.96553919881995 -235.22890160754216 -0.048500006478576996
86.00640154201085 -235.13850228090868 -0.05157123112981976
86.0481613594803 -235.05583582420036 -0.05317690612178838
86.09088481117065 -234.98305306385052 -0.0550520188623409
85.73653722163156 -235.63640522647913 -0.0401657637255306
85.78474952369041 -235.55560335377393 -0.04126160541724855
85.8543098986316 -235.43358863499114 -0.04407984668421294
85.55711590547207 -235.97876841290662 -0.03188006673558008
85.60163850817682 -235.8853884912855 -0.033962342839663595
85.65092836800365 -235.82141735879492 -0.0349272979584514
85.69514981105023 -235.7317481455784 -0.03681162430430929
85.41253170338109 -236.2516339021519 -0.02478430698750822
85.46252474705335 -236.15784061115215 -0.02754045933137661
85.50985471548022 -236.06432047541858 -0.02946941167174333
85.21607641856907 -236.5993666187601 -0.01717406114645903
85.26561611455777 -236.5086508940823 -0.01977871635700268
85.31213839768728 -236.41622233934902 -0.021677338702387194
85.35657036884444 -236.3219873570776 -0.024794920849818824
85.00959363782982 -236.96961150933717 -0.008767223731795948
85.13625076338722 -236.71678016016023 -0.015717778002311444
84.89324361641214 -237.10089299021305 -0.008612582871551533
84.81399421515457 -237.03722894438636 -0.018163739277922808
89.07294081761697 -218.91966561038961 0.010498977925190056
89.08793164482027 -218.6991620178226 -0.0009340721658923634
84.40801198104963 -238.02811199966877 0.014345380696934251
89.0253671395388 -218.87599271603068 -0.0008773154953216622
89.02958955781865 -218.81173715913346 -0.004290475002634908
89.04825286394153 -218.73510299849306 -0.0057971276615429446
84.66425385389648 -236.5137443945896 -0.058866667783916915
84.27943454698521 -237.59031752359266 -0.019762315409707076
84.01787888719274 -237.71551477015538 -0.029357216297484
84.12418056589587 -236.92035545357663 -0.0705303149964196
83.89221606006481 -237.5029983412202 -0.0505474655597562
84.03120386368964 -236.9812656919577 -0.07270838736648177
87.03771698677325 -223.9899988420267 -0.07196816691200403
82.94002025760774 -239.53631126652786 0.009963007299652604
83.11446831121589 -238.7253432093199 -0.02716975962472934
82.83935227045846 -239.02615855765322 -0.026552846691121346
86.36046923413852 -223.29941765489278 0.017941882417575217
86.29531412430265 -223.29858528969066 0.008465595068185783
86.15984801995313 -223.55807986706583 0.024880191599307322
86.14985714352464 -223.50796600771972 0.016311472366757007
81.97409969010756 -240.29492748946657 -0.0046024721659723156
81.81883948224001 -240.45799121056166 -0.00444816618172017
81.89438964114744 -240.38164150807575 -0.004846579273303009
81.7415897391021 -240.5181766758307 -0.006134486530285255
85.41102028437598 -223.76031810621836 -0.04856453447544773
85.33778805628943 -223.71187257002984 -0.0653777830795903
85.28780761260596 -223.69731450205606 -0.07414516917259562
84.93264368418707 -224.60414388148723 0.018471623532780423
84.95591759053748 -224.05721801800402 -0.06236323113292319
85.19013107482222 -222.96670399873136 0.021397719909339585
85.13355580399777 -222.81539367225594 -0.013832781608898781
85.16134394382175 -222.7053345940882 -0.02832002244382581
85.13495013811706 -222.69840847778454 -0.03375703356529702
82.25046886868083 -228.24010143901228 0.0008766114054512553
82.21058831529021 -228.14692628096088 -0.014204753699255557
74.94371867129617 -247.03985498760238 -0.01414951155171229
74.82687299567512 -247.07183364580095 -0.018176926234388935
74.77261580972333 -246.84113680837442 -0.03541425702247647
74.74139255995563 -246.54977878003356 -0.05388862845551268
74.63109174747603 -246.5740546074029 -0.05911522753588749
74.54133557188001 -246.50212239405093 -0.06777757790646732
74.43686127748603 -246.48385619782587 -0.07514264986749808
74.30340832690159 -246.6000427010195 -0.0750812288166669
74.11926777671121 -246.89682826865527 -0.06819423239389
74.06437791429428 -246.70239144755254 -0.08216388252382223
71.67982114778371 -249.40660375210112 -0.05182358992259184
71.5463672090385 -249.4413545054752 -0.057478305446207356
71.38764413014208 -249.5556268139327 -0.058661975685072365
71.4277355629906 -249.06803722682284 -0.08568635310354389
71.1967971748461 -249.39543077135335 -0.07819410646054936
70.95560021074363 -249.74011973799915 -0.0713460314876535
71.00656476247653 -249.2464004926148 -0.0970171878675794
70.54668948954975 -249.86099386134416 -0.08531688383674352
70.21258579509174 -250.0901461660687 -0.08948787045305195
75.75154582807608 -224.55056765016056 -0.030898570929455582
75.66909534692849 -224.59287758546463 -0.019951533182288816
75.38013150012796 -224.48848057864458 -0.01971747826210324
73.56914553053632 -226.20867102269938 -0.06290022022450037
73.50236172239585 -226.16195642892694 -0.06643392981505025
73.48876798397657 -226.11973669555812 -0.0713051722193454
76.06517410977693 -214.9380221600963 -0.06352694456323049
75.34430938344467 -217.2320178535002 -0.018875516653664492
75.37306261178377 -217.1791002724405 -0.024931888211086495
75.38335063541096 -217.10101806053598 -0.027156669824461632
75.22964843050546 -217.30867055121186 0.005046299087642314
75.30791157534445 -217.27288349733573 -0.011182665549497317
75.37692155621234 -217.04249258827667 -0.02580696525115367
75.33616188225602 -216.98967433574128 -0.017411038236264886
73.11269229475636 -226.0851365490369 -0.06202747365687333
75.27269429556034 -216.94303175712145 -0.004397645241326353
75.2557752425125 -216.81055298426037 1.9561989161420712e-05
75.29572496311103 -216.771388187357 -0.007570274195210391
75.16548147100593 -216.8750090783397 0.017628658494817984
75.18346472479912 -216.8431551799808 0.014259451060976147
65.98044624214434 -254.1091038177789 -0.0747332804351879
64.82849571680819 -255.3227703772697 -0.06294112821622999
64.71314174231009 -255.2328540286406 -0.07329327816484787
72.46332997991618 -218.9697864034019 -0.03663744895377996
72.39513241767024 -218.9105303774384 -0.030985280437315632
70.60185765855651 -197.65311808852528 -0.04521505642351764
70.65410039027597 -197.57692906124 -0.0408916056800257
70.68215665179768 -197.45747266432596 -0.033474913480387336
70.4868401286701 -197.78254686178505 -0.052649105340472735
70.54995656941553 -197.72708124124952 -0.049698278855387024
70.41706389547878 -197.823686816452 -0.054994296097276685
70.29318961537072 -197.84883167341516 -0.055813356194115205
70.14491480516214 -197.8310323201518 -0.05386085283796538
70.02003565752304 -197.77384935067084 -0.04986371736521744
66.93549477214556 -198.73638470248844 -0.06498168386048064
61.074342990149724 -218.5674216053185 0.0021777449877520283
61.15580366473172 -217.77321778088333 -0.03593298360876851
61.06526039846273 -217.69959856816263 -0.03295436064060753
60.65978208476198 -217.61678019006294 -0.010416275857615398
62.676653514408216 -200.95766678581418 -0.04990778573119048
62.426602264275814 -201.3255942633631 -0.05443672937089539
62.46101507671764 -201.2373041762712 -0.05258326145169878
62.35792810462843 -201.5032773717954 -0.058226205160275546
62.37125283103493 -201.3956875149472 -0.05501034007445882
68.88823802645771 -173.3108017047376 -0.05284375587606083
44.20939263328185 -241.61626481623185 -0.09290298559556076
43.60558077028754 -242.9320135002434 -0.012693725326472949
47.69478721743381 -224.6634126041201 -0.03896742140945264
47.656480619621725 -224.5475850618011 -0.044698179724615095
47.57493395111053 -223.82671690775618 -0.08296398177085273
47.52523143593622 -223.71005139379076 -0.08788795913426761
47.3249990098173 -223.99133620349934 -0.06684252529100321
47.03463836988122 -225.03614009340106 0.0003615206967171325
46.99105434260356 -224.17155170536088 -0.04779875964607916
47.11234485611908 -223.4019627111227 -0.09343989012321607
46.742119567118614 -224.33700719528773 -0.03158676162407703
46.57735471496607 -224.49351242461532 -0.01842392725781572
41.88248772619613 -242.6824767832845 -0.03943810949439963
46.45092181259338 -223.62432027208195 -0.06297549525547064
41.93835784803354 -242.0831682411584 -0.07634636069050038
46.30311747468111 -223.77725702372388 -0.05070498514040489
46.24409145462484 -223.15875694745804 -0.0822664180424455
45.9196536260538 -223.4552399415777 -0.057419523866983235
97.82368062251041 -211.0684428701495 0.11379346229675225
98.05514882122544 -210.12873988795573 0.1121313686070049
97.76979295908424 -210.9559155932755 0.10505478378984212
97.0232469580022 -213.56063286504704 0.10832026876719825
97.62749058400041 -211.08759099485795 0.0939928058907693
97.79131208671208 -210.3294440373256 0.09028185586996718
96.80165887200407 -213.96835137862286 0.0992702035222861
96.84677622694872 -213.89937910921006 0.10158844334358008
96.87826396581855 -213.6605286801962 0.09644668451354721
97.69620836427603 -210.51400476175985 0.08539306576444661
96.32735727766322 -215.9215006045613 0.127761806030946
96.68281649489734 -214.11682471496394 0.09201181136614789
96.76162419597317 -213.86842831150727 0.0914215599544046
96.85427851017347 -213.4962588602267 0.08816997627349199
97.59954007966797 -210.49175791924247 0.0749009250441286
