ply
format ascii 1.0
element vertex 831
property float x
property float y
property float z
end_header
100.32557069103322 -208.72773537734548 0.0617102435235678
100.36120620700991 -208.66012465705634 0.06624129512833576
100.41255539884193 -208.56390010070635 0.07286508599220665
100.45194863074177 -208.47349566344846 0.07828454649314798
100.49409778978576 -208.2118340273858 0.08676160025646917
101.05203102288237 -205.80539646747 0.0015645504007706368
101.09033610730955 -205.78135686051465 0.005805101806197532
101.22122078326403 -205.44697136281192 0.032550053924247146
101.18135670190416 -205.34567189892826 0.03448378473549374
101.25729541773924 -204.95568146773755 0.060865048878190886
100.11664526794787 -209.07273467035188 0.037047543539146965
100.14823684297262 -209.01531122948893 0.04064670867982423
100.20546142531978 -208.92247255781743 0.04728838198320029
100.24663707583035 -208.84753280588183 0.05220146232167433
100.28850630844666 -208.77095782426653 0.05732294109497249
99.93952050357217 -209.35563023866385 0.017817534769485666
99.98079553227974 -209.29230601750757 0.022165419540137177
100.03786735352907 -209.201567768298 0.02828578675802329
100.08265017597388 -209.11562314071392 0.03326909663825506
99.9199446225328 -209.38123517311027 0.01576561010430666
100.2186241002614 -207.9996744948242 0.059938597848477326
100.88925042060731 -205.44093443646375 0.006548340195446589
100.28072116818677 -207.31729482490877 0.08240560083841442
101.04929939691304 -204.11963705495396 0.09204038021514194
100.10143869517441 -207.63146112997703 0.05431003599590323
100.11942084169368 -207.5751681451629 0.05763546911371897
100.14380440381518 -207.4792220275534 0.06266615018063693
100.16270003112268 -207.36127116403964 0.06788514642840182
100.31009421721888 -206.90138616601524 0.09840683820114693
99.91854504989465 -207.80281995524453 0.030362471817612313
99.99604348372628 -207.6445426215465 0.04225374705452123
100.13561126210024 -207.1766300093126 0.06991538091864802
99.99484667908223 -207.20075409530537 0.053257978410257034
100.13503922197883 -206.5116584798442 0.09260571856091127
100.15866395274782 -206.47404400843413 0.09676767434148426
100.67495760411401 -203.6369884557666 0.09334868878409852
98.56282375810757 -209.91009851021144 0.0768665300696173
98.38379919057203 -210.29785650285461 0.07014277804327096
98.45986639356481 -209.94170317304304 0.06559046090525023
98.55551266931525 -209.7787212805303 0.07156083057365936
98.29195324330628 -210.51266940110702 0.06860381776123492
98.3621209242005 -210.09374916000974 0.05957563611218586
98.44861738952166 -209.90446426608904 0.0628615722105702
98.4506718503112 -209.84258502038352 0.06098390525583175
98.48836790869183 -209.76738731762498 0.06306349157012014
97.77426644492255 -211.90636337588035 0.08685329896310556
98.09113478116059 -210.79873059873458 0.059772348873517234
98.13726827533397 -210.39145038674474 0.04607700540394788
98.27783389731549 -210.21189847600564 0.05441768002211189
98.32851850588327 -209.99402151210833 0.05180876859299255
98.3103508346333 -209.89912539609497 0.04617742778384559
98.32679764873436 -209.83933205240055 0.04593043926120266
97.77766312474382 -211.68582207694539 0.07474102041313557
98.02813890330037 -210.68395222115947 0.04753474504535904
98.12024738562732 -210.40077132264474 0.04465844247175288
98.16916888598652 -209.9777062527709 0.03254609460559876
98.00130125374538 -210.3021805640603 0.02710085570191334
98.02924941500066 -210.01926475425768 0.01813189822755512
98.11223608304707 -209.9525352504238 0.02497311118123502
97.36350672624002 -212.33359687287287 0.07652684164061607
97.61923826755044 -211.4140636295387 0.044565908728150694
97.64636298262053 -211.29797175685928 0.04065987538495097
97.82362264529775 -210.58858155144443 0.021348362087901473
97.82811768194766 -210.5003062831294 0.017542952007787993
97.89965483582439 -210.3668437992868 0.018943090834180665
97.9000863675589 -210.2365346874062 0.013019498703801147
97.93111909212215 -210.06725356988747 0.00905081519453943
97.95446764201895 -210.01506642792702 0.009436046014498323
98.01624613663566 -209.9663783380513 0.01444563759540185
97.11747689179755 -212.89321129118707 0.09264733177332884
97.20393465704196 -212.46075065121863 0.07160127036425967
97.2410739403129 -212.4318248788755 0.07274068226022112
97.31901420383615 -212.32109761271974 0.0720488240027568
97.26613768300754 -212.2575104932107 0.06384387283995574
97.57467198048839 -211.25756997129022 0.03168768782035536
97.67512810890557 -210.72144012679195 0.012677610126373695
97.73363868613028 -210.60167733997574 0.01264601055522574
97.78019436951892 -210.48306435257226 0.011618417235909284
97.77276468392085 -210.25061901672544 -0.0001879151088368669
97.79823611927712 -210.18265208872486 -0.0005688589062993188
97.04819409251549 -212.88482146237482 0.08687848385526753
97.09566126346442 -212.7649866139182 0.08260103905556104
97.16291845420267 -212.40308342415182 0.06465427882684138
97.43326977051981 -211.37858141943585 0.025352089603134065
97.47120258260342 -211.24005599549128 0.021007221243934726
97.53877604978676 -211.11875030961903 0.020577603368069353
97.52324374846903 -210.9234265999462 0.008348914165244858
97.57031120772213 -210.7326075738375 0.0028011520553249403
97.61384900543105 -210.63187801725374 0.0019389429342449027
97.62137915187009 -210.54519430126166 -0.0017262384119678398
97.68520811845733 -210.47701161477656 0.0013801460459064163
96.81626382354695 -213.24448358669773 0.09411547685905419
96.89153915483786 -213.146222503583 0.09279485680541866
96.8445322697016 -213.08427492015505 0.08526989873786306
96.96951367034659 -212.9185315107952 0.08332784694441664
96.99003413537856 -212.90266094551677 0.0837003654444134
97.07760458461264 -212.43019768145226 0.059709693307790634
97.0659685675935 -212.39937288926689 0.05684073036064963
97.35038428831135 -211.18761651139303 0.00687212813335536
97.4723947818924 -210.91534705717774 0.003006137686051513
96.71067434751069 -213.33388210626853 0.09288047751160644
96.81502121400078 -212.69218866933886 0.05712528442245879
97.31785059831364 -207.9378012808017 0.09274394183058365
97.16998323769555 -208.33576749149762 0.09208390692981594
97.14637096395481 -208.2794571274559 0.08357440980837572
97.18603137398655 -208.02941032973314 0.07326157697299529
97.24343883942652 -207.98219660192245 0.0811619988012734
97.12785373171117 -208.22103841747568 0.07585888099934002
97.12764219842875 -208.15774177194405 0.07122334667873798
97.14920862010408 -208.07047568833778 0.06912291447418595
94.37180305778922 -218.57479001353718 0.015092652975374987
94.33338750073425 -218.38007611817542 0.0057247429562748975
94.12549928004928 -218.2595623681147 -0.0036707231980918076
94.17043006240404 -218.1852716538761 -0.006084789441687555
98.87630750275432 -199.1931846268581 0.03360187996139985
94.05949144699518 -218.34568492104893 -0.0011592994060452
98.84458947308615 -199.19015358176128 0.03256066393436785
98.82687069642817 -199.1074721986987 0.03683135242540292
98.87187246456175 -199.0319631717315 0.04280578198971119
98.73873219521029 -199.0871094366098 0.034802638824142584
93.59323099479514 -219.1384498534983 0.025436088298952053
93.78594386141282 -218.3331964502229 -0.006545289194082149
93.85170644104436 -218.28438222796854 -0.0075719526744636445
98.64321032821306 -199.08050404479735 0.03178576481297024
93.43094228464902 -219.46577782475717 0.03723148616598515
93.47791564980297 -219.4477688288254 0.037126892649455456
93.5628104413236 -218.96364681846194 0.01736357257077148
98.553227807779 -199.03599682251811 0.031173590644712035
93.30925650605504 -219.4794547876435 0.0360369451563024
93.38698138566143 -219.4115934186878 0.03419089974796552
98.49650259918229 -198.9295130656646 0.03540709555558119
93.23895569073339 -219.49350941122762 0.03567808669775785
93.64914777865302 -213.36007387227093 0.02990053961789174
93.62252596253602 -213.2809635628214 0.023584477181348373
93.59257184510031 -213.22134258365963 0.01878581289222514
93.54807361301687 -213.18646272467703 0.01585723184109955
93.4674457540992 -213.14894491011253 0.012657169479818653
93.32916443406957 -213.1618759801761 0.013381683891715679
93.38152682607888 -213.14360753538963 0.012046129696942187
93.21568056925332 -213.22749406350192 0.018429154950502014
93.27235090847547 -213.19314156033502 0.01577730640057462
93.14584045275889 -213.3212350575899 0.025695487185532606
93.18153939123964 -213.2735918339086 0.022006933729343814
92.13795080198734 -203.89338218169118 0.04442115785787004
92.15945544686306 -203.83223162843979 0.051764369239450714
92.17755680757038 -203.74574687916024 0.06349611717632042
92.1840721007274 -203.67071161606333 0.07464140022830468
92.03590438858292 -203.9599964201151 0.04406188646505005
92.09449506944556 -203.93313875792163 0.042503958610950576
92.16838000527234 -203.7067999197281 0.07034030494220578
92.14919157993873 -203.61684043456097 0.08609028955975684
91.96811794242642 -203.96513746808918 0.049825318714779576
91.86343564705697 -203.94156822730392 0.06342547608792615
91.80361830115713 -203.92528327334904 0.07163706065254072
90.22541871678604 -206.5730459555713 0.049088221897302664
90.09893734332776 -206.67899017260072 0.0631802829007736
90.17682204978698 -206.63193830771377 0.05399341834983129
90.22516353305772 -206.5183619327853 0.05069594280916656
90.22486400251405 -206.4351695694037 0.05333873015855206
90.18961468618598 -206.3607099959123 0.06056791929123695
90.03167620756601 -206.7026654365284 0.07153037562903608
90.13176619282471 -206.3087133041734 0.07020756825590224
90.02572739000686 -206.26429852874037 0.08610145699156357
93.02040892911084 -182.99462196720697 0.0218154252212146
93.16886233066009 -182.71262980274298 0.033361041427902305
84.33495076019463 -216.9949502470602 0.0723985887086388
84.28859190959625 -216.97000486748658 0.07359171862061764
84.36407307223531 -216.8181454059565 0.06777372109304902
84.40904517003601 -216.62511987583906 0.062294478851349866
84.14772057825678 -215.96658327644573 0.06054013822516602
84.0779286485855 -215.5641104883308 0.05699121474568092
84.16287307580443 -215.42494785509737 0.05133921955022025
83.79607466962905 -215.4525217692179 0.06726834869763365
79.00811536508968 -163.51833014194114 0.10839544550113245
78.77130554043343 -163.33894077597765 0.10567393330586894
78.5104907922589 -163.515155272439 0.09285350729717723
78.63559551131647 -163.4085066268535 0.09964602097328767
78.28036527957764 -163.35855011567705 0.08982534035856315
65.01677094034582 -215.9550679362297 -0.011906153747490822
78.00365158967448 -163.08540902143613 0.08829769499527529
77.85982280056601 -163.16036254641023 0.08184055908870191
77.62039460851534 -162.991933468727 0.07869824901430678
77.44016595117367 -162.97711633306767 0.07345252681619818
77.07928017838543 -162.51385348712006 0.07427034387089593
76.95850442910226 -162.65309305116776 0.06680092622136258
76.79307073051537 -162.67719062907392 0.060856713886469516
61.38252710565045 -218.32505279900627 0.021847885875216022
60.940523531302965 -217.1749227340858 0.0622242930496385
60.84039538208485 -217.08024922032814 0.06729001295504466
60.783581541407216 -216.96842710520662 0.07172758722054628
51.87931632660017 -231.8283787893286 -0.02075373829699212
51.86280992958124 -231.6408919443039 -0.0174558992895103
51.714704477198865 -231.53242606679396 -0.012539705537894519
48.78982003004046 -186.2566260162258 0.07515244144786348
107.53374736740636 -189.67070702032356 0.17187000750175063
104.0978613613118 -200.5819234311641 0.1654404523937062
104.20885615442864 -200.3330436590752 0.18316782340925553
104.18513250480312 -199.89945989893124 0.20497693871801648
103.90811533047315 -200.73938866413204 0.14907342482678776
104.01397055950903 -200.3593370725851 0.17356831802841477
104.02562538317589 -200.306291844961 0.17674421180464384
103.81579526911271 -200.52823719638516 0.15623072646881575
103.84287094860542 -200.3757507339361 0.1654941464991626
103.90460898869908 -200.2700902255768 0.173608565657542
103.83552800820392 -199.96703258382422 0.18669925859015934
102.5603325438873 -204.63739980510255 0.1805215208840334
102.59967411963669 -204.5713299095428 0.18725010483298277
102.65503478774255 -204.48650487310283 0.1962228373282121
103.74486722097569 -199.98284117641302 0.1821718382749683
103.75879295342529 -199.9253464311754 0.1857112353956848
102.40043810109319 -204.94906249227057 0.1513237440585472
102.45093264138765 -204.85775319597866 0.16013528560595647
102.49027858236504 -204.7798733315352 0.16738534340044464
102.55017479155774 -204.668282162945 0.1781221390441483
102.58563374384565 -204.4581758059967 0.1922963618866551
103.72303218883778 -199.9016944390636 0.18558449730969173
103.60701529713658 -199.8437012328662 0.1837355951288474
103.47713180118069 -199.50724638779272 0.1964971306041131
103.44950637225676 -199.48062452219963 0.1966835092205883
102.10406261313429 -204.45300127430698 0.15491965364700733
102.25167040002414 -204.09190763620316 0.18691295575695643
102.28653724953291 -204.01036159654018 0.19431377533430239
102.30695423035968 -203.9175940479765 0.20139119192322796
103.05389237338956 -200.70946889797884 0.11471107504860889
103.33823649071061 -199.8019048768952 0.17491414939875827
103.38003643246405 -199.4349658492047 0.19635612624352083
102.08669666896307 -204.457092534706 0.15326059566536132
102.20219410506458 -203.77528389348626 0.20170555936066104
103.27896364562778 -199.41325963811448 0.19330607839579717
101.89743348716718 -204.42052534336554 0.14057228726646898
101.95221383914517 -204.35246166475503 0.1486992872402909
101.9714293556179 -204.25264749016418 0.15584426344372393
102.00270243256088 -204.11907595759817 0.16601219288861202
102.03220792743244 -204.02766679805887 0.17355731690527354
103.19470899401287 -199.40633771275702 0.1902707090877186
101.0372425815549 -207.44867191736114 0.16439628233658277
101.11982785938969 -207.27803152503677 0.17874159015819535
101.13289000910359 -207.22170483893547 0.18192983337153834
101.12980240909782 -207.09326109174106 0.1856081558501873
101.83967814686034 -204.35454604684526 0.13972580875772633
101.84864072758205 -204.32588201168426 0.14212227918118558
101.97474971262787 -204.07247776799213 0.16655031637474604
103.08578535694399 -199.37237001801554 0.18765953502114063
100.87947869399557 -207.71535525584855 0.13976227903414506
100.89882254333844 -207.66647949458377 0.14310960758520408
100.95692653650897 -207.57713371000102 0.15189294268348097
101.01244397379314 -207.14479451766596 0.170649559849123
103.03109103777331 -199.2971544642969 0.18948439506621606
103.00501372513233 -199.21856551875243 0.19269815966910153
103.03686860217098 -199.1150660992466 0.19959284339328442
100.66524440363601 -208.11815757613894 0.10733546637237124
100.7420688927859 -207.93410783031044 0.11944135548935553
100.82553552909783 -207.79465318913802 0.1318497339603668
100.93082699006243 -207.11113044016213 0.16235272723834737
100.6038518059316 -208.16753746355784 0.09959989807220537
100.63621358439177 -208.12082868589715 0.10404616483120777
100.90796320397264 -206.5747418602424 0.1787252013200633
101.47368949683826 -204.0340172399842 0.1299303259147313
101.41064147301661 -204.0791308658561 0.12244422727818538
100.64314930199498 -206.78133703974657 0.14068374398238082
100.66085005138025 -206.64470356626722 0.14771137710098803
100.69389791183954 -206.62619278941506 0.15226267844743369
101.30024116008289 -204.15322639175687 0.1094786003909185
100.48726730033405 -207.05934006840465 0.11349409755192497
100.50836831361201 -206.8627708590983 0.1224311299597789
100.54263327703242 -206.75476261648038 0.1301328941806118
100.57186617899094 -206.58655270615364 0.13976121721931
101.26827613904368 -203.81343992245004 0.12751275261309647
100.36201233547688 -206.9684579877563 0.10216765904725877
100.37766412378912 -206.91606527199284 0.10565733567824309
100.54386645556428 -206.36713363890198 0.14537793335590232
100.68172250100983 -205.62726174609327 0.19623860645230928
99.38416151526418 -210.36121386516572 0.1918384289649533
99.41809868343135 -210.29007857507932 0.1935628486426525
100.46175294776786 -206.0797966706414 0.14852779417175954
100.65452947894694 -205.53143904642099 0.1982302325657448
100.62110577905538 -205.4629655053928 0.19810483927308664
99.2838495647459 -210.53668194805414 0.18579644881677349
99.33953818250853 -210.43851854534222 0.18917119867611076
99.35468766197077 -210.39395598154877 0.1894163803651694
100.2857461439821 -206.38043338006798 0.11513967245930368
100.31017768721485 -206.32204092210497 0.12043827045554645
100.35613824130218 -206.07193756770494 0.1367515111176788
100.45809935771912 -205.73116352291004 0.16515471180267927
100.23764351758993 -206.43822791993975 0.10730658340577703
100.24921929327732 -206.25137448542907 0.11643445730697288
100.26664572012757 -206.17262711107384 0.12190623438862358
100.24473067414664 -206.06506892222848 0.12425147075370813
100.2829715672558 -205.97343607713097 0.1330196766817755
100.32059513031143 -205.86224181705958 0.14275435870240905
100.35445134281662 -205.7800034496207 0.15081334962991966
100.1556683526797 -206.27946142117358 0.10451012267644966
100.21015889457072 -206.17301537525003 0.11539002857882108
100.24298209047556 -206.01507676344838 0.12643516840195212
100.19383514974878 -205.92820595188746 0.12498016429921222
100.70591825303246 -203.27621572713255 0.11913201773045168
100.58544965697614 -203.26988657158873 0.11055459379571764
100.4887133690093 -203.22787302735418 0.1061816894476938
100.42477332085836 -203.18181656281428 0.10454721835536462
100.3898362266785 -203.10999447642624 0.10685554187731428
100.3969104997523 -202.9998356782297 0.11490371215111361
100.42676984957914 -202.93090995119923 0.12188553566283045
100.49000766216938 -202.86876505215113 0.1307428585196807
97.85396701177099 -212.94716100247442 0.15536650305309652
97.83998777835116 -212.88000079768358 0.15005639344855692
97.99716877281232 -212.2559636074901 0.12741413245613764
97.95806173293526 -212.13842375694463 0.1170296721337829
97.68275820623633 -212.82637700768834 0.1335046699976864
97.77555513025092 -212.34804995637748 0.11267009873701672
97.79012524693802 -212.27495199330522 0.1097215868712571
97.60430692041017 -212.71588447428934 0.12006443418958812
97.5989360985827 -212.53308606340315 0.10851808538336416
97.69895165552781 -212.40937798309093 0.1095906309940946
97.73647139818256 -212.3774490048242 0.11101943410357118
97.43880169200114 -212.76934719285174 0.10985827523484548
97.51168269071124 -212.5722822444279 0.10358901987415015
97.57594569310758 -212.54196976731367 0.1070337834705789
97.2816346205142 -213.10721634224225 0.1188631484428071
97.40347736925828 -212.68803112381477 0.10182586037134445
96.84650285384996 -214.63237050384555 0.19032958338206085
97.21181175303067 -212.99763720124042 0.10655258896228881
97.9452828273606 -210.03458970084372 0.1892417597589625
97.03883010075525 -213.30513272915343 0.11380916457773549
97.02887377372292 -213.2379548699633 0.10868647596908931
97.7370797839555 -210.41325717444246 0.18933651325380896
97.90190851986284 -210.03735692093238 0.18352294258094337
96.69100709553561 -214.1561374837135 0.14783701980259079
96.89686474406179 -213.32721733774892 0.10524651711942623
96.93138782386423 -213.18535320647422 0.09812860057609396
97.62761631370076 -210.67180286857908 0.19597202812576753
97.66612604349815 -210.59622370353722 0.19463995344717666
97.71868639933177 -210.28478447912522 0.1772088052473353
96.45546863961117 -214.8049005242865 0.17855365760572517
96.62682921704375 -214.13126574680192 0.142026398691111
96.70318600060358 -213.67691776586017 0.11569560464395545
96.81501433011492 -213.4550092275697 0.10814696068577323
96.80691684948597 -213.29982421825648 0.0971005022074588
96.8387852775748 -213.2309526610719 0.09467596851463
96.45844145283091 -214.40762156277847 0.1510435265147686
96.45718598173107 -214.27283046946425 0.1414670979593159
96.50959021438952 -214.18887796801576 0.13882997694694488
96.57394548020758 -214.15383733553182 0.14037374398929647
96.6800430448074 -213.50293782989345 0.10243221830876315
96.71431344427064 -213.3909572161552 0.09704763445506237
96.25364651388263 -214.7048617260523 0.1600868853050531
96.3538126947416 -214.5353082343874 0.15384503637505065
96.40201991765278 -214.42257773592698 0.1487807284585171
96.59326392811987 -213.53195190453138 0.0987169733806651
96.07926716005403 -214.9322224595838 0.16692036234640684
96.180568293034 -214.72262445661022 0.15739933303347353
96.24791410586212 -214.52494431766783 0.14717933102345215
96.26114673752775 -214.37362443844273 0.1372146902573479
95.90671337324012 -215.22690090995422 0.17907284376180965
96.01742887741139 -214.74668859965448 0.15038875062904955
96.09646325787156 -214.6780225939937 0.14976165875618475
96.05823061410119 -214.6322810007857 0.14438550071851963
96.30106423593384 -213.83842024669127 0.10192756468127462
95.79300481921585 -215.32973439805463 0.18093333587055138
95.91604350020572 -214.9712865394218 0.1612981653333544
95.95419757821458 -214.9168030557144 0.15937678764446028
95.9805165785806 -214.79434188897358 0.15192832861507033
99.21761073606166 -201.56139708142268 0.14090859598883965
95.66943249417703 -215.49828629085897 0.18734378916057837
95.72816894493802 -215.1894731911301 0.16783386943281853
95.81767429610579 -214.82480360047347 0.1459957384246655
99.13629595254625 -201.57906572589715 0.13429184456959042
95.76773185574967 -214.7937212970241 0.1412886155997578
97.41798219956331 -207.9399879597016 0.11224700569291901
99.02326672649987 -201.5987359852705 0.12543347137183758
97.19746977436196 -208.37370012373935 0.0999412842485986
97.36268524111757 -207.93290026389462 0.1011207326653405
98.97401605732679 -201.58569490888613 0.12339549462257915
98.9511590026014 -201.5120002311549 0.12793352302007388
97.13008045002182 -208.22500819806842 0.1941068002581997
97.22457602602483 -207.9916050887979 0.19366773924288916
98.86736663133298 -201.45490026887268 0.1273602146255315
99.05713280308727 -200.82255671871687 0.19165269006822494
99.05285924534206 -200.71003651672956 0.20093249617378806
97.12338686884344 -208.15666148333025 0.18625384936413558
97.1549364516686 -208.06320740227906 0.18455529951919947
98.80597447138139 -201.42420122120214 0.1260628811241683
98.75596185169114 -201.37874656102426 0.12674285597990553
98.7701588199436 -201.2594379555014 0.1375600985746399
98.79763349054927 -201.1734519838948 0.14646720299053007
98.99091106483792 -200.6487367442467 0.2023337248924748
98.95076749399745 -200.62101751837233 0.20227886599780154
98.88711759723395 -200.5757739697824 0.2023310411045901
92.8855566858422 -222.06425230583335 0.14246526253622727
92.63561097131438 -222.52234259529178 0.1591012194792255
92.70179462365886 -222.45178759271437 0.15690395677632363
92.77511849005803 -222.3053186132728 0.1514541000037849
92.57058605360587 -222.5788445714888 0.1607938848593996
92.55957190507272 -222.21486803661418 0.14490312619155465
93.8814081123029 -201.06510410665385 0.12706954071426724
93.92379931093215 -200.97079935046833 0.14003829027138015
93.78258782696378 -201.12922973426967 0.11731191985030398
93.84032920764795 -201.09628320523117 0.12236888560335257
93.69114480080653 -201.1280798841141 0.11647278792578353
93.60812855699498 -201.0825017092258 0.12158211665755725
93.5514823522242 -200.98504023195198 0.13369129280560899
92.13329517346747 -203.88767949603852 0.16825339496271197
92.15858289773661 -203.82999006284373 0.17554406459366412
92.18387064395 -203.75494015251894 0.18614585682703189
92.0453677557624 -203.96687664384416 0.1650903235030079
92.09613415723848 -203.9253906390059 0.16609776086159023
92.17396104285064 -203.69352873714556 0.19842266952763454
91.96487042109472 -203.96892488946887 0.17467271962828312
91.87437068557125 -203.95701275928616 0.18798739759601268
83.57657299659795 -216.9396337765589 0.10008466093575097
83.49237383533898 -216.90733095428882 0.1028189623353386
83.46693774959391 -216.82028015657895 0.10230449822495047
83.43956199354695 -216.77403085143203 0.10258694425349069
83.40338291688842 -216.73580521652204 0.10339271741907075
83.4649745457025 -216.53249239171166 0.0975166761158639
83.41854540550634 -215.9462105210912 0.09034140412974823
83.25764509008597 -216.01700532888273 0.09818617478676828
83.0446770506148 -215.99570499637844 0.10699044057257179
83.10488443675459 -215.87818645009355 0.10281319866559979
83.06125069322421 -215.5778551404183 0.10086411285890673
82.84653788157546 -216.02412626016252 0.11593999090590013
82.93628739420625 -215.87905366478304 0.11014809909074785
82.7789335874876 -215.90814490436085 0.11740597226816107
81.80929754188367 -215.13200394282245 0.15427891206325506
81.88055853725167 -214.69451762130265 0.14795937326726671
79.77166450777219 -162.8012357156095 0.1509676834839364
79.79183951401755 -162.36142494363096 0.1630715460031148
80.08059577455052 -160.6295585170488 0.21736817433160027
67.70758765168713 -209.9347113330892 0.09475819358733506
67.73400516284289 -209.78777999831868 0.09913953018293298
67.72346705459103 -209.6460749908591 0.10440569134159439
79.94924503323713 -160.76817699684491 0.2096560707171179
67.54269574779364 -210.05401325698494 0.09532476275191681
67.71357689291902 -209.55235752431113 0.10790220418812346
79.7910079623426 -160.8068654825985 0.20385479114658833
79.13779482834724 -162.90600823881772 0.12856059946427134
79.19961939371831 -162.59968197830892 0.1384833730004873
79.53518882404539 -161.08493310762242 0.18870244574762418
79.64314669473595 -160.88265226353997 0.1972610794266898
78.88708738366267 -162.69422667670943 0.12627863538319073
79.06763813255736 -161.74107379109472 0.15702901401822578
64.49914185135904 -211.12735597767164 0.1437207580049642
64.54568129345327 -211.01479728439168 0.14610300731976722
64.41352745720607 -211.2469865858729 0.14205552840054658
64.50182761402725 -210.91686054893634 0.1506716243317442
64.42657916869167 -210.82327190657912 0.15583532724045313
64.27223462814285 -210.7387448393936 0.1630626679446997
57.534681141171575 -185.23115046429297 0.19896129527454376
57.44081734325186 -185.34066427308198 0.19273696542451124
57.34214229472963 -185.44741771109335 0.1864127297260748
57.03551148054378 -185.45600023442438 0.18339811960005625
56.64388678197961 -185.4211347943803 0.18162917666526868
52.82650198425294 -184.44000505100686 0.1977780120414434
52.560755589413084 -184.4876100058067 0.1932626414690738
50.729181305198765 -184.13081160951356 0.19537539426180817
50.571818599091664 -184.24399881964706 0.18856944087162675
50.31971491029452 -184.31102009673822 0.18302945703662632
49.88037216028305 -184.462127857781 0.1719265941490108
49.98861259261809 -184.3315928723445 0.17937943356413877
105.08281085228352 -200.0989159311226 0.23238858831607356
104.96546760082153 -200.31080908006408 0.21626175067302078
104.94179889065292 -200.25358151738175 0.2182890577997706
105.0832966998274 -198.74452058193063 0.3039865979670866
104.84007124634886 -198.53358039182078 0.3050989133727049
104.14670483131268 -199.80386781240728 0.20848734869230023
102.78860429538291 -204.23196008404855 0.22078691683391494
103.02693931797292 -203.3457527545097 0.29105080306001974
102.70651340970056 -204.3874522433142 0.20572019773141648
102.50501717821761 -204.06630466659652 0.20806982663128348
102.7853329301856 -203.0060956332336 0.29357549003396133
102.46285891983406 -203.8411985738722 0.21789497247496292
102.62532048856721 -203.42138109135905 0.2555718430840659
102.65916435878393 -203.3617545252572 0.26184843372485633
102.4457191604957 -203.5728345514468 0.2326534294214576
102.51596913537816 -203.3037634165616 0.25442405198652807
102.51121298954767 -203.22474433034645 0.2589695715798188
102.5218104280003 -203.14124052035646 0.2649458079305065
102.48603093749811 -203.18679593462784 0.25944909501945534
102.23411016603993 -203.67445923823806 0.21014518370015667
102.39105052656386 -202.9406487434788 0.2676889172408332
102.4557434872648 -202.78361092875042 0.28266081114074093
102.48821863520575 -202.6916853382952 0.29109145033364836
101.32224502112196 -206.9162536329666 0.21359151389760478
102.24587665867236 -203.12624114752785 0.24488452936825922
102.27690189431908 -203.06540702724683 0.25113715496092326
102.32310819407698 -203.0001243936726 0.25882896471083994
102.41518816661751 -202.70230167581246 0.28495675283630817
100.3049407407793 -208.7336579782561 0.2800156577063452
100.35259950533498 -208.65958351387414 0.2864267737089147
100.3884868675431 -208.5689010141817 0.2912919746177629
100.42379814197427 -208.50069062558634 0.2962534392838364
101.16614020991679 -205.58069692546815 0.25408385907417264
101.22197194714974 -205.12919609704952 0.28559817060302917
101.28953191374522 -205.08225506762872 0.29599878388443457
100.14112859490112 -209.02711178559593 0.25948594717820506
100.19728020970419 -208.93375384498086 0.2663525832971544
100.24867045689395 -208.83961523967977 0.27275274548081174
100.27948629288309 -208.78193537984401 0.27672089113831233
100.9560336829602 -205.7798986717412 0.2197391065569022
101.05123313555694 -205.31785030412925 0.25533888744285627
101.11126041638423 -205.21530454546217 0.2679556113618772
101.148015559621 -205.17490058476267 0.27449993748528867
101.21593824012898 -205.05893142460332 0.28897922920889374
99.94529971008362 -209.34941789995307 0.2373075217596452
99.98274015873284 -209.28467950643122 0.24128976224711107
100.03916065002886 -209.19359004467216 0.24758751780482213
100.0839863471679 -209.10735743926904 0.25256718589182203
100.9218686112692 -205.80424819846493 0.2146529562238062
101.01886274204773 -205.32242348994825 0.2513298675804405
99.9227852479645 -209.37436711125213 0.2347457476566488
100.37304266209674 -207.52308889378077 0.29725331307973124
100.78488445020321 -205.6728186319812 0.20563241945930422
100.89991415110255 -205.40527904001038 0.2331869784529489
100.20396784208005 -207.6291676246818 0.27064415770625705
100.264559708167 -207.37423895473628 0.283963974858767
100.24496509196405 -207.32988343763824 0.28201635298611094
100.68647757165995 -205.54034825869144 0.20136064994695824
100.16013861651257 -207.44421033999672 0.2672402969607831
100.1595760644088 -207.4135117451635 0.2676920660390908
100.2721385659495 -207.15191023990724 0.29000487468026526
100.0665970856155 -207.54385655229882 0.2517982425317258
100.08132132480038 -207.2570695295425 0.25931724708243953
100.0758000708354 -207.19803406975606 0.2597454993967825
99.96967500897819 -207.31378596759694 0.2416132809026993
99.9826227964009 -207.22956216913178 0.24526011124400038
100.01088707175865 -207.16640252076678 0.25089347578132626
100.19919375420727 -206.64265353978163 0.2942548222978797
100.13306913147166 -206.56056585790702 0.2872656289937676
100.17192935443735 -206.3879681189618 0.29969100776469626
100.07941199868705 -206.59559824255018 0.2779438239973201
100.07625233090371 -206.54797382544913 0.2791754569283389
100.06075968372942 -206.12774801362642 0.29426794434683345
100.00716003308038 -206.1063350634578 0.2872228343466313
98.6694058578602 -210.10544465261086 0.29649336111865277
98.54949803902585 -210.22111057448365 0.2861257634299582
98.54869423458189 -210.16559357514967 0.28256207539017164
98.37236473089091 -210.3322455457519 0.2682380902440864
98.4375490778393 -210.22149576142778 0.270191872880149
98.44228247586133 -210.17983474527026 0.2682444178129496
98.4758950718582 -210.02753810150162 0.2635741286649138
98.52964060402648 -209.93327671912436 0.26579519375372485
98.5079609708982 -209.87510716962194 0.25917793035059566
98.32122485343334 -210.23357505747944 0.25460667692325145
98.27276256327569 -210.12667145604712 0.2408085235324534
97.9393140421275 -210.81401271006197 0.2457683172312679
98.14193751441304 -210.14763150579333 0.22395761365369382
98.1343778203022 -210.0993441116057 0.21970349940732503
97.71567863524966 -211.35569269887904 0.26309412747544425
97.79323417867553 -211.28101360803043 0.265696122983774
97.85893913567158 -210.94053525929934 0.2457202996609943
97.88689704959022 -210.67758911433276 0.22861274524861053
97.88453980855788 -210.6421773969304 0.22552536850322003
97.97326703156065 -210.38773148322957 0.2179676629206515
97.9784160564214 -210.3163530594057 0.21353820908786592
98.01110140207085 -210.24623997831978 0.21290873301052715
98.06240764530797 -210.11297497384794 0.21065159821598511
97.60735920806303 -211.35657844588584 0.250845235989855
97.63120437004744 -211.295878470424 0.24831657752368863
97.65186644931161 -211.15243788805196 0.23851211223522695
97.71436720376906 -211.11951586765898 0.24307109414547567
97.71545047920378 -210.8351164761821 0.2198617136078721
97.84934104872124 -210.65872104644868 0.22235555259942663
97.8470152648043 -210.52875789733307 0.2120848355044247
97.85240432496428 -210.3697375112083 0.20085447626125685
97.89793082225023 -210.32386159294313 0.20344048538560833
97.5493936984076 -211.44351339698102 0.2519047118675929
97.5261723847791 -211.3388734119493 0.24024269149111188
97.54042480200738 -211.3017759235977 0.23863968508825395
97.5988117685294 -211.12490056885733 0.23003247644128988
97.63669675639254 -211.0704770027811 0.22989529377953022
97.65981622739446 -210.99894776741075 0.2265739519089789
97.65550973893544 -210.87251570068233 0.21569919172326513
97.67847704011776 -210.8148526802811 0.21368960721272
97.66726337546291 -210.66335402131426 0.2001952752990176
97.71263437094905 -210.582159758555 0.1993255729574004
97.8101211551662 -210.4043446052836 0.19798486779996605
97.57882475339223 -210.78281312497597 0.1991738355507967
95.77060131391022 -216.85174041486258 0.2894864358463536
95.70407990983308 -216.56218902122964 0.2657184314839166
95.63875659696886 -216.6334004206931 0.2679728371878686
95.57250021020707 -216.32952321627818 0.24299251328120008
95.61133303173963 -216.00869221811814 0.22149560409232305
95.72487188755932 -215.55175484016118 0.19380403760732112
95.47849013357994 -216.452629286215 0.24799939679731453
95.48669771581444 -216.1455064436834 0.2259838243161012
97.4366736930333 -207.94647112937673 0.2375067342622883
97.20560370085154 -208.37501393602687 0.22455806682520107
97.30066224024583 -207.9489191443113 0.20712684266759607
97.34733070509202 -207.93848498590816 0.21677858540335848
97.17826939202405 -208.33736971862888 0.21516797048669023
97.15112131537333 -208.2781293344924 0.2036790329441045
97.27293115323327 -207.95093755391525 0.20108620564954816
99.07946413539554 -200.67716126557275 0.20525810258807708
98.88688999676936 -200.541936974572 0.20521798066253016
98.89143387773234 -200.38989695064996 0.21844788065928866
98.84490153213727 -200.49416211972465 0.2068562152633534
98.87109032981097 -200.35402373677465 0.22037157383148165
90.49924932274219 -225.77374084363314 0.2801327805074171
93.6544141410274 -213.36285357348214 0.2862597214811444
93.61872587446105 -213.2617052608231 0.27480426461600627
90.44902136598368 -225.68340706893008 0.27605810191429225
93.58595096578848 -213.22294255800549 0.270419846878584
93.5545898732694 -213.18310114197527 0.265945120687924
90.37551349068679 -225.70035561648035 0.2764867198660409
93.48556022778759 -213.15269471011416 0.2626334976962966
90.19946989661388 -225.84775084481493 0.2819548023022216
93.33535004490071 -213.16274224177386 0.26432371716490655
93.40090137142063 -213.13905304644896 0.2613669110904282
90.08185888105197 -225.73281610374403 0.2767585123485653
90.1925003455095 -225.56339417532976 0.27001312016456436
93.20373138860151 -213.25807481880437 0.27580459425276727
93.26562828289079 -213.19721788708995 0.2685958579802188
93.16621590392141 -213.31953191407212 0.2829434761569759
95.79040549297721 -198.42910793871468 0.2519504948266258
95.67117148471795 -198.4848954555326 0.2424089259514478
95.7285093448374 -198.47205637517257 0.2456527765336225
95.6038994339472 -198.47874063261926 0.24063984501740798
95.55184131370781 -198.43996377514284 0.24260365778267168
95.50334419489985 -198.3913034962228 0.24554573434161497
95.4625319863381 -198.2691399441787 0.2558911050825424
93.75335793924162 -201.1429293232881 0.29781645506562715
93.68821246754034 -201.13625429147908 0.29862343336490393
87.46522697051454 -224.37630594081236 0.23019730163515661
87.36295012098265 -224.36169345030703 0.23059687149740737
87.28606452813901 -224.36528201029535 0.2314266822737494
92.14566162570456 -203.86510861799826 0.29536159512941174
86.97956475046635 -224.39059038901078 0.23550303754773294
92.02472165650593 -203.9634436458818 0.293558612878692
92.09742688446245 -203.92527866282674 0.2903153465885827
92.15573298955957 -203.64864360675287 0.20865526574422588
86.8923503611354 -224.42330511882554 0.23770457920793475
86.85790518888537 -224.32827849291053 0.2345354875052189
92.00114411929482 -203.97474647762826 0.2949123906158372
86.78226660405053 -224.33063654934824 0.23552390144553526
86.75488750008252 -223.17369444548777 0.19374203569537396
86.45351913601124 -223.42996048001532 0.20712832053929686
85.96416368256845 -224.2993151115694 0.2450637419294842
85.84878918905902 -224.22602221891168 0.24418637427894863
86.07746685900412 -223.45010420793002 0.21343484363905385
86.10120308214303 -223.24996417860322 0.20610477633749447
85.76777732120327 -224.23771950873086 0.2458652033966081
85.99289542713338 -223.32085472451112 0.21027584967065527
85.99223029680718 -223.17729638760846 0.20534461278480565
90.09134455197383 -206.68497925760173 0.22702979841994653
90.1631680228054 -206.63076620247313 0.21609010636159143
90.21301866446915 -206.5401490547056 0.20989959244837197
90.2188006164312 -206.4407500350431 0.21176272331839108
90.202791302682 -206.3730439035312 0.21663466030673706
85.93030428976374 -223.1524260065608 0.205481073087308
90.14388178870618 -206.32146021620272 0.22843272224394373
85.8445184656665 -223.17357755641137 0.20768071642796848
90.05692392547397 -206.26926090637718 0.2451267973548824
85.73213017609658 -223.17257876426132 0.20956132853821474
85.61669096902685 -223.17624188132547 0.21169514596725592
85.5520857652735 -223.1555479087276 0.21218035667400892
85.41481377463121 -223.27239532895723 0.21857698802065706
85.40505682974634 -223.15132283373518 0.21472601155451754
85.30563116069501 -223.19270611356063 0.21793344573659423
85.28593725267882 -223.08843510639386 0.21486883673605917
85.19011023127835 -223.12213067763773 0.21779411732861786
84.98633935823483 -223.2118174358194 0.22473528167490986
80.26742301925188 -219.2251656573689 0.2714710945477117
80.21987008957166 -219.17568631080883 0.27266887013215135
59.11046163474765 -184.2873107911446 0.2609738195165243
57.737215096645265 -184.83337575800343 0.22090038070388374
57.77744381802237 -184.68478625072353 0.22866186545348455
57.64551770646001 -184.952157855962 0.213993074938578
57.53338321405482 -185.05938872213468 0.20769605642074995
57.21980051200858 -184.008307108252 0.25787693530184397
54.746709934335954 -184.55617483195869 0.20857881131471745
54.30885669029293 -184.49133195794332 0.20793224365959107
54.14349167385627 -184.58800515220258 0.20178456872715567
53.258536757402105 -184.48563925832607 0.19930027678929974
50.97000109598721 -183.85968410696574 0.21086070215980157
50.79414373554621 -183.96682171072212 0.20417062802226293
110.79587580011876 -183.94997537987408 0.3947940366239475
106.18881892085709 -198.07823092263618 0.3855765689355768
105.49746963408974 -198.099797003808 0.3557340484004059
105.2721902657233 -198.55227492926971 0.32200031248527006
105.19090765944405 -198.4977996749996 0.3215471573318921
105.19039391698514 -198.3858217763085 0.327532084117953
108.73206604112735 -183.6210102300006 0.36867693653824096
103.34684205092631 -203.20445093374502 0.3243077635527303
103.11675292563669 -202.5312459665016 0.3488928906985209
102.97224972449797 -202.6284177188997 0.33164406224826837
101.9002694971051 -205.78987739698954 0.32758608967584824
102.7474320411049 -202.36303330043194 0.33205902209143856
101.97388994033865 -205.2416493105614 0.3648217136704428
102.63917588816061 -202.51686395454038 0.31384068556854694
102.65388533980814 -202.45877948258533 0.31879507861411527
100.87818664203678 -207.66056402625685 0.36922642537372896
101.51325106996065 -205.203930240265 0.31440476170583165
101.54087824112585 -205.1744718406457 0.31929763185027926
100.66977200538436 -208.08836120337588 0.33335633667869735
100.70388052478782 -208.00505163823095 0.33905389618214055
100.7421354013068 -207.93688551966534 0.3453735065395198
100.78432495719807 -207.87907611407076 0.35223167943576184
100.86257493039459 -207.70242976509516 0.3662344617503195
101.52446297041126 -204.9801404834749 0.32876403507587315
100.50239759830653 -208.35682681484352 0.30770097420177345
100.53386258349678 -208.2978314157605 0.31239505081379926
100.59019736361378 -208.20044714993003 0.3210175289183701
100.62428638845878 -208.11966461744498 0.32647871251094474
100.67091243020627 -208.05336972653578 0.3338051779647824
100.71121720034785 -207.64452797542202 0.3449816420558489
101.39504889470389 -204.97860303960857 0.3141002499761588
101.47319617821896 -204.83972659917492 0.3314310708723025
101.47853631290008 -204.7216323641004 0.3393173661047948
100.4524329920309 -208.4531609209973 0.30036231455254514
100.48190741009557 -208.39428137450585 0.3046436514748141
100.73275313702538 -207.09584018404382 0.36004673099652384
100.74523384398998 -207.03145802782922 0.3637516769753213
100.76935009688344 -206.8968833653395 0.37132469507694665
100.65694889722984 -207.15028271781281 0.3473775351280439
100.70984423421856 -206.96200334820156 0.3604057502361644
100.715465358836 -206.80055397239883 0.36630320481617296
100.54436845945038 -206.9621617273877 0.3357369425897725
100.57527966525916 -206.8824268664119 0.34273924289596125
100.61859591317382 -206.745745770912 0.35358807527485436
100.7011988084044 -206.425895337667 0.3777883142320111
100.4213116660667 -207.09266489924093 0.3137094970035843
100.46856977201823 -207.0472730539307 0.32200351639869684
100.51812535016848 -206.93872936105458 0.33245492535292565
100.53433225235042 -206.79371770181427 0.3394117202204179
100.54837824232914 -206.6697911629264 0.3456336159425797
100.65510378897926 -206.4455016921734 0.37001567239857525
100.34090490245559 -207.12202067120566 0.30097832654619616
100.4199771421633 -206.2942950832969 0.34091500916091944
100.46451839891068 -206.2338035519725 0.3501840020122058
100.5929091954348 -205.89806292297848 0.38549010591601407
100.60734213119427 -205.81493579586947 0.3919805314934284
100.25858289882261 -206.54886560202934 0.3064836257163396
100.29094246166727 -206.4814930205248 0.3139229628049047
100.29222801942203 -206.2921786941679 0.32181478802868024
100.21711398734503 -206.33729373026804 0.3086070675897655
100.2347631880974 -206.1836795833303 0.31788408845410765
100.2919702410452 -205.97389675085333 0.33648149447003695
100.20532317196957 -206.21331327580376 0.31216549012101524
100.09424120045828 -206.0795281894529 0.3015405113854751
100.11272135995428 -206.040063308609 0.3062216783173959
100.14437429758344 -205.88339073356676 0.3188677032402496
100.16146670570511 -205.84441272976918 0.32353088180559253
100.66151062712876 -203.26867982593535 0.3542812611017616
100.58672154993145 -203.25306317095223 0.3476658737910545
100.48249492649732 -203.2144766280349 0.33982114622941206
100.44434362838076 -203.16861775317048 0.33960163811923993
100.406003846313 -203.1108702969771 0.3404986679641737
100.39595879452541 -203.00989790571916 0.3480324671688446
100.44501156243207 -202.91691090965267 0.3611905969121296
100.3845898501011 -203.01599069062473 0.34638750140181673
97.94547725429804 -212.2893929761237 0.36962961606188394
97.55874362674831 -212.70729948885761 0.3677471523972895
97.63002828794578 -212.46174922917132 0.35197616181911817
97.69509138877618 -212.22129832908544 0.3368497165009181
97.59219330522879 -212.46486346193598 0.34847744391392155
97.57348040914775 -212.39982191540884 0.3406511592979702
97.58496298410863 -212.26247005627414 0.32908423273117915
97.67774032368224 -212.1385246621237 0.32747636409025516
97.64241680491293 -211.9751971267548 0.30906736963029935
97.66022113386329 -211.88752325629747 0.3031855090690725
97.47106705903269 -212.37684543991278 0.3281906502614984
97.57591034727541 -212.1424323796014 0.3171913094904226
97.56509586191325 -212.120022439421 0.31411820352549635
97.63534312243068 -211.9135667592179 0.30287842797982933
97.9707523710326 -210.23022217677533 0.3939730457706303
97.29893151883623 -212.63128359090624 0.3355702245582417
97.34680820322649 -212.53075351058342 0.33054109120172126
97.42195237748213 -212.3529195964692 0.32105169444590553
97.8247952061845 -210.45663919593713 0.3943106447933473
97.89382255830883 -210.29313363827436 0.3882154253924601
97.91649982990943 -210.19368538688954 0.3819078037882355
97.17761914086691 -212.74751928548633 0.33552151508742
97.22358882068306 -212.60256689169836 0.32580643169321055
97.70030077288077 -210.5360561256413 0.38420947554307694
97.78078739855292 -210.49051662431344 0.3913236636925308
97.80201181128545 -210.35297154700135 0.38020482383922416
97.83556788698223 -210.3223337286152 0.38218051855050383
96.93633452377537 -213.3234802532629 0.3715839286699709
96.92447375238234 -213.20594921984633 0.358766945096759
97.0117555007367 -212.858696445668 0.3316998068953587
97.071955284271 -212.80901262708758 0.3321062334094751
97.09278516477104 -212.6588169737609 0.31932540581825997
97.1150692153791 -212.52650711992518 0.3085349846649458
97.5436115908958 -210.802357116872 0.39119433353289623
97.62671756029815 -210.53434161248006 0.3733779664920893
96.83049725517591 -213.16413128919606 0.3470038989234785
96.89496730152618 -213.03970157511074 0.339830065283812
96.90643095877468 -212.99794305937732 0.3365356238048467
96.9805922615649 -212.84266869829324 0.32751903783427117
97.10567037443279 -212.44030921637727 0.2992662578414096
97.57726002118129 -210.5203318000608 0.3647602438978059
96.73087626112925 -213.1815851052453 0.34081649030542693
96.74733157040279 -213.10971054220173 0.3348217074172726
96.88413913402637 -212.82264533231208 0.3172911952166222
96.69392062699228 -213.18894639332035 0.3386243398214426
99.2162322253982 -201.53733519122838 0.3750133141247889
99.26473985587347 -201.52117654614813 0.3809914478069443
99.15256182105335 -201.53685793969487 0.36935148667823414
95.12617705866649 -217.43795686809898 0.3790099395019202
95.17512715799229 -216.87265057133195 0.3358979427331734
97.40681190839386 -207.94409166668976 0.3528436160003541
99.06399066896803 -201.51397875449405 0.36396837641224944
94.97211811335522 -217.56968937987875 0.38511330571750246
95.02190761030538 -217.3056510111936 0.3656550224358841
95.1424817886826 -216.9462216580046 0.3407468328579546
95.19647291429897 -216.60795596056624 0.3156964916501652
97.29943482230723 -207.95694987591583 0.3265359877285575
97.34714097377207 -207.94724799002196 0.3377906899708336
98.9941426233128 -201.48899834456253 0.36051907826231333
98.95977440189398 -201.44295380621267 0.36251070253658946
94.77669774239943 -217.64012973433537 0.385683480650318
94.83601108041981 -217.584198717582 0.38273135133700875
97.17720333683955 -208.34643545047925 0.33939339962202886
97.15031204756315 -208.27272388813148 0.3240830392039823
97.18311072291968 -208.03847722791045 0.3055300927607095
97.23750308702162 -207.98914270074295 0.31406419607277325
98.87921092638106 -201.39788801158585 0.3604336901568339
94.73378778713412 -217.40735804661432 0.36624756245397183
97.13015435889807 -208.1640472649239 0.30646363569249613
97.15135487991306 -208.0831995061925 0.30253696672304053
98.84383119960394 -201.33500029781956 0.36431955941294003
98.81674606401086 -201.2625309086565 0.369957667897334
98.79958053484309 -201.17748978798784 0.37795336661471324
94.65503587941933 -217.5595208141696 0.37639665986835014
94.65513338362538 -217.46776919142982 0.36918954151628935
94.45739231800383 -217.7660711339504 0.3883493500849735
94.5183983656797 -217.7327394555346 0.38701715084511235
98.92734846225494 -199.00173806608973 0.3418178198860189
98.85529512866056 -199.00814873197587 0.33730385114282546
98.70702230052659 -199.03148868418373 0.32731612258448595
98.75859534649986 -199.02906760924233 0.3302538893698972
93.97909843945568 -217.67814098048657 0.3725353631216315
