ply
format ascii 1.0
element vertex 829
property float x
property float y
property float z
end_header
-1.3577883104626753 -135.36143559364263 -5.957939447975836
-1.52184871498511 -135.44896157927332 -5.9691226569444495
-1.5549213449667594 -135.46589502070955 -5.971157450213457
-1.5905981530238904 -135.44110568243593 -5.965342552722487
-1.4209798504316038 -134.03212516984868 -6.008558106371875
-1.7640565897639173 -135.43784097860748 -5.9584259251628575
-1.5055783495194288 -134.0478502211228 -6.010022425649103
-1.4675097131430532 -134.02258858047682 -6.0065884061234325
-1.4405635318798016 -133.74427013791163 -5.964149994650123
-1.4119844752504491 -133.67625126722106 -5.953992287855104
-1.3741789804512599 -133.64077928119914 -5.948891086356122
-1.5536238625093968 -134.0402522573042 -6.008206864939395
-1.703322424604445 -134.1013923324386 -6.015282148487536
-1.1972956923778304 -131.48563919226635 -5.998517841555377
-1.1802487999941482 -131.37328432338032 -5.98480016752821
-7.113253960674303 -146.90204901763985 -6.005841920600936
-7.195646088359588 -147.06691515007046 -5.982459422323153
-7.243487333630737 -146.60863938637775 -6.017456312144778
-7.352308578390668 -146.1623394368385 -6.041779837019662
-7.6566956599420894 -146.72177333085796 -5.963353641587579
-4.266887854287065 -131.90384000216176 -6.023262243297038
-7.74261871479262 -146.729814506278 -5.953314305348533
-4.383074478268826 -132.02079893198143 -6.033449578536271
-8.095569864403553 -145.0114324959085 -6.033427863840054
-8.371964440115361 -145.4938550651558 -5.9717067604863265
-8.619622960184941 -145.12800438294946 -5.964043341201813
-14.878921468207407 -168.6208320915987 -5.94818811307186
-14.95125242005821 -168.5313986432204 -5.952764204762664
-14.810646872630684 -168.08461180848994 -5.9755289764076185
-14.843116414015352 -167.92966002416182 -5.983339353176283
-14.716217526718014 -167.32349429751434 -6.014011460689416
-12.8558427762785 -154.24606868664765 -5.995477046399305
-12.891188221019062 -154.1941905222211 -5.997661251591728
-12.795658378839468 -154.02793844496108 -6.011708032831357
-13.7857963753291 -154.36341898985356 -5.954103247236142
-13.893929271190315 -154.37110928781127 -5.949682452019436
-13.796948185100279 -153.94909582983487 -5.979628230605297
-13.820728960779256 -153.84020917310784 -5.985384448406
-13.857924851985542 -153.70400959104023 -5.992293870604316
-13.79796868374926 -153.37591317062726 -6.014480138341421
-13.99413801576809 -153.68914025727003 -5.98785219259719
-13.920050442020296 -153.5506047623221 -5.999232646478775
-13.964937074415133 -152.9388101696257 -6.03385642745504
-13.986211869041242 -152.87595184012739 -6.03657916071868
-14.186973961717648 -152.94591982781296 -6.024380637953451
-14.179719508799254 -152.86388402574156 -6.02934395545462
-14.155748714574848 -152.7258146557735 -6.038343823625589
-14.372863871671537 -152.68446277113677 -6.031632223534282
-14.288280404444697 -152.54746637275605 -6.04304308206822
-14.504802702325037 -152.8543480318713 -6.016523889662299
-20.140165449307233 -135.5133925563143 -6.0416885611205595
-20.166538267271644 -135.42450441302557 -6.037659985611829
-20.369407575051024 -135.27872699368544 -6.023322363696686
-20.49740558438104 -135.15541610359682 -6.01323142839628
-20.630523983826112 -135.02934566895007 -6.0028574553449925
-20.622759624592483 -134.94878035081894 -6.00066249168425
-20.603374581277112 -134.8720853916689 -5.999206148800774
-20.68943024122644 -134.7589602196502 -5.991385773957312
-20.751670838734004 -134.56592700666036 -5.982124933389901
-20.848089653779873 -134.61839324723564 -5.9792195663716985
-20.82199860630347 -134.45877778861933 -5.975257141833694
-20.83884489329355 -134.36892187371262 -5.971436309824613
-20.854291600626148 -134.2759580832119 -5.96762920627283
-20.852850777270884 -134.19001788520717 -5.964771161149022
-20.965217516271988 -134.0672448359711 -5.955274598361903
-21.001658724413385 -133.97016111443025 -5.950187433431772
16.156000722999952 -176.8258147561463 -5.94990706507815
15.981247460642432 -177.08985979626485 -5.95051017711961
17.278503809374076 -143.18620134860134 -5.882354543277348
17.0449252002379 -140.50279935812515 -5.90527639162145
11.386870852277013 -148.10237068354127 -5.851910143109224
11.252383048867348 -148.07347256014145 -5.867709618965817
12.550317634869376 -141.6025665754372 -5.872722697289701
10.46845367639673 -148.21878634017384 -5.943770711840097
9.764585702192235 -150.15254663505385 -5.902374670900391
8.878850077824392 -150.93045647264657 -5.932273396079157
8.975631577929367 -150.846705189761 -5.929378345771459
8.003460228985594 -153.00371557882673 -5.850300080857808
7.931501795408501 -152.07965183060014 -5.928181495294272
7.7369281012035795 -152.35949701817327 -5.922009935531735
7.7627483946403135 -152.3204393301401 -5.922962408972712
7.797028026224339 -152.14502514244245 -5.9339760139209
7.682292180354748 -152.35545611582813 -5.926573345830761
7.617918221361743 -152.33622762636543 -5.933209883824618
8.761746699151978 -146.98420467426476 -5.856362281061941
8.806452788760268 -146.8993847810415 -5.856079877843163
8.850105118605256 -146.84953453961566 -5.853464978794976
8.739212701663982 -146.9339959388866 -5.862876704077408
7.279129535983289 -152.77443334273204 -5.924281450198674
7.2651548539646225 -152.50094046913046 -5.9473049808487035
7.890976480489101 -148.20482000059167 -5.874975530541568
7.765362697360695 -148.26703806796144 -5.885095646177282
7.807611992268766 -148.26110887291455 -5.880382944700802
7.711382660316438 -148.2621450662029 -5.892104483713153
7.7630180479081385 -147.76082847259136 -5.928433970031325
7.80171389580075 -147.7130771808877 -5.9274603566106645
12.76344827223745 -126.22718002145783 -5.854694546766635
7.729280877951645 -147.77389291153605 -5.931571059172112
7.529272935665768 -147.95157531034698 -5.941466681540762
6.985570490797542 -149.5120403062751 -5.8585414122680595
6.33450124870528 -149.98853054262534 -5.877464375381951
6.370727171463736 -149.9824841932946 -5.874505237054823
8.374819061104313 -131.40868695876404 -5.888009296779707
8.338969527066556 -131.25963063988286 -5.880033746517428
8.296622928742073 -131.23997628140052 -5.882115939897792
6.157686487207098 -128.8555372525929 -5.84906155771257
6.002503576769664 -128.9820963558192 -5.8692075056453845
5.875970947563795 -129.17180643252775 -5.892852088479987
5.826702349009553 -129.16756831324852 -5.895432860152477
5.79827957439195 -129.10965067424272 -5.892523793942095
5.790121468309035 -128.99149256608268 -5.8831329707301165
5.6785533691379 -128.87114139201964 -5.880070072023228
5.648578712426149 -128.66323551225435 -5.864578234072589
5.390008086000339 -129.10146534403256 -5.916545645408127
5.281916819381822 -129.1270324992815 -5.925060818865204
-6.034741813670935 -168.22157049791443 -5.8942584797395305
-0.9640574174529886 -135.21837073113346 -5.940182617207737
-0.8604318297679054 -134.96303351099513 -5.8933664045811245
-1.082622994057893 -135.2522018891191 -5.944251822998867
-1.2955954261472757 -134.9245612142827 -5.878100837462008
-1.4999342895223027 -135.32580017793137 -5.947148969599153
-1.442411070864844 -135.26495584397009 -5.937601454704208
-1.4999727622153092 -135.25102606803148 -5.933287441302042
-1.5550320107096098 -135.01224558327723 -5.887497851836801
-1.7832565046935138 -135.21665198211605 -5.9173659819745925
-1.7083704255091594 -135.19719615715272 -5.916557909902155
-1.780034601599886 -130.62498586995213 -5.897880114577767
-2.0145536415199725 -131.020637808734 -5.946031217042629
-2.3959330043991356 -130.54459060923892 -5.889009544153275
-3.4097943347586974 -133.31662548389096 -5.8531910612209845
-3.4464447156549887 -133.3189508070731 -5.8521159850972815
-3.389669343980271 -130.97851334035272 -5.933372108931225
-3.485403638024813 -130.48805702821446 -5.875431750586161
-7.560364542151833 -147.05450604612727 -5.945261563445036
-8.58670789872978 -146.73398487590327 -5.860045009953718
-8.54766670829656 -146.674205055576 -5.868970474380844
-8.674085549455755 -146.61332607201714 -5.859485362012943
-8.607081314430916 -146.42320760230922 -5.8811633631724565
-8.750685968151334 -146.6091765882447 -5.851137572778066
-14.847186834931266 -170.54581757009387 -5.848230958520113
-9.136739134319146 -145.20003450107063 -5.897904135190453
-9.13900669474866 -145.05038553882665 -5.9057316407047
-15.052062088689153 -170.44815917238648 -5.854084722838661
-14.85744110360344 -169.87915844697795 -5.883156364484297
-14.874779945223533 -169.69024201431884 -5.8928058354350075
-14.906968288491745 -169.52926686595475 -5.9014383070215235
-14.928498717213566 -169.35091307011783 -5.910522459617519
-14.840295777493186 -168.9817078493009 -5.929513208110593
-9.329537676097807 -145.22122564916555 -5.873556880060108
-9.318570957152705 -145.14187811434138 -5.879173148147572
-14.8267016749804 -168.74434538054194 -5.9415083547368885
-12.894882746552666 -155.25855271826896 -5.927419370580473
-12.919893267373972 -155.19203900881237 -5.930938741484017
-12.972534509954695 -155.14830559973325 -5.932192792803913
-12.995200835422654 -155.07780395979796 -5.936017568746909
-13.070349456027362 -155.06185511389756 -5.934606891743466
-13.13915608755263 -155.0377486712324 -5.933739257355628
-13.25162811567333 -154.99972655622642 -5.932409020833861
-13.276864925060908 -154.89080452926214 -5.938719918386526
-13.426987653527513 -154.93905864732596 -5.930191155764922
-13.596050467482957 -154.99573799471395 -5.920632519968143
-13.730496271957248 -154.6710548211032 -5.936619257923645
-13.950134469452053 -154.77076517235176 -5.92234210097138
-13.968744788525212 -154.69690189314554 -5.926255445345657
-14.086971779686428 -154.70571249337712 -5.921438119656207
-14.11955332568221 -154.47430382617935 -5.934660703228543
-14.278384697688026 -154.51707641882712 -5.926112622846681
-14.437914426079786 -154.55859218937283 -5.917396771929181
17.97498831361806 -142.45189453935578 -5.827014492325147
17.685359625667807 -142.62266280594721 -5.850841453237793
17.78658017589504 -142.27003562377672 -5.843473233554957
17.70147278794516 -137.69096364103117 -5.828330995091438
17.61279283180391 -137.65139298587277 -5.835080994895487
11.741593320357966 -158.7357036519166 -5.805750541271241
11.93390525299407 -158.10059063208445 -5.825627627696182
11.779896872566919 -148.63499299242798 -5.783959467337679
13.531169331701001 -140.8928616751853 -5.75274723209052
11.420200056653103 -148.36928541291107 -5.835365702514329
10.993369215946133 -149.22090532335474 -5.8356206788818366
14.511842356904493 -126.87834988518223 -5.769573060812568
9.757234785057568 -146.3812250072203 -5.755733225103384
9.77679317321278 -146.31239618414924 -5.7568501211800305
9.825663053818287 -145.88298090660734 -5.773143157405156
9.459675416183972 -147.0880584889009 -5.753722226656468
9.715801752690997 -145.96612082592725 -5.7846685028116775
9.777467036183854 -145.91803374198525 -5.778291903630367
7.9794973997404846 -153.0527229674583 -5.84836779266996
9.290152611045933 -147.3515073124452 -5.759012615417445
9.429058318211755 -147.01238160413791 -5.762922255466991
9.22559295415484 -147.35413471658956 -5.767614048232072
9.095800304173048 -147.35230925062393 -5.785308672128549
9.341787814922192 -146.21867752419357 -5.824250320090267
9.224887893492847 -146.3433072992585 -5.833499319760358
9.224300107068382 -146.2694178045801 -5.837955804638707
9.27974971062535 -146.22417471608057 -5.832766466237503
8.907896924249581 -147.31204226841726 -5.813512744816168
8.926560048884769 -147.28303251987714 -5.813042893481155
9.181700886645983 -146.35843699056485 -5.838669765817262
9.204907663038645 -146.25972416893245 -5.84130131086424
8.776201342953524 -147.48940326418946 -5.818227572378533
8.858206775039715 -147.34130609576147 -5.818077498525279
8.889422327287026 -146.83352778205284 -5.849163534421555
8.06994862062298 -148.9127731467661 -5.791012222674724
3.7796359755534312 -166.15991199284514 -5.768016527558456
2.477978127847577 -166.94315349721904 -5.766555906252077
6.097322182407991 -151.11049440053998 -5.777496687119092
2.3918073863672236 -166.88877872799648 -5.772691980864984
2.309551867890387 -166.90387372376682 -5.774278744020017
5.802253608217963 -151.5709837786963 -5.75161662198884
5.940950034882388 -151.05685372518113 -5.79777958392583
5.960455527942017 -151.0182697835478 -5.800403591005709
2.2262946340887506 -166.9707522811925 -5.7732127787717245
5.7914577794725055 -151.19821365728245 -5.795227612132645
5.814721607703152 -151.13008390133902 -5.800876912860698
6.450367500163463 -148.10635344289108 -5.761307267025874
6.499866586494431 -148.03243595437192 -5.763291813525152
5.449429317487253 -151.78710100999203 -5.756543714617558
5.48534944075042 -151.68922161715838 -5.765035222009175
5.562381430234099 -151.26730369786412 -5.807342380684764
5.434806635187623 -151.50010855174034 -5.791236090179813
5.392869669503725 -151.32870246244917 -5.814759119332079
5.397715081908611 -151.2532929094386 -5.82304270205382
5.748186365827458 -148.63012755319323 -5.787814311493808
5.808020040802168 -148.54732658178725 -5.791149213220474
5.806084435615297 -148.49904193973168 -5.797772477869348
5.619215228587269 -148.64750776732166 -5.801618269922214
5.559553606853882 -148.63741060101964 -5.810376783071041
5.605811881547904 -148.55719530286885 -5.815341941122451
7.134880517196381 -128.71018297011898 -5.773393825436424
7.080037991062323 -128.64044797753544 -5.771574452583006
6.9936619103495765 -128.46055387401847 -5.762736469081732
6.766306236107226 -128.19928781728146 -5.756478005504211
6.340006484792431 -128.60316192382305 -5.816885684721505
6.207288153213382 -128.5987725949362 -5.824966733867075
5.999481497882524 -127.83775700517263 -5.774648537920519
5.7839804316187635 -127.8159256630581 -5.785677611522532
5.4655714935662605 -128.1090746531017 -5.828865939144027
5.521598178080934 -127.68112969464096 -5.789725223749967
5.220303802218394 -128.03397116676618 -5.836693888856558
5.173749130072652 -128.0111242829319 -5.837255084458146
5.171482812693251 -127.47364042079325 -5.791996763815686
-6.130452525055421 -169.34179262800023 -5.832098156487936
-0.7917873203389756 -135.5232819984822 -5.754273354952945
-0.9627200010707639 -135.69686796739072 -5.788527440664813
-0.9623136407971575 -135.5267685877825 -5.750550284501822
-1.3003700166684735 -135.77756164704547 -5.794279791722105
-1.4289161125352225 -135.8967110750848 -5.814600654088962
-1.3195751790991292 -135.6481435964802 -5.765010307537247
-1.4531115642548533 -135.8992629708827 -5.814058184835933
-1.5073211665204789 -135.854731533619 -5.801750686312837
-1.5772780138883244 -135.89581968270662 -5.8071261268129435
-1.5665259673007204 -135.86030484564108 -5.8000420111197215
-1.3071012698892355 -134.6515600823842 -5.826642942875203
-1.55022155025496 -134.60131071138866 -5.81131268773194
-2.1580217273123448 -134.74008861843112 -5.81612565376605
-2.1570474975325373 -134.63159501028022 -5.7965361308159835
-2.143410926142027 -134.5902441625757 -5.789523009865311
-2.049625384457668 -134.44469117951246 -5.7666146623721835
-2.2649602633764196 -134.59031052806438 -5.784590421651104
-2.338548365870059 -134.7063747840507 -5.802316067636315
-2.307235497505594 -134.56090516644284 -5.777547761466169
-2.471555767343654 -134.6116891933477 -5.779376739110221
-1.375390170149514 -129.88251529186778 -5.805237905390772
-2.556944923890168 -134.56342487458406 -5.7667657787379545
-2.817266614945122 -134.7818729336907 -5.7920714538291165
-1.7787046594015261 -130.05509344612273 -5.829144534214136
-1.9497562098603765 -130.07891004536265 -5.832789703853926
-3.163419531482055 -135.14836557265167 -5.834702099952077
-3.2305569552954356 -132.9722575831221 -5.809491320898745
-3.2851209339759637 -132.98036395677985 -5.808918361128898
-3.897213969017512 -129.83943760801077 -5.795535063647848
-7.645108373901218 -145.0858890664495 -5.760992165111738
-7.769513020181655 -144.94604084151388 -5.751903197537883
-8.445247836994993 -147.3221413178883 -5.827777638426858
-8.60170777253417 -147.49581055585304 -5.79617561075208
-8.547558365388907 -147.42287050744065 -5.8081709380114175
-8.640077069597078 -147.34358818848037 -5.804984379180263
-8.558477774770797 -147.02635092281784 -5.840001807339135
-8.616596336273172 -146.93202695412546 -5.84117799924923
-8.785520516715385 -147.37963880817077 -5.786196574615378
-8.87196979278996 -147.2956866163094 -5.783804411435469
-8.82624572170864 -146.72691007427602 -5.833767712749438
-15.31810950998704 -172.13864713047076 -5.767101349475491
-15.331433256853666 -171.9135861114919 -5.778729206394859
-15.279134263307991 -171.5713385844231 -5.796622225096982
-15.03875926924536 -170.65684715418584 -5.843381803270675
-13.461851093818957 -157.62629374542902 -5.745955779999515
-13.43355787386561 -157.48962085449864 -5.756352746355008
-13.547190553987107 -157.5039422538402 -5.752056974620994
-13.568169166163889 -157.36543952274693 -5.7610998805166656
-13.652450589086754 -157.24164033740414 -5.767189830926616
-13.714350904269672 -157.14776614534773 -5.771748794243491
-13.71535122817344 -157.04412105044088 -5.779022178067297
-13.67362317769733 -156.89818391721883 -5.790316003466087
-13.826320342526605 -156.95239246153582 -5.781853455406596
-13.772755940578959 -156.79781701066534 -5.794068834974556
-13.786073688700355 -156.71145145484869 -5.7996709779818785
-13.75957052883565 -156.58554541421415 -5.809018729521938
-13.638841107438786 -156.16512826551795 -5.841629673160936
-13.818642987697668 -156.54300136652896 -5.810109447547646
-13.72596435284335 -156.14986931757275 -5.839665484016575
-13.949171616343124 -156.56967531234233 -5.803916638582294
-15.37301529915979 -146.2815684377355 -5.801482178339592
-15.340756419877076 -146.06331282444367 -5.80935176524123
-15.459451106009121 -146.21313162593623 -5.795823224554563
-15.378997160310943 -146.1327295976748 -5.80459982971343
-15.384545068370377 -145.98425613752988 -5.807496255467411
-15.50171110170678 -145.92213446266894 -5.799008413900067
-15.505176855240508 -145.8632945436097 -5.79989988400158
-15.482938720508608 -145.79982122860213 -5.803225963687404
-15.554885893075193 -145.69721647046256 -5.7992305698199615
-15.602608378614223 -145.4382245888358 -5.800128279438852
-15.62676239010524 -145.35359293272302 -5.799645797587055
-15.84164648001702 -145.82125831936162 -5.772220800456394
-15.730653003123416 -145.2841773265289 -5.7919195715175
-15.467763151524037 -144.04414560632742 -5.830884467131165
-15.44326010302675 -143.92716507858032 -5.834004258598576
-15.437673255804972 -143.8690565135377 -5.834868668314097
-15.809314922616062 -145.17920788269356 -5.786940577014582
-15.78534131811668 -145.05496029168836 -5.7909853481281495
-15.766873226637651 -144.72722260252948 -5.79727947090384
-15.72969175907487 -144.60302184760295 -5.802101000168456
-15.861386227601406 -144.94970510755468 -5.786035597900606
-15.895490894838888 -144.86738384698185 -5.7842465704919475
-15.800838639581231 -144.79214651146071 -5.793548771856644
-15.789592476124232 -144.55287680778602 -5.797618425212144
-15.868495731091139 -144.68372164246338 -5.789153334898279
-15.81498956681756 -144.14316854020686 -5.799710677087523
-16.01498147075084 -144.52622412935773 -5.778334071170269
-15.890803457913252 -144.21134996456868 -5.79255405016413
-15.769177297383637 -143.64037077782297 -5.807507173375308
-16.058880752406964 -144.4724990507291 -5.775231274625449
-16.076995639188915 -144.38490421558492 -5.77457644323803
-16.072979578448166 -144.29434081417045 -5.775827397069204
-15.979010779083696 -144.0469948354387 -5.786286980114584
-16.222571865440113 -143.8644419260225 -5.766507213452492
-16.280379228497114 -143.77834424117924 -5.762085525275693
-16.44376213248005 -143.61407902249272 -5.748676416716472
-16.43082646695961 -141.5715560564403 -5.746011872555377
19.5757964671004 -146.3553768647458 -5.656750469385315
19.24694925641527 -146.8877061606544 -5.67557116054504
19.270762327781704 -146.62311982435736 -5.6778862880870875
18.67627468857843 -147.1410528815144 -5.718175145526388
18.81391063128522 -146.84191858508456 -5.712014244612398
18.670354571610513 -146.6736102997984 -5.7266315989557395
18.447564795121238 -146.87698952435085 -5.741577659857607
18.830425889797485 -138.5880220806057 -5.744143818103467
12.492727978826867 -160.94396603287694 -5.651617604184407
13.67159340916572 -140.9683925685918 -5.736486021329733
15.435116558636016 -125.50757625084609 -5.6546354942288195
10.285139958250566 -145.69297224605353 -5.715548077618728
9.902858875971651 -146.89139723111106 -5.70464976382813
10.06441226533069 -146.17770967434862 -5.723026703868385
10.217328104088102 -145.7615753881079 -5.722167833342924
10.257728519504335 -145.7203338881903 -5.718247776226226
14.812973122432993 -125.63881725245051 -5.700161785804338
9.889380545098518 -146.8234976569267 -5.7107346199462405
9.870492588209233 -146.75262370317077 -5.7177283939964205
10.119417980845656 -145.79963712552532 -5.73461032732435
9.679566241987727 -147.05350294196856 -5.725565336195951
9.764620417672244 -146.9773692629315 -5.718590125400938
9.864604201489296 -146.24097823767306 -5.748296137816746
9.320206792593584 -148.32674446049037 -5.6830579146546345
9.379778211352276 -147.8358044377489 -5.712312779802307
14.611182730017719 -124.92555861222048 -5.683727465528346
9.038565893931949 -149.0049101735937 -5.664016928095563
9.088689877197611 -148.9480797146559 -5.662553275624668
9.271896990929008 -148.06560787860607 -5.709477809948028
9.469809841348942 -147.13358503870225 -5.749280537863246
9.543189048824537 -147.01766932555222 -5.746775376403683
8.810500421737201 -149.45850319559688 -5.652851325990878
9.02497965209 -148.56135470063995 -5.702482372588372
9.043221011288404 -148.5285388431004 -5.702844071987426
9.321971839142487 -147.45714424567132 -5.7473049975534725
9.003318499152588 -148.45105942470934 -5.714174836550836
9.013347828605133 -148.2326040258026 -5.73032186284985
8.933796338798253 -148.26239639699173 -5.738218763718446
8.419520437417011 -149.81699835344548 -5.666813689982131
14.048145689497332 -125.50964629740322 -5.743903314844621
14.038289369851816 -125.39730018600332 -5.739662018125907
14.0582440520176 -125.2452893867686 -5.732217774531485
7.887962957474608 -150.54508784409404 -5.65663888134808
7.979638122662566 -150.23441902536464 -5.677210113592761
6.872283122695682 -151.5902047928751 -5.651300698284986
7.817278472741261 -147.0788686471692 -5.668203573309855
7.708349045788914 -147.27817597950957 -5.66585239845007
7.73285226616507 -147.12877907226095 -5.676862676167013
7.760749918448173 -147.0936083260255 -5.675841409863432
6.673678443489036 -151.34817802561454 -5.696971681556114
7.673931338074468 -147.14097628276076 -5.685026557438452
7.522500665726474 -147.34193658784721 -5.688578280570686
2.760216664571431 -167.22099167878596 -5.741260120973324
6.16389445594133 -152.00875033110518 -5.669845893769333
6.309988864207229 -151.55255994056745 -5.708310985061696
2.6681192173110735 -167.16789145985675 -5.7472197385979475
6.204671431122554 -151.59930531614603 -5.712703227010759
2.5825815153400264 -167.20411804167006 -5.748085123273246
6.609679470336058 -148.72862001684948 -5.662658399483949
6.686418644054287 -148.67659161718632 -5.658733742419255
5.838249792090542 -151.7220214785258 -5.731193624778729
6.522752431912638 -148.7698892617113 -5.669094943925902
6.361397500041038 -149.06105563246646 -5.652963902614912
6.418345516134387 -148.79197134558132 -5.680185763328613
6.4703182057357225 -148.75768834929497 -5.677677533752777
6.546834605771176 -148.12625212699297 -5.745435747818474
6.321210381874266 -149.06279187860312 -5.657966974609374
6.321266818668796 -148.95965407295452 -5.671368738505939
6.287418226945011 -148.86818847421273 -5.687566080096346
6.323702916438112 -148.81666911765785 -5.689493107900843
6.131371558288839 -149.0656275844636 -5.681790022018193
5.967952336400327 -149.36883584336445 -5.6615407037812915
6.118001968391532 -148.99905997174534 -5.692309455960576
6.927335451321337 -128.09336552234652 -5.737390008344155
7.011616688301526 -128.0325583901171 -5.727075095158428
6.853801930453049 -127.8558086522754 -5.7229767056842
6.7148389551097285 -127.89669176621197 -5.735249394303065
5.9898008355533126 -126.70398594279763 -5.680616677158196
5.6311005639159895 -127.07420847908298 -5.732421316630664
5.734806942476432 -126.56405562389429 -5.683360917887337
5.50429476812924 -126.74239425793428 -5.711549902667009
5.180098284242931 -126.85808099032215 -5.739100548547395
-5.10689610141622 -171.65664771228774 -5.681829218998909
5.303238393243895 -125.99707238471466 -5.659119816399709
-5.202323693658009 -171.6109246933789 -5.686433915973765
-5.293333488662546 -171.54328009544298 -5.6917602926086595
4.995422392110937 -126.25170464295267 -5.697251440473892
-5.392829642207175 -171.50617601275525 -5.695910504146368
-5.490460839424893 -171.4609180412519 -5.700037860259521
-5.560848973077453 -171.29244400712932 -5.711163440203061
-0.6662494579562723 -135.33410272930072 -5.7141414521564835
-0.7375058900641818 -135.38080261535265 -5.723333360611172
-0.6933175692567637 -135.32406244604792 -5.711422105330196
-0.9941892161891379 -135.5010328107011 -5.74391978392147
-1.289010666370981 -135.2715854205416 -5.683123627528845
-1.3133929753217224 -135.2770759284196 -5.683490973646923
-1.3028424081438517 -135.1431062177656 -5.654228820197572
-1.6400915343498736 -134.22763371921667 -5.739386197345787
-1.7916797147418975 -133.94758121619478 -5.683178969154777
-1.8348406329728717 -134.0069831283418 -5.6929905092145265
-2.1948618296708617 -132.2740699320753 -5.729790547393142
-3.4186059349344053 -134.4617887027408 -5.701739863054092
-3.0699194827537264 -132.29993817459152 -5.715453196443745
-3.1182201289592326 -132.32771244343073 -5.718232926528815
-3.163564327316663 -132.31401683810572 -5.715023645101736
-3.2123642468236984 -132.29120463055887 -5.710220898003023
-3.3842456840202177 -132.0732547887666 -5.67318518093739
-3.7453234292412616 -132.15037501508772 -5.673033652711203
-13.376786924403417 -174.18201976314145 -5.646593789754186
-7.135008864854713 -146.4628295807081 -5.715946251329152
-7.064745443235447 -146.3530575307701 -5.736769561486328
-3.9395182232426182 -132.5733194820182 -5.726838412982016
-3.805748805046011 -132.249233856735 -5.685213125178142
-3.832403822237693 -132.10224827653735 -5.66310975082168
-7.157204444662657 -146.43883774204355 -5.715295271093591
-7.101035959666593 -146.3023011654115 -5.736695241067614
-4.00744660461627 -132.67860153699738 -5.739087186035748
-13.617888176880678 -174.12699635675924 -5.6513824269432895
-7.312237570782951 -146.379648198824 -5.699373063739147
-4.117973961192456 -132.54844575047272 -5.716235629801644
-4.120873797224668 -132.37650255844412 -5.691710407785477
-13.738335243503816 -174.09444596955996 -5.653772149661208
-7.435824208994051 -146.3347951063909 -5.686192337122884
-7.444736509031799 -146.28717681686052 -5.689493558301896
-7.485968695510904 -146.14593769125008 -5.696855986731107
-7.7438690101996475 -145.28681649443493 -5.731095349532953
-7.8095483862484105 -145.26016720813095 -5.723182238948745
-7.8429214969873495 -145.08825363092194 -5.730690678942564
-8.014356627287652 -145.58001879092726 -5.667769028053939
-8.096035071943424 -145.5583746685513 -5.657205787587648
-8.07207143089807 -144.87653249656373 -5.710074170153296
-8.041269644004823 -144.79963106997764 -5.719865621030033
-8.066239448279722 -144.68933794121796 -5.723035497192327
-8.528478238114104 -144.57354953361443 -5.730270664543531
-15.333028345485852 -173.99621026891356 -5.669045818747978
-8.566192811484639 -144.53107598296563 -5.726320596456312
-8.72251072397912 -144.69628639343478 -5.695326805251132
-8.672937775533397 -144.31297294829878 -5.718798120191461
-15.660155433517454 -174.3544349159532 -5.652077156156825
-15.538038868485613 -173.58138050954472 -5.692279301470707
-9.53280078522922 -147.10985402520961 -5.72549719007513
-15.75980300192885 -174.26744203682216 -5.656972573041412
-15.658882627171481 -173.55672439485124 -5.693938414028594
-15.486414516942956 -172.96573659644298 -5.724441993963556
-15.457694668569983 -172.65305272324264 -5.740518892556816
-9.762861552918332 -147.40460047257852 -5.6770560606927685
-9.898307817643586 -146.6402318737241 -5.718182057703811
-9.894250490341559 -146.4832165943604 -5.729426869891334
-10.096382590797855 -146.8787738807808 -5.678695620265605
-9.945438729014283 -146.4391183069222 -5.726425793416022
-9.873287809145445 -146.3020338798091 -5.743924477211667
-10.099897703833777 -146.43505568081704 -5.708717195170189
-10.042982144781764 -146.25983255927872 -5.7268077597268086
-10.271412656380987 -146.88666906089503 -5.658108916436818
-10.099248589624858 -146.19577386551174 -5.724295751827913
-10.304286724047342 -146.74156538586848 -5.664425914451842
-13.351868141377977 -158.39024734526464 -5.694359069661489
-13.497012544234902 -158.676105602274 -5.669459214703328
-13.431914682340851 -158.365463047238 -5.693788555457447
-13.285159724057719 -158.0882390956379 -5.718055613564503
-13.315815277259178 -157.95718297545662 -5.726545544874683
-13.62573732638099 -158.94156376480586 -5.646728967164869
-13.486597402307956 -157.92468895123122 -5.723943709307157
-13.492351032297073 -157.76601613841027 -5.735022536624746
-10.722252223183673 -145.73707868227672 -5.677560683015299
-10.907633494289144 -145.66210583278828 -5.659328376347266
-11.237528991524748 -145.20718802468934 -5.734543643736629
-11.256550117846842 -145.10000838298922 -5.735830124586849
-11.54161329586448 -145.0794863239624 -5.702643176848145
-14.748310185669437 -148.10826570980285 -5.648404380846038
-14.711464467052323 -148.03231569599217 -5.655370417394431
-14.779909819327267 -147.96717058588015 -5.652955228662872
-14.8119991043951 -147.85580529071743 -5.655869968558183
-14.810205142314514 -147.70407164947892 -5.663549444175715
-14.935172311894652 -147.56606017365564 -5.6596712648912595
-14.85437022510893 -147.4463165897945 -5.672281476114442
-15.007759753932353 -147.2836874194754 -5.666719220979985
-14.984172578859651 -147.21496589049204 -5.6719509523827325
-14.962050244722944 -147.14748223684407 -5.676892542588403
-15.049535259203672 -147.05624976613856 -5.673432138717265
-15.106619572372777 -146.86369150619916 -5.6769515568924795
-15.168124239604689 -146.78982602958374 -5.674789221625648
-16.54028202348181 -143.561609774468 -5.740576097823466
-16.592965390725297 -143.50485054683924 -5.736148019815511
-16.631550035948344 -143.4467450599432 -5.733088248382937
-16.496648573480925 -141.51065762452296 -5.739742644404604
-16.601811000170272 -141.41565624708468 -5.72956500924932
-16.556258309707506 -141.14522512942509 -5.730668968819064
-17.056658091491286 -142.79474154210308 -5.696798539958339
-16.622118860141093 -141.2626249729745 -5.726223325583764
-16.84676757673224 -141.61934190682712 -5.709968500805271
-17.28498763891231 -142.8677416376685 -5.676870019058603
-17.33183490734227 -142.68148461482616 -5.672523698472429
-17.18153825132049 -142.20687602650818 -5.684338065754398
-17.193863654128933 -142.11018850586836 -5.6828258574607275
-17.407377510054154 -142.74653520520954 -5.666049912740232
-17.394747084426132 -142.49275907259712 -5.666682752986831
-17.32620739649919 -142.29895264200738 -5.671990130622885
-17.22368208605933 -142.04591665946234 -5.679790556489085
-17.240120369004142 -141.95540316767114 -5.677840847246365
-17.04680748604264 -141.3034564124697 -5.68933720189866
-17.481681361082508 -142.43030413307173 -5.658793900252769
-17.385150917358494 -142.36341618894767 -5.667127443886658
-17.319836660350948 -141.85919257503807 -5.670248645154748
-17.28841693501023 -141.7636099738391 -5.672290699010052
-17.19418521277411 -141.1736950124625 -5.67498727889575
-17.630516761511053 -142.626840874592 -5.646284130848725
-17.566515292036165 -142.56072425036237 -5.651689623615289
-17.42588381078121 -141.66610465304385 -5.659427015725452
-17.362639493017017 -140.97633037395966 -5.657920519276813
-17.44656319199615 -140.71507106315514 -5.647071772237503
20.291150104139454 -148.57272338641806 -5.55901692447994
20.265093168144798 -148.6379768535536 -5.559796515959145
20.481229484219362 -144.9259836633215 -5.599303999565356
19.76752908238278 -146.19064858122294 -5.643256140994354
20.17424754830423 -136.16802388206088 -5.604938253097604
12.589297076996068 -162.17599652926026 -5.5837388607568
12.080952456208852 -163.03475587027052 -5.567613385822101
11.740793937333821 -163.01083272892254 -5.587411623977168
11.304430127275017 -163.8150670619487 -5.568083352927063
11.178696552180579 -163.74713788352048 -5.578423211545802
11.331362683707123 -163.4867915950026 -5.584085427048757
15.875441410443942 -125.70829281697466 -5.633664192499904
16.060958270572428 -124.6740769146704 -5.580216942450104
16.017058952379852 -124.6013191412179 -5.580335608401666
10.119661643839438 -148.2874578519022 -5.580511722176995
10.161030708376602 -148.26802288043456 -5.576363232964803
10.222175152708344 -147.31453966860087 -5.6333689694150415
10.330483556683271 -147.16104626959958 -5.627991805315601
10.187707885794756 -147.16777254551536 -5.647534129317035
9.817901052110058 -148.2886574208889 -5.620558464925894
8.759309474284418 -149.72646266842042 -5.634982391685546
8.867057775824716 -149.45835007007443 -5.646039509651855
8.627441375826425 -149.8669299395322 -5.637825709286119
8.553549121546679 -150.06498237858912 -5.628010185931119
7.429981287031671 -151.6700620129777 -5.587938515761702
7.399697140593807 -151.31516405181418 -5.628744019118919
7.454829782632579 -151.22061316123708 -5.633128835876753
7.207683332174463 -151.73808757569304 -5.6026656865162145
7.072998253854651 -151.60640846260603 -5.630073921953814
8.003163402409454 -147.17363025929276 -5.629165893760244
7.737009022740098 -148.25314014256682 -5.55818199213843
7.981985932280699 -147.10119981618263 -5.639540826111224
7.975994549556459 -147.04097609544004 -5.646256721048621
7.629698814009993 -148.24321370681022 -5.575291453565027
7.660062140374082 -148.1413320912028 -5.58204808449927
7.0211778155942834 -148.76557584513318 -5.601726504681981
6.630724401975243 -149.51277452759226 -5.55938645699433
6.83352338476722 -148.65503862730597 -5.641202339566016
6.7846003330828655 -148.7867830076761 -5.631644386120155
6.78916550620022 -148.67816514011255 -5.644480467595621
6.1773228671423315 -149.2823579081337 -5.647312473339274
6.011513661421835 -149.8217962566079 -5.594487995180285
6.791004172474402 -131.37777683727631 -5.573989664638146
6.561136160686285 -131.1740396915185 -5.572347214167573
5.984981234848055 -130.8847384358445 -5.588941061225459
6.540158213227862 -126.67306626325214 -5.645156302234372
5.543754103169926 -126.00602850138402 -5.646796431519222
5.498593227040537 -125.9513174326123 -5.644773050872629
5.3911160134445275 -125.89976479939354 -5.646236054735447
4.2256715227617025 -129.51427809249876 -5.556313602349686
-0.7638280745705566 -135.93206923641372 -5.611390432005447
-1.1202557253718393 -135.939580861979 -5.598486514608698
-1.1702097797435682 -135.89543537172824 -5.584758813112469
-1.2019806005457856 -135.03615119791988 -5.633817170610424
-1.714114088923158 -134.93163964405946 -5.591083842681634
-1.118958045872421 -131.33814654867365 -5.591190029966959
-3.004162169857117 -133.80692801498935 -5.610599726594592
-2.94685941392355 -133.78082160943433 -5.6087506367389866
-2.82243921751021 -133.4200130266308 -5.549815822324602
-3.0689631356293474 -133.7458085272844 -5.596613480622827
-3.241726502352081 -133.644512962866 -5.56990721294366
-2.834558934955921 -131.69915400753482 -5.631392107520009
-2.6157693966510354 -131.12264542885376 -5.548209389443372
-3.3074902544798204 -133.61939440411055 -5.562020866592157
-2.885609578347095 -131.72769209464812 -5.6345604346953015
-2.972309630641475 -131.71790726158713 -5.631185088184776
-3.671460336348097 -134.10913213957858 -5.6258326630595255
-3.578125981490538 -133.6717012767811 -5.556219402466731
-3.565144116478702 -133.62506622558823 -5.54892963865628
-3.7153420996604853 -134.09770435764702 -5.621071081122073
-3.680620833145371 -133.7895999982621 -5.570542783104535
-3.6141020839754856 -133.7072159682632 -5.560298618796343
-3.233802923449941 -131.5208678204189 -5.595616429743818
-3.3013683822505153 -131.45568092729553 -5.584158835592046
-3.663456870781635 -131.30855604246005 -5.5526590631712684
-3.7771145081827426 -131.55886741170482 -5.585887455065285
-3.742182349465043 -131.33504681727047 -5.554246680479623
-7.36791079220596 -147.00560617458268 -5.627479816494006
-7.475430156754969 -146.80282212902 -5.63400496615618
-8.00997991651419 -145.95582902496173 -5.637516081326923
-8.083677139169103 -145.91505932895842 -5.6301106002385
-8.175537028736924 -145.99072377265168 -5.6102098202534805
-15.556136569939726 -175.29389780182152 -5.601673571244941
-15.641688492272644 -175.17575595252757 -5.608177337259059
-15.643118260187636 -174.89145798322193 -5.623522153606818
-9.41579731510334 -144.5618615271437 -5.595092263162681
-10.280589180104862 -147.28290671996655 -5.628408551168637
-13.367596542203188 -160.2293091265325 -5.557866343151838
-13.262848233172456 -159.46928434647242 -5.6174993248069836
-13.250361338876033 -159.33554006325542 -5.627620645591391
-13.294025684078354 -159.26637301358215 -5.631742864538284
-13.61434248365085 -160.2915630800027 -5.547095232260403
-13.389288753369433 -159.26028799135688 -5.629573201962373
-13.377367536905286 -159.1276817524229 -5.639789673520665
-13.412815748456783 -159.05129925249835 -5.644333037035031
-13.776207760472797 -160.2236975274921 -5.5481128391111785
-13.53762330540113 -159.01523082701777 -5.643685336541002
-10.854248216304931 -147.25803077492077 -5.565105186450305
-10.899011074367701 -146.06270294823472 -5.637791064536827
-11.468835228441101 -146.15998789417128 -5.564138803550571
-14.15354583094569 -150.4154162067637 -5.559222367953839
-14.140784803493615 -150.20339313930253 -5.574189339059738
-14.063218985511398 -150.0285636467799 -5.591648627081182
-14.280722359408523 -150.41593417946746 -5.54930869308065
-14.233953015960763 -150.1859933535641 -5.568157686740616
-14.292270981228228 -150.35369520586033 -5.552611326989759
-14.270229977683286 -150.04191078544122 -5.574632080072131
-14.287471686874738 -149.81923102268652 -5.587519982306868
-14.295001125067175 -149.5611972677771 -5.60302617777549
-14.517903023899507 -149.83821005006155 -5.568055821933879
-14.498049924194623 -149.5949694876123 -5.584679476150537
-14.64910154985972 -149.27466599477873 -5.591809167952889
-14.78413098751645 -149.20533741201078 -5.584924080663434
-14.747224153678674 -149.12306221215766 -5.592775056459569
-14.823529597857233 -148.80495737018325 -5.604582504268658
-14.761390980008393 -148.23861143170248 -5.64050303818382
-14.818037500201354 -148.19795293104448 -5.637827422820399
-15.098134288059677 -147.68488288272277 -5.639980978671096
-17.577169670695987 -141.02601779191116 -5.639667164994835
-17.509756312533142 -140.90377628414086 -5.6440368487926325
-17.54712043057227 -140.83543096407172 -5.639929972039172
-17.552489528721598 -140.76993361378533 -5.638503485602021
-17.552929500773818 -140.64371957024565 -5.63666698171684
-17.897217592347122 -140.55102725843085 -5.605238073102634
-17.90168213895386 -140.22741312684389 -5.599586020697862
-17.9771363109733 -140.479353043891 -5.597092901829328
-18.06692805727904 -140.40865345218464 -5.58819840565014
-18.1325470706364 -140.3384722749644 -5.581272807408136
-18.16993860640162 -140.26823451923173 -5.576916290862954
-18.26944126366965 -140.1220285554023 -5.565739731568966
-18.181797626508324 -139.99574949464377 -5.571123959428024
-18.339569584421195 -140.04600319913342 -5.558216261196716
21.707228462555413 -144.87785995846238 -5.497103783237227
21.57314467722229 -144.93242027688643 -5.507832610009129
21.489796913678617 -144.99644554323558 -5.514149832896532
21.8103130934005 -141.72979842957284 -5.505397672599652
21.43819598003993 -141.95034833507347 -5.536396515118757
14.865202308536306 -161.4566901200898 -5.485830955697171
14.35145971951945 -161.73461406437633 -5.503242269004872
14.267042876406553 -161.75871541264598 -5.507226298350584
14.44013477381427 -161.0084491789455 -5.533167592859879
14.104291792095712 -162.11614904533025 -5.49929545105295
14.087537189610439 -161.86467789659147 -5.512633141004773
13.640553144097252 -163.46573736742835 -5.45839992039559
14.08199898310618 -161.6338026236694 -5.524258621278669
13.698517416203558 -162.5826135256443 -5.499660559338652
13.686711048071874 -162.40609110534777 -5.509316962796814
13.684764248221846 -162.24655280340102 -5.5172837568195385
13.673249580987534 -162.0738542688094 -5.526700005124662
13.684497663743892 -161.93833824117468 -5.5326668020378005
13.332271918116284 -162.6311133822594 -5.51828934899284
12.465074386649015 -163.4812718810307 -5.523301504784186
15.584360499997787 -144.9666791876512 -5.478244787477438
15.511853428693689 -142.60851025225153 -5.5166677436325955
15.829025747389739 -141.20423280204665 -5.480174625130404
15.651678669266765 -140.64070866039407 -5.498422244215462
12.461150358985936 -141.56632356503223 -5.470140410923668
10.23476049487024 -149.10230095698972 -5.503562332003359
9.837975418374995 -150.23405413802274 -5.459445921723641
9.671001252261911 -149.69936394315752 -5.526253079829808
15.021184564681327 -121.15246879726249 -5.496477569217298
7.78428038785607 -152.29961611987096 -5.485130445263749
14.913464424389582 -121.15427287357215 -5.502785712959546
14.852477670083324 -121.08686487155447 -5.503646975727605
14.817015069585915 -120.97694351454307 -5.50065970036827
7.536805675832072 -152.16103037609005 -5.524493500049351
7.179720398238972 -152.30904720485452 -5.5429459275339745
7.9450102576180495 -148.35036846439974 -5.516251356286963
7.768700645185596 -148.92445592992752 -5.477059042512389
7.462206327281715 -146.83272717653506 -5.453207599084546
7.217073229716025 -147.12892782103552 -5.462983476891827
7.115382247339072 -147.22935354070876 -5.468864727442465
6.061212155435749 -150.69224503656136 -5.467188042516236
6.008649971069046 -150.70576282049507 -5.471210317876954
-1.237667303409717 -173.3634693235823 -5.497577659796729
7.847789324102031 -131.40176453088526 -5.476951892141218
-1.7780576167973106 -173.255393800808 -5.517619178181002
7.728717829727197 -131.42089207301117 -5.490582304163463
7.665756813202158 -131.2722180290771 -5.481047212571459
7.6960813697459844 -131.14140012691175 -5.464520420927655
7.684154973891475 -131.0754828976589 -5.458621838406308
7.460925500040588 -131.3518058205181 -5.509135009977323
7.115243971094516 -131.06273963322664 -5.510607287446071
-3.1053874423228756 -173.37649800272885 -5.541651184037811
-3.205550239277856 -173.31147288465988 -5.547422091648308
5.95656084346969 -129.83475113369158 -5.472081372305558
3.3697236154234824 -128.3988728254481 -5.47114694267186
3.2973719308963436 -128.3804810052994 -5.472656959926166
-7.589140579270715 -161.98354655169638 -5.5030534152463595
-7.812401612890952 -161.74220522374583 -5.5226673469809295
-1.0049491624676483 -130.87167185367778 -5.517376687743227
-1.0444261092022433 -130.87609087296067 -5.518372440724854
-1.7979870913723102 -130.77272260419156 -5.5025842558572755
-12.637357425163952 -176.26962987015395 -5.526434794357315
-2.8836736019811022 -133.36249568237136 -5.536866026859432
-3.282875003737475 -134.8668315540413 -5.477267782877595
-3.277609739575748 -134.81674149984906 -5.467628392531637
-2.546859204489179 -130.93610813367366 -5.520754545830311
-3.66544394742407 -135.33465206211858 -5.536110884177693
-3.7675623453499907 -135.4317088385153 -5.544988390109044
-3.822018001499623 -135.30308147120599 -5.515027554146114
-6.542122699631339 -146.39732414168992 -5.4950936882889065
-6.596597851754169 -146.19173747642074 -5.510827962026362
-6.6948336832837985 -146.28091565975737 -5.483394266045561
-6.806810842180475 -146.2034990406715 -5.473392747777453
-6.904348751753659 -146.18765891573898 -5.458395684881146
-7.031232223685176 -146.08445830107456 -5.44812990290579
-8.622834803140062 -146.98383042155098 -5.455288280432056
-8.87907970995413 -146.49492814911864 -5.463464200056956
-9.011466403018542 -145.81575195624032 -5.4996518991051335
-16.654869668135344 -177.8304161064356 -5.472934999620241
-9.12204801482829 -145.0355700829542 -5.53732468640116
-9.310675763955162 -145.3586910402106 -5.487062463389127
-13.393493162985417 -160.92576611766782 -5.504627664130271
-13.467570416568494 -160.88976341534268 -5.505492498212608
-13.609895534805219 -160.6700423195468 -5.518886851443298
-13.760787599077114 -160.99955486356342 -5.49021176036581
-13.745321213298398 -160.58454092041885 -5.522007268600076
-14.032184597945458 -161.4901573696181 -5.4467125468712805
-13.748339845988275 -160.32265530967317 -5.541559747477195
-10.402931854480178 -144.39113099495233 -5.449021606122809
-12.717982610115914 -153.20871914243688 -5.44925536162575
-12.987963160051212 -152.95299973623878 -5.452914725193894
-13.04008833171097 -152.53718001167906 -5.483373751280898
-13.220762964524654 -152.7499999337301 -5.453814327332074
-13.110145993151567 -152.14468239707193 -5.509843376061061
-13.078417593053278 -151.9018328267648 -5.530968651387909
-13.132934449992572 -152.01406333048757 -5.5184893866924
-13.131350622710361 -151.8682059195258 -5.52993020700577
-13.398911814191129 -152.65231809566754 -5.449632789469461
-14.015938332422857 -151.37802650883282 -5.502622852161191
-14.190405777499892 -151.41429653301628 -5.487182573262555
-14.163498917573614 -151.2534282273024 -5.500676446722742
-14.127124378621073 -151.1602693081719 -5.509919480104583
-14.27036580410669 -151.39108853491763 -5.4828335657971285
-14.219370731782135 -151.1462969632674 -5.504074965546236
-14.255780707394356 -151.06238515323773 -5.507181741214628
-14.258054329618572 -150.95718828903406 -5.514298468085956
-14.32508294988092 -150.9255821295094 -5.511485325754265
-14.255212666025153 -150.6122433243462 -5.5381881870154555
-14.532931292145662 -150.97599880145242 -5.492163166334238
-14.527832571923026 -150.9053032371129 -5.49745997096076
-18.46928436266697 -139.89597934965153 -5.544163164395479
-18.47531923065052 -139.75980664800403 -5.541036350679238
-18.6138489380506 -139.8109231752908 -5.530026275348739
-18.568306768518262 -139.6834298055529 -5.531498192596208
-18.61736587790958 -139.61086069943778 -5.5257087098909805
-18.663338318644865 -139.50162675655943 -5.5194884571648295
-18.55763544297564 -139.06377846558345 -5.518875980697299
-18.667814864698578 -139.25945026005397 -5.51389067881426
-18.698898287869397 -139.1835956800453 -5.509430194703057
-18.839244835810838 -139.3755621183156 -5.501576045851681
-18.73957026002976 -139.10607273075198 -5.504187955785268
-18.737088043598273 -138.8993915874299 -5.499423196014668
-18.689252342365503 -138.77025470329613 -5.500346422671938
-18.85535970759091 -139.3040384620757 -5.4985623538021375
-18.771489030407334 -138.96221218681305 -5.49803284714088
-18.816501808144668 -138.81790886576132 -5.4906201955621
-18.7851996035501 -138.61305142226493 -5.4880546183671335
-18.841546951177722 -138.53234329734846 -5.481147894296075
-18.952328930920444 -138.65463848205442 -5.4747976529863305
-18.883824409168845 -138.45363149185582 -5.475363378955866
-18.881388613291378 -138.31175712719482 -5.471711776026433
-19.00805027162746 -138.35924049471808 -5.462199053467275
-18.91699535110719 -138.16198151344162 -5.464459003860267
-19.118338627484533 -138.1943204716901 -5.448184060643043
22.600427800562045 -140.4951441376234 -5.438268923320203
10.754518808118277 -149.06503311110023 -5.43842343622819
10.543282279286057 -149.28055528539375 -5.449566689580085
9.103166209870137 -147.3465083702624 -5.433375531979065
9.130404920326104 -147.30333728347216 -5.432737406863767
8.565642989789717 -148.3425217035193 -5.422418793495624
8.626413662145325 -148.16759277753417 -5.431076177845412
8.651950747858786 -148.14428709471454 -5.429495777761594
8.444203044233637 -148.4687663310995 -5.427682402152577
8.1902542643291 -148.84860175973535 -5.4241882143094164
7.575949339828622 -146.878223610401 -5.426208250825182
7.603329655212784 -146.8255680045016 -5.427113157952108
7.257282137627456 -147.218145833055 -5.444332482828452
