ply
format ascii 1.0
element vertex 834
property float x
property float y
property float z
end_header
49.49998219698637 -164.69186068608332 -3.247969000717735
49.93886285619899 -163.3271078025827 -3.1533697216177052
49.94896325612938 -163.2332669755595 -3.1631073130946845
49.97077728659743 -163.10172199538556 -3.214137622709816
49.99851488306716 -162.95469388504935 -3.1887799862006063
52.297564980503395 -169.89285335083332 -3.250803559012079
52.30734358173229 -169.8770006180442 -3.2498272686070573
50.9083140566909 -172.11833261433938 -3.4425527365574053
50.980254308154784 -172.01062479642476 -3.417689034445922
50.94769065474338 -171.96405184512633 -3.4382350928963965
52.24110337795518 -169.78545780583462 -3.2914314032009617
50.867643500262524 -171.99466165932853 -3.463121096900603
50.887683850628115 -171.87584623709876 -3.4605598739026435
50.89570005362541 -171.8167000318368 -3.4367925861964057
52.19574157693696 -169.72335628930864 -3.2787036971168413
52.23376702926479 -169.72807728849997 -3.257809094367018
50.87681235542114 -171.73968842919234 -3.42711721411806
52.14621359855556 -169.69017619597994 -3.283667075503305
52.13554006683037 -169.60738461601144 -3.2436007726157183
52.168613607271666 -169.55688200793048 -3.2321285762115726
51.79793745576088 -170.07714844999603 -3.3511735583700037
52.06696757550327 -169.58710840643516 -3.2754381240333994
52.10914961253781 -169.53505192780125 -3.2388663703553675
51.62857398866079 -169.35512455751848 -3.3073777013411627
51.50493181565828 -169.3617045257418 -3.2528702009659085
51.0016362159142 -169.9818777617221 -3.3717548364857906
51.44319542877374 -169.2806541360763 -3.2487808214082543
51.42254969536453 -169.20965041199557 -3.3042093436663196
51.38850614924618 -169.2292888959651 -3.282266074181289
51.39739884243092 -169.195695121677 -3.294436070288656
51.3032706743752 -169.0389655738871 -3.295158132001788
47.46847822282269 -169.2568727924905 -3.4435427469254347
50.01847385710769 -164.86379660935808 -3.1699438563720213
50.03837685874589 -164.85938522109575 -3.164096087827711
49.97265828686464 -164.7553994060365 -3.171124916398804
49.9785221220146 -164.68758212074752 -3.141627095435724
50.008226120060904 -164.61332637896757 -3.1002850554747434
49.819596463859284 -164.73629834622528 -3.197871456783571
49.82501321120557 -164.72489019785536 -3.188498291596401
49.762758234574775 -164.75387893773782 -3.1842501486632373
49.80818245144187 -164.68500248250217 -3.1512773220383066
49.76000545082098 -164.60333618926833 -3.110599995534603
49.908101663989115 -163.40049159454682 -3.062263816622079
49.91193976001805 -163.36041314781883 -3.0659245961584576
49.945841146301035 -163.20985711576392 -3.0928861734455415
49.939152021919305 -163.17537358213121 -3.105070883975028
49.96098297684935 -163.0394689871555 -3.0674472153782153
52.356928995259395 -169.82337858966818 -3.1918338695446957
52.20241577434055 -169.9740040084976 -3.2255576509971435
52.328780465552 -169.79560340275987 -3.1604995072164956
52.2541039953202 -169.68599981337957 -3.188005807851506
52.082828013509754 -169.67304974884703 -3.2082531645261567
52.16100085960147 -169.53806434550472 -3.2168018651857775
51.60400578660568 -169.90925956765832 -3.164759771940216
51.509510693655926 -169.33342585927693 -3.185969116607908
51.32396176250522 -169.44817119161618 -3.158104135267259
51.43126363474997 -169.2545414806296 -3.1863779831100354
51.43075010249106 -169.23234320247448 -3.1362713257705086
51.28686096820061 -169.4014072660019 -3.1780935255010374
51.38865760290491 -169.2256299317473 -3.189225662110031
51.36496333838889 -169.17856424997458 -3.1733825081249054
50.19749414525877 -164.50093348038956 -2.990296968671188
49.963946237995394 -164.7586382989416 -3.0893815572679193
49.979032049708586 -164.68817711491477 -3.066567039191739
50.145905335935915 -164.51655162878396 -3.001768787765985
50.183961913559834 -164.50036792849016 -2.9877403825990285
50.0049552320085 -164.53963134901824 -3.0145512851934817
50.04352067221024 -164.52342773432585 -3.065142291527761
50.11430887784816 -164.36576817335396 -3.0247908368199443
50.124166770602045 -164.32509598651683 -3.006328805560888
49.80399524030144 -164.63071499939744 -3.045405029446939
49.8101927052962 -164.61001306761145 -3.033881197211288
49.753888937744264 -164.58947468888573 -3.088046664805841
49.7536604908926 -164.56469452374034 -3.063564847311506
49.93227210120156 -163.23990005276283 -3.0237074665078283
45.38521905772086 -164.7390065275835 -3.1577718556649916
45.43532877630917 -164.7452639805176 -3.1615513764113676
52.33014955213099 -169.84630765251524 -3.0554797383782373
52.30456219861487 -169.79593140070753 -3.060454072828189
52.31411903600796 -169.78043772121663 -3.0594999936148635
52.22276390678188 -169.66725552034922 -3.0755036850660478
53.31520448832295 -167.990458968568 -2.9472763242666167
52.1423696031674 -169.5546744041718 -3.0899291117438694
51.747262123470264 -170.1236863664581 -3.115468422149738
52.062790591209 -169.60407713990193 -3.099971548157421
52.11021275207649 -169.53527366102222 -3.079230530352276
52.773683275951456 -168.40802909962855 -2.9676174854412656
52.88767139591698 -168.15528230654138 -2.9432085007009805
52.92740465358781 -168.1335305078066 -2.9531525268257544
53.059059220951376 -167.91340518515565 -3.0024911646595953
51.704818293753156 -170.04127349167788 -3.1240146200098424
52.66168059448932 -168.37592668762636 -2.971170812809958
52.57339598759703 -168.3192701189676 -2.972754363154228
51.55150413995449 -169.8128816858612 -3.1384997325128277
51.48949296749667 -169.29772215135065 -3.1114806173661607
51.452900923984885 -169.2834757716242 -3.1265462995482167
51.44042267241374 -169.2231656922726 -3.1224167885062553
47.432326032440706 -169.3368432956457 -3.1800377949386203
47.47399221440038 -169.27660749852757 -3.223053723715001
50.14045436425119 -164.5019202803443 -2.9240291124166675
50.18678378617217 -164.4642061415235 -2.9352265140692944
50.24871896686205 -164.39120912816725 -2.941400572189271
49.88468984122098 -164.6427959519977 -2.975452868928941
49.97940567354388 -164.5333411084846 -2.966557083616281
50.03701340252969 -164.47295375875777 -2.9471452292146556
50.09440066238576 -164.42407333021347 -2.926835552137904
49.80000794815411 -164.58178139117064 -2.9240640437213816
49.77205128998405 -164.5440885973041 -2.906909502030363
45.37127207523035 -164.75249850670872 -3.1412248544291823
45.336410648367945 -164.72387813041965 -3.14472383537517
53.03284014282037 -168.49085752936782 -2.890982715809191
53.21774313886112 -168.17404197444355 -2.906315787764182
53.29291874216519 -168.15757527894326 -2.8615547948383
53.1238085918824 -168.26551076906085 -2.8685708930891787
53.139970514914026 -168.1327326156634 -2.9145132925344344
53.20962761529627 -168.10951816368393 -2.89342262670936
52.81328307516724 -168.48953685323588 -2.8744855551044513
52.99662291679779 -168.2146696812224 -2.9156481394049063
52.88022878156924 -168.2148105845843 -2.849890851936275
52.657110554593075 -168.38393598247256 -2.926528635313919
52.780793144464134 -168.15908270703113 -2.870608494475036
52.57633939913755 -168.32202211033447 -2.957549711487794
52.51001175794333 -168.2403738140536 -2.873390276606454
52.60098577662283 -168.20000367199597 -2.8582615957398367
51.66969839417856 -169.47320710810519 -2.9371293340211917
52.448395277591146 -168.21896147957105 -2.8817736090978254
51.02060255274759 -169.6691328024994 -2.982695157368452
50.99379908654879 -169.5947124392895 -3.005419069630139
47.4475408184051 -169.31569010000487 -3.1678435922313084
50.22772917584392 -164.44733856839946 -2.853058504566685
50.16178362657847 -164.44521932903734 -2.8624153015609735
50.10939280060533 -164.43700475170064 -2.8740195558607025
49.78179440677425 -164.5219411091402 -2.8675266091538285
49.82823635102753 -163.9275366768176 -2.7967972436726023
45.42590747406127 -164.76492950195782 -3.0140645503375585
52.93197851765024 -168.75857340603312 -2.7803725830143424
53.14897773193543 -168.3366798876828 -2.811798953021918
53.06538361277735 -168.31544044328643 -2.8034976001608722
52.87354793019365 -168.53967639572275 -2.8349381444766375
52.97583519258572 -168.30960289104343 -2.7963731734896187
52.720100837995226 -168.295848782958 -2.8006223676334403
52.75814431507243 -168.29963253963885 -2.80281340648085
52.64111975742335 -168.27719207461047 -2.8317957789322454
52.66733108832869 -168.23846047384072 -2.821723320719192
52.57296951262891 -168.25649007371283 -2.839126741632484
52.593560741101534 -168.1909099718403 -2.839008854598192
51.67664809373748 -169.4797049538269 -2.9012295592453445
51.24605628797852 -169.983523519118 -2.8781325592461036
51.24228840275856 -169.9397915068268 -2.8695077918818868
51.573846083386115 -169.36495130676826 -2.910368103521251
51.18075049149379 -169.9250244000638 -2.8910723014966893
51.54571035594509 -169.23294018188906 -2.8500585699364462
51.57521938731107 -169.21567557189456 -2.838410150427126
51.11424924567388 -169.75356768703568 -2.9561973701656035
51.514603792640536 -169.16168012635933 -2.8508373399794342
53.02671857059092 -168.92487583815753 -2.7536608206646904
53.008246208710986 -168.86164965029295 -2.7605302153900015
51.79290400220513 -169.58383777867027 -2.7927295681061803
52.581285175827716 -168.38394212150973 -2.686728891880081
50.769875619429136 -171.13417519432292 -2.8617966177603043
51.39502932008117 -170.05403515879686 -2.8117059245795115
51.766172871168294 -169.55491353474594 -2.8148620680532455
50.75009451922422 -171.04222688555865 -2.874038591480091
51.3044506790698 -170.04252079051523 -2.7873111278809217
51.35495250098416 -170.00813239054418 -2.8049206065328245
51.23505713247503 -170.011633733739 -2.858861937814173
51.261801673603976 -169.9228414465544 -2.838458827150408
51.572403291583754 -169.20278087233018 -2.8214019862945383
51.52910858208549 -169.176310248323 -2.8216925541520745
52.402879343996275 -164.73915357438116 -2.5421855322530336
52.48621779644889 -164.71216267305468 -2.5424276856114965
52.29526260802326 -164.80533859277728 -2.580469191903963
44.90986418900382 -168.97319384056675 -3.0231113596964634
44.77444621274613 -169.0244114347446 -3.028713054567458
44.63532680931305 -169.08643452699062 -3.0262318107557014
44.6748624379398 -168.57907558113976 -2.9895128447196653
44.76230742947308 -168.54311359844252 -3.023093006069586
44.58460987129468 -168.6145984569898 -2.962051262625339
44.46647130869346 -168.549663747917 -2.988854344117774
44.522540129258516 -168.5324257529683 -3.0175668633231973
44.36494220192871 -168.58013951398755 -3.0197849007079323
44.40143463092883 -168.5649824944022 -2.951956833683856
45.24321385428851 -164.65453992313817 -2.7867132719723413
52.89821820370568 -168.57434093530154 -2.58073297265112
50.90092094423588 -171.5502168257317 -2.796681094589071
52.710183956389464 -168.47556333822968 -2.61303443165861
51.37339921122977 -170.17746243360241 -2.7585038350687814
52.39410389582155 -164.74271185881858 -2.46058575436632
52.36587201907729 -164.6021647716609 -2.4292713780216895
52.24754410495989 -164.6328626555033 -2.475412531752834
52.313015697867115 -164.6172281606154 -2.4498627606272527
49.84138798728175 -163.79921435498918 -2.5628657438959466
49.86180143642194 -163.7023914368328 -2.5198412247895057
49.872697673514445 -163.58877439502604 -2.462014711614399
44.45973376654757 -168.65235908711557 -2.9158849721323143
44.44214926242421 -168.57446602824376 -2.940031873704186
44.24777108294057 -168.70650267891125 -2.85689119281941
44.354659574027 -168.59521642069703 -2.8898025585538516
44.399868241748734 -168.57024321396236 -2.9250777166544175
45.267884192510266 -164.7523482775022 -2.6671123817909397
53.04348057407347 -168.64413044416688 -2.551978397759715
52.86011185979814 -168.63600752240848 -2.5328663030207483
52.55719381484938 -164.6902778887813 -2.3993995402472024
52.5035870527815 -164.59227823645824 -2.3404523944203603
52.41278341856417 -164.6247595379759 -2.3851049181656263
52.46269249952236 -164.5873566429926 -2.3683994950190503
49.90642780362428 -163.4924427001325 -2.4015819951839994
49.92120180182493 -163.43311373487083 -2.3679330873878435
45.14085326082113 -164.6876328039881 -2.6536194495639016
49.893273521597486 -163.4685102610429 -2.331757583209911
49.922792064944275 -163.40685750079905 -2.3389615841056157
49.886282920796575 -163.44825183096984 -2.316778847306381
49.906950679099666 -163.37035510684387 -2.30201831438534
48.446525146494224 -203.11775341911488 -3.887872074340479
53.519069672875766 -176.62390470754875 -3.800478684135881
53.42811095150973 -176.6022400056343 -3.801602580167301
53.01906362900242 -176.88504511297896 -3.8238985504341874
53.08304265020687 -176.8414859403992 -3.8204092658618083
52.86495338553172 -177.2448382059383 -3.8439898264798353
52.4454015839232 -176.25837439911425 -3.8092198605584775
52.40562709755431 -176.250725086078 -3.809767369949244
52.30335481167126 -176.11312663071365 -3.806014823781266
52.2407642256663 -176.08845250651967 -3.806444352266264
47.55710864393767 -194.48602921744765 -3.815101921622584
53.10163196638116 -171.5186127443807 -3.800439548314433
52.76684367670111 -172.61847343602068 -3.8802215607915094
52.95995706318625 -172.06363870646655 -3.839196624025673
53.01094013510972 -171.54265024827285 -3.80195760282825
52.88065533241894 -171.98998158004974 -3.83387722695138
52.87980731538135 -171.8364455837904 -3.822790752988912
52.67311185967631 -172.33183311410994 -3.8592494466932052
52.680602398457474 -172.2164969362107 -3.8507560665315896
52.78597086275598 -171.93170702143416 -3.829723855128579
53.17539795695788 -169.65506751773347 -3.8521558215507747
53.23611442852875 -169.41835518861626 -3.8356236331515774
52.33297316973238 -172.7159929112153 -3.889515064111099
53.017789162472276 -169.99290026423992 -3.874625030041717
53.09138289805481 -169.78613096032208 -3.859767285501337
53.11819659733759 -169.74051066828494 -3.856958202213306
53.10647960170396 -169.58391965307652 -3.8436045598982482
53.178625927952595 -169.41975204170657 -3.8333535929156395
53.17550887577905 -169.33489033176963 -3.826562634702154
53.174552053288416 -169.2112843908276 -3.816967781486592
53.21703661204011 -169.1225662400401 -3.812075335624228
53.209741771210616 -169.0253564074054 -3.8044908663525825
52.24258437941912 -172.5920021457809 -3.8806320624709296
52.84527393926831 -170.11961233604322 -3.8797802537193173
52.865146422365214 -170.0805966794488 -3.8770078494674056
52.934029669359795 -170.00108443881055 -3.8723940579510963
52.89656768022479 -169.86789224706138 -3.8595385058008347
52.93799548439055 -169.8156143885257 -3.8565574837209837
52.96971035873754 -169.6909679667652 -3.8471659924853325
53.00306691937062 -169.48895184696812 -3.8318112340705905
53.071826777096746 -169.35704254896032 -3.8239800358860214
53.11730189084859 -169.20706364010678 -3.8142015061742076
53.1326790386387 -169.10040819737097 -3.806735104524899
53.168578235410486 -168.98763971197306 -3.7999071278035594
52.1893145182516 -172.66957176948242 -3.886878845420581
52.14375834435836 -172.50140142460307 -3.8743773324696713
52.42946170145091 -171.59430560445432 -3.8056135975172363
52.79488665180397 -170.14452767658628 -3.880365184557059
52.81030312933807 -170.02973625854221 -3.8706552168145656
52.843038317450734 -169.9784525657417 -3.867257999421832
52.882832055588324 -169.8132190467848 -3.8543450313273513
52.92981226277104 -169.54556312007614 -3.8335612739683858
52.96300331097409 -169.47934363767723 -3.829425033942133
52.971508942065036 -169.36588028994896 -3.8206020989468357
53.03666879368612 -169.1624343378447 -3.807312013733387
53.07667013198498 -169.0391770108084 -3.7996814618290062
53.1067918648745 -168.9842698673538 -3.7969088980235175
52.648699756694974 -170.21843792181647 -3.8825027942015455
52.64972945382017 -170.13588352320184 -3.8749597123000297
52.728318200278935 -170.0809005210914 -3.8724921505153267
52.85017474440487 -169.33980567959412 -3.8136360012403063
51.147872653289156 -175.7323784616457 -3.8174144484082086
52.54212616710021 -170.30380997849917 -3.8873127021361378
52.57612689305237 -170.24161358495735 -3.8824864934237135
52.585613369384106 -170.1196983599331 -3.8715041256631855
52.74738455051056 -169.61754841491577 -3.832698165075875
51.14851637752076 -175.58905843085654 -3.810878097958669
51.1499783047142 -175.4515561830333 -3.8044587031866004
51.85946274738571 -172.4565205575101 -3.8730151675193607
51.88542551790326 -172.43452835536652 -3.871143935543477
52.396471691725864 -170.34806849218145 -3.8874781701850813
52.06099745988627 -171.49625592063762 -3.7992734892042934
52.78325986636002 -168.25869233090674 -3.8694060288274876
50.584112440602446 -176.77930471503774 -3.880477495917864
51.66439634280603 -172.5310486823162 -3.8804381254790354
51.68227997414274 -172.35591937553482 -3.8667880129223393
52.40261888364088 -169.39323182337952 -3.8009215698431524
52.75410533591179 -168.2609082918552 -3.8672124293621275
52.74152699380622 -168.05483414246865 -3.8502713128409303
52.851932039946824 -167.58143622838392 -3.8277439478220723
52.97044369220091 -167.3365393193649 -3.824385747537553
50.54621292143639 -176.76432313663284 -3.8808819849381866
51.631370169312724 -172.39982689271216 -3.8706394776712605
51.61373023053939 -172.30529112562633 -3.8634605288980355
52.36264802331959 -169.39735942065212 -3.7998294938292014
52.38685278757433 -169.34358780753635 -3.796113168215373
52.59692954451912 -168.22786588722641 -3.851910531223498
52.660137201151905 -168.03086833294506 -3.8417560314908434
52.72063192209819 -167.93578058102148 -3.839843562382223
52.69591204637019 -167.832851649943 -3.8305449515702272
52.698947391147655 -167.79371239497377 -3.828117020130443
52.808417644586676 -167.5578842655024 -3.8225291850993157
52.79759544218894 -167.51604580269668 -3.8191112112790004
52.846501794785155 -167.32930655700338 -3.813014258646165
52.88919861375619 -167.27054352489577 -3.813767702886513
52.904466661949236 -167.18141065902273 -3.8107580407756094
52.88425311337642 -167.0856199812638 -3.8044842938094026
52.88840323713822 -167.01115574416255 -3.8015755612262856
52.44916373955065 -168.67302595111028 -3.879331531566606
52.41323037921697 -168.64145634095487 -3.87374826970971
52.49854924114308 -168.30274662973295 -3.8502484207519134
52.57187789620111 -168.19608349690594 -3.8473468298814235
52.56016686674763 -168.0000304583162 -3.8311810286402914
52.60191420315465 -167.92154683411022 -3.828865911015727
52.646216906520664 -167.85687806798947 -3.8280038918355306
52.65537325232278 -167.7348807566742 -3.8204737517517335
52.64796693454828 -167.62908842730198 -3.8129821401365396
52.70362709915535 -167.5509431245523 -3.8129901410720075
52.77695907167129 -167.36261760082908 -3.808643056665435
52.81730488120611 -167.26009399768094 -3.806848548155202
52.81255971071304 -167.17390651444123 -3.802174222191125
52.82828203561125 -167.0569581358455 -3.7981843217926836
52.83775705160447 -166.99498626361924 -3.796338359749111
52.219389676553256 -168.94453117679373 -3.88971649391533
52.46006596464496 -168.08019079405383 -3.82910683295749
52.478024524458725 -168.0276300907056 -3.8265065819441757
52.52330738819039 -167.92440275591085 -3.82251801237944
52.60959955241863 -167.6447022707573 -3.810680078685333
52.57803713916595 -167.52332013618908 -3.8004094846896415
52.574723514159295 -167.45460678696182 -3.7960075373942
52.711857126025514 -167.2444263687291 -3.79668886611029
52.108638308944094 -169.00755361270765 -3.8888742072403693
52.12650510483974 -168.96358772495603 -3.885450544230581
52.236406173497485 -168.49615789406798 -3.8471458555741007
52.06976181559903 -168.92827807285352 -3.878003605519747
52.12184786007062 -168.63322694595522 -3.8517853805692757
52.1754098807034 -168.5378501579488 -3.846512125875978
52.137812035944165 -168.41866710184138 -3.832661841884612
52.39363545310286 -167.35206520797186 -3.890540622486527
52.421892564061686 -167.26490390954743 -3.888711422416754
52.483820313249275 -167.135388298247 -3.8891163562325928
52.49927111132823 -167.0909773370422 -3.888739932577253
52.513325959961406 -167.03464455350357 -3.8877043113878393
52.02407551768273 -168.63986857323292 -3.8454878164297495
52.11771675113673 -168.39384418061627 -3.8288667027823333
52.07577301150489 -168.34305368146104 -3.821090888682436
52.12811318788767 -168.24712075493716 -3.816555428574708
52.33933043818452 -167.39820862453914 -3.8868610750176273
52.38070911284877 -167.31500967707487 -3.886634085992232
52.40255335597041 -167.15906232356642 -3.8802876765423506
52.38664237133204 -167.04506441961328 -3.8724060101285565
50.961823937070314 -172.31220270941594 -3.8714888822385043
50.994825855896146 -172.1537369795118 -3.858538298084868
51.040019854651455 -172.09955131399013 -3.8536870545475956
51.09731728730016 -171.99699114796383 -3.844910554048425
51.84759989468311 -168.74463142432302 -3.8440506055314247
51.92472897228289 -168.47151632385618 -3.8219853149102794
51.921442899037956 -168.42309586482367 -3.8171040995118504
52.03614158891596 -168.11880419531252 -3.7983600364534005
52.05979835236828 -167.85040667298549 -3.8886824912284266
52.121804348177605 -167.73596781920455 -3.885983276843089
52.161555824582194 -167.61866339023055 -3.881244594315122
52.188875053312586 -167.53134693240838 -3.877900712205374
52.22649216280651 -167.34093678951842 -3.8693533072373545
52.34497827005022 -167.0131357713785 -3.865665313341971
52.33275500748877 -166.98420479825853 -3.862768509261382
50.93732997396424 -172.33658964197946 -3.8737802935185024
50.96448661522741 -172.2213276090728 -3.864256595074524
51.47922647037741 -170.1316996592326 -3.8452122095107155
51.903886542927296 -168.45806551223035 -3.819186388283928
51.983531159080115 -168.14154570505409 -3.7961862005029383
52.046633821737004 -167.8566001683232 -3.8877122683009566
52.0571657082221 -167.58712496064476 -3.866329101985236
52.12482985178797 -167.48129080350367 -3.8665292850613038
52.10555770611863 -167.40777422511724 -3.859038506839675
52.20077337852213 -166.88500195552413 -3.8418633560354043
52.25574480929818 -166.8395750368653 -3.8468915936598367
50.83170264980218 -172.0643296451475 -3.8537004452379673
50.89990062442092 -171.96127841643764 -3.8446522211608682
51.397685681103184 -169.84488976495453 -3.8145368977710716
51.74358073328314 -168.542892734673 -3.8162969232257784
51.73530459096395 -168.47059935786535 -3.8084544449613253
51.79702670828172 -168.12563100999 -3.886268020326301
51.82389897279022 -168.04914032834694 -3.881229116306888
51.848312484382724 -167.986889647889 -3.877638154296891
52.031631395544785 -167.30140292464233 -3.842939936965304
52.1446876182445 -166.9482120121972 -3.8376027325979565
52.14942019355111 -166.910415657588 -3.836525741493393
52.14125699876295 -166.78933030890957 -3.830614099314436
52.15633265728772 -166.69315150681697 -3.829133572048017
52.2917677640155 -166.4662718501153 -3.8400138319297055
52.292724130627796 -166.3034671610755 -3.8372890388594847
52.334882284285364 -166.21980986908648 -3.841521611698161
50.709414271197346 -172.13131732237983 -3.860868061559702
50.777477050423855 -172.0410485937634 -3.852656060411493
50.73463391062357 -171.94353333600344 -3.8455787800371617
51.485918465889995 -169.07838356750605 -3.85912448522397
51.489033667324684 -169.0197643848277 -3.8524056437324923
51.94035554004408 -167.37277063989603 -3.836541684073577
52.0404180954925 -166.7720594607587 -3.8173332168500314
52.06740243942036 -166.68892909260964 -3.8178557309063397
52.17105480574345 -166.4759233381161 -3.825146239657347
52.136360950384244 -166.3657200089584 -3.818779866544416
52.16559028642944 -166.2785022858775 -3.8212348415871116
52.17267537379462 -166.2239548671631 -3.821540201568999
52.234111790727326 -166.12686089134556 -3.8284359795000618
52.284689038014776 -166.02788605774748 -3.834348286723733
50.58718373589897 -172.1310606968884 -3.8627955020332583
50.6657773299392 -172.08438213189837 -3.8577955522344753
51.37722495421705 -169.31486924147583 -3.882195335182106
51.713843034255675 -167.9553944818982 -3.8596112193411756
51.965915895236385 -166.94368358396298 -3.815043220855605
51.980628293389096 -166.87787488719243 -3.8139823324723543
52.02734473649617 -166.72329107125367 -3.813952311409439
51.98160916723492 -166.65376198893452 -3.805996827173027
52.024246384695886 -166.54582587615695 -3.8084082945823865
52.03175960196964 -166.44186512372218 -3.8070815939116454
52.063974940319014 -166.35921293424894 -3.8097093377991262
52.11430035421548 -166.262502654714 -3.814729104714559
52.13503134084164 -166.18102157084704 -3.816592773420844
52.148673292365544 -166.07582868418368 -3.8178559465272044
52.12196777666591 -165.956671406365 -3.814796570891534
52.15566201542313 -165.8987939169579 -3.8191563497324474
45.74962314623584 -191.33513647849048 -3.8279241437114377
50.434653737170734 -172.33965254487777 -3.8821141578605274
50.51284151488832 -172.1896023760316 -3.8686976654383405
50.54001189510328 -172.06481438849633 -3.8582711785599306
50.5601321186302 -171.95053465881085 -3.8488066578444524
50.574790848384346 -171.89612916510526 -3.8442541604018845
51.195476010119044 -169.42811471627087 -3.8882912697841654
51.547277947160474 -168.0413035249817 -3.850526952678705
51.55939507787508 -168.03190045255639 -3.8508138282633557
51.60266120493483 -167.90650049975503 -3.842455404601278
51.75666498969525 -167.0759194778467 -3.888824718793642
51.78241744814207 -167.02475884921134 -3.8899727416214613
51.809806526922905 -166.88240445877406 -3.887132537133964
51.829654986694095 -166.78968770356477 -3.886406940127638
51.91331205028364 -166.60907794157748 -3.8347761848245856
51.925011808674356 -166.54212514057542 -3.844698838397395
51.97101480996074 -166.43385631259108 -3.799354999835913
52.01245635316922 -166.20035979754533 -3.8016413959530735
52.06248111696048 -166.12588136001565 -3.807436946594011
52.02919357116365 -166.05825188434832 -3.803313021770987
52.049471811782546 -165.94156639855873 -3.806187048086928
52.07327085034589 -165.85838894861925 -3.8096974840500986
52.084822525781995 -165.73665050254576 -3.8125458662751517
45.63366110568958 -191.54900541629857 -3.8336556288683163
50.49427932885733 -171.9980771753586 -3.853691875948233
50.9586055860245 -170.06421085298456 -3.830602510901617
50.98365408067119 -170.00116699911638 -3.824173533342032
50.97241378238237 -169.8503558379335 -3.808100514231281
50.985112380467136 -169.8223841980122 -3.8053192829257334
51.46510323646177 -168.0372551617515 -3.8413890994585556
51.485653942896455 -167.88902116514973 -3.827834969684597
51.6305907865755 -167.283501761669 -3.8830192787868847
51.68971841940012 -167.0491138848298 -3.876559535310615
51.74727567222436 -167.00287684183894 -3.8831410077365383
51.74753667221583 -166.87541515286742 -3.876817332578215
51.77310129869617 -166.78119807209774 -3.8769725040124454
51.76032913550856 -166.71063830344426 -3.8723809350420995
51.81346699137064 -166.59273886335149 -3.8775278423247554
51.81592422086059 -166.51641383473245 -3.87619780793
51.84790418019079 -166.3998457537367 -3.8795041643020127
52.00834335974197 -165.84178158437794 -3.8021313120862024
52.01461405683809 -165.71974104216568 -3.8046177706914315
52.00645810330302 -165.64264987800294 -3.8051139141142944
52.100298334654966 -165.33869490180047 -3.824188823522755
52.11090551731157 -165.2398455698967 -3.8287799030626406
52.17468331098184 -164.91183082514922 -3.849271741281263
45.67562890871665 -190.67809143375888 -3.822662532469828
50.91316919232095 -169.84691195780965 -3.8070007726049235
51.01911860599635 -169.3795508771656 -3.874848505032009
51.63646858594094 -166.99899655268416 -3.8651948678145525
51.602984424506296 -166.83606800204677 -3.851808141647216
51.674156972003374 -166.74894112306112 -3.859819228149237
51.67566293621378 -166.685281842213 -3.8579328230622516
51.714179634416105 -166.6041609230389 -3.8618345901048126
51.69945875779984 -166.48898150467303 -3.8570163644306317
51.74532818901377 -166.36868082358401 -3.8628249002513417
51.7743849586823 -166.27121404434254 -3.866934710280637
51.80308262357607 -166.194588624232 -3.871528382203085
51.83572594237316 -166.06209859777698 -3.8775518276922045
51.85373001998447 -165.984907255481 -3.8814177715955074
51.86222368886982 -165.92111817337857 -3.8838190930891248
51.87920988445671 -165.76160121076543 -3.8902904146717234
51.94503887991128 -165.68817604251242 -3.7970817638400605
51.96315927844022 -165.62611804644092 -3.80054818659651
51.94720146646853 -165.4400617998076 -3.803979899448164
52.08906907344654 -165.01093416485566 -3.8358940552667913
52.10804283585586 -164.89628230729397 -3.843219585579396
52.164191356567834 -164.57145305048783 -3.8659792826655828
50.7383111693802 -170.05965683859435 -3.828215239448901
51.64719880175174 -166.55804356513735 -3.8499514894508207
51.65948741292978 -166.4854113480466 -3.850550784328524
51.649437343979685 -166.34553532594816 -3.847410639550538
51.65016633770136 -166.28544077644693 -3.847309551108434
51.70625082224976 -166.15967382156194 -3.8565174566836347
51.737875904481385 -166.034273915081 -3.8627413804172015
51.73363792392597 -165.97371967539303 -3.8631577114715245
51.77348644405107 -165.89350472031222 -3.8709127430821213
51.80703564209089 -165.76342631343704 -3.879429490322832
51.800446883352876 -165.70457432160285 -3.880407970416492
51.81887849325924 -165.61560102896522 -3.8864800451636143
51.901066687229495 -165.50675056188413 -3.796786795178815
51.91170313860034 -165.38164674075932 -3.8020570544015757
51.95816508044769 -165.20159486502027 -3.8139709923504235
51.99983905289177 -164.99723303646078 -3.8273544567510673
52.023110583777814 -164.8945738310518 -3.8347944870388937
52.03676087732062 -164.81336453339676 -3.840306921897436
52.04803355987417 -164.70651943007564 -3.8471902922032055
52.11652943977446 -164.58355514553455 -3.86073526179215
50.653058130382114 -169.96514226211048 -3.817369139856568
51.58625633387611 -166.34806874233993 -3.837380025742969
51.59147729229372 -166.23513139538255 -3.838121599961801
51.60748696468375 -166.17114772577943 -3.840944554707751
51.67897737610093 -166.05899419119194 -3.8532837148444288
51.62934356558661 -165.92088908704667 -3.8483418999157104
51.69443596003891 -165.8689818626248 -3.8595160621765734
51.72092544782287 -165.73806366796373 -3.8674491008439302
51.81156351477357 -165.25219856860363 -3.7963639320976976
51.88733529197231 -165.16014806800277 -3.8082803006862687
51.89375139346686 -164.85721296865378 -3.82390395672805
51.998387081736425 -164.77087851599424 -3.838819265664661
52.016431949647526 -164.6997122146925 -3.844526194818164
52.01409043029068 -164.4083543260579 -3.861958329353524
50.51870596046634 -169.9319545107716 -3.813120818175024
50.537381141147115 -169.8247527409057 -3.801407605539533
51.400253663025836 -166.3933888221652 -3.88922945138206
51.54844914974189 -165.96982488084046 -3.834904949078997
51.58094966133535 -165.80675217368082 -3.844369070861577
51.62355211909553 -165.61267035364406 -3.858405774313532
51.61363364251073 -165.54003048186257 -3.8604696098572386
51.68772740741113 -165.42900552546004 -3.876685292028637
51.99162350681009 -164.37802607167015 -3.8619215666733404
51.93740350728871 -164.25742822485722 -3.8653472175017405
52.187508758552504 -163.32661490651105 -3.7960991865714533
52.200228056726644 -163.23963010742423 -3.8016148139315007
52.22406634600276 -163.0636735674679 -3.812836193596794
50.454783922669236 -169.95104302003926 -3.815042547410052
50.495036365563756 -169.92224927950173 -3.811961680408637
50.50053568529182 -169.81341490944232 -3.8000101844412604
51.553704917037955 -165.6239683640162 -3.847893286345132
51.5308909376046 -165.49443499787185 -3.8513116395778155
51.56781703046714 -165.3633663846404 -3.8639663133866025
51.567759501126076 -165.31968184227316 -3.866673706786519
51.678732852571834 -164.83413618325088 -3.804669274147171
51.82732817491733 -164.33446573376878 -3.85060339346647
51.889386297048176 -164.21639940551975 -3.8641774551487327
51.873568117647295 -164.0802278885181 -3.872840569593265
52.13659628217101 -163.26644187366463 -3.797014003662556
51.320227682069884 -166.046051174643 -3.8794760377437747
51.32077114592934 -166.01197557772886 -3.880744211035509
51.32254780379207 -165.83828878783262 -3.888806879146222
51.349170076913786 -165.75009873399173 -3.812825187692971
51.40903628418417 -165.6486505507524 -3.8261556502211067
51.50585480479664 -165.29950337629532 -3.859737547882925
51.52454691772574 -165.21333125622448 -3.8680662623504407
51.569528777584594 -165.11723116886336 -3.8807139847711145
51.671790318429785 -164.61540818194064 -3.8178878567829257
51.73705826990631 -164.51426054127884 -3.830399651113961
51.728314800263526 -164.29032658276518 -3.845459868761885
51.81843190634097 -164.2307787514876 -3.8572316075965403
51.7913624582738 -164.16926744813892 -3.859564265880436
51.840749954201954 -164.08514766225633 -3.869833634778435
52.09261090848867 -163.04440921149913 -3.807950601411262
52.06145025826562 -162.92443247847098 -3.8138602535299873
52.13747935928435 -162.8519305121923 -3.8215703528042435
51.23410128213114 -166.01768104648755 -3.8645218675113457
51.22457532551374 -165.92718830776968 -3.8666265754360962
51.247736001713726 -165.74148594551346 -3.881253659658356
51.28434732598947 -165.64504510796297 -3.8088446766650192
51.36082844923745 -165.45577469490922 -3.8303257733960465
51.50099778955903 -165.1120465059316 -3.872365588755491
51.50597606989557 -164.98674334510326 -3.88274216700427
51.49035699417388 -164.88529655460079 -3.8892485489651376
51.57414726504884 -164.7528246154504 -3.8001721840517173
51.57404648372507 -164.69074633905316 -3.8042535426981465
51.57605797907592 -164.60213067607958 -3.8104622944034148
51.639262308539536 -164.5383673717389 -3.820286660983676
51.671271526091424 -164.18861149892496 -3.848512204907941
51.697464392500834 -164.09131950354512 -3.8580991441956916
51.710173893254854 -164.00706867128142 -3.8657015908037575
51.720805916665675 -163.93847363100795 -3.8719960479962365
51.955977301879194 -163.03719769280005 -3.8024541035635897
44.70542294574413 -191.80466721125475 -3.862968532765232
45.114615012633685 -189.98840056360933 -3.8309056232917778
51.1636941648763 -165.73041456260367 -3.867415087650929
51.40806654535118 -164.96311818634913 -3.8728453151974316
51.46636446486592 -164.64933716998365 -3.7977822176737686
51.61327334640586 -164.19042378729915 -3.843836873214817
51.64135294478937 -164.08980435534474 -3.8539181322342193
51.63954897276523 -163.96630197996754 -3.8637341339447535
51.629772653594095 -163.91466768272642 -3.8672775872514733
51.71229392338839 -163.79926421194793 -3.88278383674269
51.886946891737594 -163.07773672471578 -3.79704594049008
51.86947411557315 -163.04753642427121 -3.798204532994787
51.85414900896588 -162.92003478861434 -3.805643866735841
51.937190813817736 -162.8725702823355 -3.8119480437006326
48.640524766624786 -175.70722449064078 -3.88601253113595
51.091400508480135 -165.79893379686763 -3.850333024963571
51.07943828570515 -165.72043786223085 -3.853696737070545
51.1150115902599 -165.60787123428045 -3.868261485463321
51.15405224175984 -165.55289877258107 -3.7964567699991645
51.27628257733713 -164.90918363800762 -3.8621971555243277
51.30246210475189 -164.8299571626833 -3.8724719626649655
51.802518992725176 -163.03371842816978 -3.79637152042496
51.79236287727174 -162.9100842022814 -3.803907864480629
51.80495147408695 -162.79098629891547 -3.812123982674688
51.80252338490158 -162.6914120371329 -3.8185902179498274
51.91406489386111 -162.55227795455977 -3.831777722183575
50.92000755054795 -165.9087691111698 -3.883637977203925
50.95106908147804 -165.73576861895341 -3.8308680699405273
51.029911710877975 -165.69368898756656 -3.8473509773999823
51.052068277780954 -165.6367099530647 -3.855491848724806
51.08300862884097 -165.5298291979743 -3.8695121378303883
51.15705705294754 -165.12760957715685 -3.8289971502530133
51.25616085008932 -164.79207625579812 -3.870934763269671
51.20069839998532 -164.68904905791476 -3.875166172351391
51.28773861017922 -164.6587388678173 -3.887366254950028
51.43828578951375 -163.76354457721607 -3.8672325341492466
51.50969595036854 -163.65365116235697 -3.8816374790279307
51.724869290581076 -162.97979168826168 -3.7968293183497916
51.69468057543456 -162.76677287011037 -3.809767288440544
51.77893437085709 -162.68095666299752 -3.8184419619023493
51.72892780275521 -162.57189042686363 -3.824066817184585
50.503120539489835 -167.12139425232468 -3.7964263188607794
50.86904139824585 -165.77549779495746 -3.8848168222465365
51.11031622408523 -165.005078271589 -3.8346029006611637
51.10581251264314 -164.81673446488062 -3.852348399378821
51.18804207527845 -164.70164376139897 -3.8725752876838784
51.3986121220904 -163.75358537629265 -3.8655998098712074
51.40513685573815 -163.62063970794088 -3.8781296940414385
51.698024294503135 -162.57407926761687 -3.822895059229684
50.776080845815876 -165.60743190504846 -3.8137105533311737
51.05168091901362 -164.63957041310195 -3.865333766465814
51.09229649233531 -164.5499932768335 -3.878995445900227
51.08741956434138 -164.45585508685386 -3.8889556450262406
51.354484782685304 -163.57028914586311 -3.8797719207922587
51.343357243955964 -163.4906803737139 -3.8866281405268666
50.983324243315934 -164.68070968570868 -3.8542609937569186
50.93624512934454 -164.53004747872856 -3.8667751053806545
51.223278213037986 -163.55460151927107 -3.873866229084305
51.2312589681926 -163.44433356837644 -3.884957997547428
51.40618474225144 -162.65452269902607 -3.8084681561014513
51.54544444914547 -162.06312503067488 -3.8545156453707943
44.27379296783685 -190.81816650664692 -3.863897066918243
50.607756414453576 -165.46993701755693 -3.8727833523751785
50.641596269300756 -165.42707443172048 -3.8844454959294716
50.73227847805917 -164.96283527820722 -3.883891760261978
50.84927965123094 -164.58914638671826 -3.852280523618887
50.906361130223075 -164.5291252783124 -3.8642453943413666
51.09034648910954 -163.71421782447732 -3.851326363236652
51.08773275491891 -163.55222166280205 -3.8670237566088717
51.481619046624445 -162.30155521279912 -3.835700144415149
51.48064679659388 -162.15102335136777 -3.846561722375468
44.1888337655479 -190.80479088999596 -3.8660970637256638
50.64964466185658 -164.93645223080708 -3.877907008327093
50.725826397829486 -164.92073357944756 -3.8888977822407202
50.74678796440583 -164.68084309432626 -3.832691251807619
50.76673583634693 -164.58752994771444 -3.8454238908286533
50.75112596592968 -164.5150048595291 -3.8528477376213406
50.780258282039874 -164.39840321310967 -3.8694093766577966
50.793793261444605 -164.30831157274605 -3.881581643990699
51.00438397021541 -163.759790967873 -3.8423777100069327
50.98778170641013 -163.6133204659794 -3.8560447942889677
51.34634853549286 -162.18523283764486 -3.8409293447093997
44.088887498483246 -190.86965647814193 -3.869619844486066
50.590370805831036 -164.90927868187651 -3.8752016036401926
50.72596099562986 -164.47750931076203 -3.855432356416083
50.81597862698543 -163.98038726767723 -3.8111292938419012
50.85014795230688 -163.78767112825128 -3.832026435391457
50.87249505523121 -163.68501741930572 -3.843418258591047
51.227137408491735 -162.39579161503056 -3.8227396228121067
51.251139492267534 -162.3056828705917 -3.8299480181788015
51.22426270939234 -162.244990034954 -3.8338791294950973
51.27014072937875 -162.01635768070506 -3.851925600454431
51.36674695404936 -161.8454701200012 -3.8666003247199057
50.45939645162833 -165.14444898668313 -3.8269638836723185
50.734087486412584 -163.83136450062705 -3.8223294156300107
50.79906474164451 -163.76028257093782 -3.83245700491179
50.76893580178319 -163.66121085289655 -3.841343802329396
50.80661456613159 -163.5778210077901 -3.8515470608541467
51.136060673164614 -162.39766263365334 -3.8207179816142647
51.15830995968063 -162.18288461960128 -3.837282645608478
51.21924796687317 -162.0876632804029 -3.845572635233231
51.16730632940644 -162.0305754674868 -3.848976493614324
51.19006097372827 -161.88445572887912 -3.860453270835962
51.23755355169483 -161.8418113810532 -3.8645355355883004
50.73162392458776 -163.57984041594847 -3.848290000138766
50.76425705060919 -163.44433631372198 -3.8637756086881723
50.73981308432147 -163.37126066572262 -3.870609529909031
51.04923726738307 -162.13275486244368 -3.839202698423242
51.11123053826557 -161.8868783949378 -3.8590186149874497
51.15680782165406 -161.82131631865045 -3.8647715255775115
50.92673100349741 -162.1189687634657 -3.8385122903203386
50.985425544983144 -162.0630683751474 -3.8436362092052865
51.013041417210864 -161.94274739285288 -3.853302144608615
50.97085311578379 -161.9055376224738 -3.855668516146158
51.71773203867373 -159.1545192703193 -3.7994937386680903
51.70030049643167 -159.07400734716379 -3.803208673925567
50.84597223821842 -162.0680806215396 -3.8414967056561324
50.91495602240072 -161.95300621484546 -3.8512943800840724
50.91096156061959 -161.80977267658275 -3.8624474407621103
51.61384516399293 -159.11635976608991 -3.8015342837611454
51.62917206756934 -159.06786097728315 -3.803732468565163
51.61188306836585 -158.89053878384414 -3.812022435302339
50.79006455017826 -162.10123635711773 -3.8383117763725556
50.79514870475947 -162.0091720255241 -3.845606421994326
50.7804741234054 -161.9169006240475 -3.852781233419941
51.63105863044076 -158.63178849224104 -3.823946561193368
51.60275898569653 -158.52457793283617 -3.8291158336136686
50.3114357418472 -163.60610487141366 -3.8322853133860697
50.69051020559986 -161.99578160029722 -3.8458097153534267
50.81198470265841 -161.61896226153092 -3.876686171508279
51.43555057779703 -158.89011705957017 -3.812842217901328
51.463981486057804 -158.79217992387277 -3.8173237610469473
51.31522444364925 -159.10515497003587 -3.803493077157846
51.364370834369154 -158.82850941710097 -3.8161680064620422
50.068184619320554 -163.46075407181544 -3.844578522373312
50.099666992462865 -163.43300600145312 -3.8481329262710564
49.961081348154174 -163.52223239277635 -3.8364777436908284
50.01511339436767 -163.49549715665344 -3.840026889545599
49.9244475220986 -163.51289733363652 -3.8373292880458827
49.88569733462817 -163.47662340145513 -3.8413961302200783
49.86491530179225 -163.35171665264284 -3.855986670042392
47.48586252855794 -169.30675954432988 -3.853337437560407
47.51361657455136 -169.2109732891294 -3.8413642666050714
47.511552321078355 -169.1905029579896 -3.839456891186465
47.46848551049272 -169.11519939704723 -3.8354099039834524
47.37325970984815 -169.09602527950585 -3.8414671362295634
46.812826963731204 -166.2665135124855 -3.811780831106771
46.86130964211051 -166.19552708959426 -3.816063646897691
46.85991397080387 -166.10315292872173 -3.82094944342526
46.74868100993843 -166.29387310432497 -3.82186841041325
46.81070825239593 -166.01888892495785 -3.81135553071581
46.61308471196513 -161.58458515852195 -3.871678083587973
46.638285869125056 -161.5028420786354 -3.8735849143439443
46.49755484815037 -161.7640755213452 -3.872186946452263
46.529435508869504 -161.67911478067867 -3.8735727829684308
46.563728687247185 -161.5959424938215 -3.874772476630233
46.62067779609026 -161.51160796943057 -3.8744771565881195
46.41672964522425 -161.79766461404716 -3.8768172855764256
46.33440596456128 -161.7704780642033 -3.8842908494036847
44.703814318002486 -167.59498810318198 -3.8608539616148874
44.70938295553396 -167.56163828518393 -3.859100401547295
44.67608773790905 -167.6116816005086 -3.8638249019938975
44.69607270348874 -167.5009222987375 -3.857906351420947
44.661111511329075 -167.4336460778359 -3.85829859113334
44.568916636888495 -167.6894820644403 -3.8757847872368805
44.59303329521606 -167.4118345893733 -3.8631881111173567
44.13480131557297 -165.2655117960503 -3.8450689881734497
44.10362531537307 -165.22923077771623 -3.8470340790679995
47.18067461512701 -151.22166841001805 -3.8405479663987703
47.098087741044466 -151.19734112087335 -3.8441058584795815
46.73079241734205 -151.62221556562668 -3.8497372149679276
47.001261408142454 -150.88367564289578 -3.8541159751127014
44.359729700437555 -160.697481753609 -3.8199225570225566
44.37555676515808 -160.67445712441653 -3.8190460336378482
46.67273262842427 -151.6054648175047 -3.8524134570764357
47.13446102809169 -149.72112361824193 -3.8723984493080357
44.21802073953668 -160.85680533499865 -3.828035165389144
44.24818209080216 -160.8120114938068 -3.8263466683389673
44.303022113630846 -160.7347547582556 -3.8233294925358776
44.37457941209088 -160.60880303145655 -3.8196822396735293
46.5636771813209 -151.57542094895743 -3.857304648765483
44.165140288973014 -160.87686107158137 -3.8313962208735903
46.35753088292117 -152.03826750517464 -3.856421140124352
46.448947069226186 -151.52881966082512 -3.8627844351751106
46.48756405625854 -151.4386180761633 -3.8629548573391386
46.28213224996809 -152.05105227067563 -3.8592033418507357
38.3521320905407 -180.3933723941345 -3.878645129373216
38.43489325138741 -180.18843202904796 -3.873938986227611
38.24774996015259 -180.32552678615184 -3.8798119526586157
38.371943900098266 -179.93460994852921 -3.871484515116694
38.36780737076437 -179.80447087009227 -3.8696302226426695
38.27906103214336 -179.824401687891 -3.871760799606372
38.05962365859508 -179.90145664000477 -3.877390055992824
37.75754078481201 -180.16448520234607 -3.8874648659921345
37.83849907970273 -179.79133507022553 -3.8802178654496693
37.424815831598195 -179.53238590321996 -3.8845358504178513
37.37666791253801 -157.82236030352482 -3.807758013957835
37.43381616295628 -157.76983324097708 -3.8039553644561597
37.31057604598508 -157.83731499992757 -3.8110865076591645
37.236626427516626 -157.8464109521793 -3.8147557812724497
31.219278214997527 -146.48172765941058 -3.8546415878037954
31.113200342634997 -146.7167737179855 -3.8638637806423732
31.10624147512084 -146.49686995026306 -3.859815042151272
31.17623052181715 -146.14880380941372 -3.8500700153779017
30.236698202226922 -145.22814426751853 -3.873525839127897
23.811221669770692 -168.2118400441943 -3.8563331818147617
22.88995484232649 -167.3509926976648 -3.8446664866130176
22.99443516123679 -166.9011293740802 -3.829993554782692
22.961876238070765 -166.81341177354304 -3.8278807669071524
22.8710456555543 -165.44204886305295 -3.787797768449822
22.04018388519658 -167.28208979921524 -3.854661510476956
21.926415815232847 -167.1954549336705 -3.853760719562597
22.292616327285252 -165.78969740199028 -3.806620636687088
21.38023819951765 -167.05712041708412 -3.8574192973504484
20.29904492657679 -165.22017215999873 -3.8174056148805158
20.037523925769673 -165.61587581562273 -3.833249044736273
19.790116480524368 -165.3979140924688 -3.830080998147957
17.45988542820099 -165.40662088436994 -3.8633387415994536
53.634615061687384 -207.64472144931807 -3.7844981960782293
53.88500038973413 -202.88604914587324 -3.7219274750136515
52.804245511174884 -197.98949456913596 -3.699504946655134
51.374235967578855 -199.52100925931396 -3.7610427487468963
52.049850091625345 -195.91399897112268 -3.6989262774676717
51.94260146781872 -195.8680979051898 -3.7019361449034727
51.831578006716 -195.7598628025483 -3.7038918007361454
51.650608777546395 -196.01862280358452 -3.7124047253828123
51.747163627573045 -195.96218991017528 -3.709026560642358
51.08502580065079 -193.79563072663007 -3.7042896822550198
50.808618883131054 -193.95384756503503 -3.714675376405472
50.89592343367092 -193.7881891108496 -3.709934913922386
54.917842365136195 -175.6246368104087 -3.7250881864184704
54.68201493372535 -175.6593469797944 -3.7315856745513387
54.75137222862588 -175.43206908780456 -3.7200689844731936
54.261529136035875 -175.10788821271274 -3.716236550713446
53.90640011530006 -176.05993773538435 -3.7663629557106613
54.06268286870047 -175.3076404991327 -3.729377437960394
53.737992354059436 -176.0885549967655 -3.771392535840598
53.909704050456895 -175.3857075217002 -3.7361368831178035
53.59433912331718 -176.38242201206646 -3.787846842054692
53.62846106903925 -176.32503627179216 -3.7845182530845443
53.6389370194955 -176.21764680738102 -3.779425123484139
53.65882663895343 -176.13205616410278 -3.775100861917752
53.66264397699932 -176.05719427460602 -3.7717151520625123
53.399311977927034 -176.17207453735824 -3.782875885390486
53.40439368615451 -176.09534207426736 -3.779240539573897
53.3602644613159 -176.17185604059767 -3.783696844134277
53.69514392550289 -174.85354214390543 -3.717150601252428
