ply
format ascii 1.0
element vertex 827
property float x
property float y
property float z
end_header
-46.573463900491575 -47.9233332190891 -3.795095496372738
-45.28417332676068 -41.699501037606154 -3.862277462150135
-46.99206345638222 -49.52658037684421 -3.81821450165044
-46.778652273201935 -48.55540438731715 -3.81585216850821
-46.67738254277764 -48.08505874349264 -3.7985616229029455
-45.40365756286979 -41.805541207866085 -3.8516671309660224
-45.39969816962226 -41.72498606866616 -3.856966656601176
-46.85725909129215 -48.50202682835649 -3.803760190525572
-46.736361049219184 -48.0842099941087 -3.7729156828849093
-45.48958126873146 -41.71193847673458 -3.855172957987465
-45.60443483567394 -41.76036901670098 -3.848792797170729
-45.61817002303627 -41.71055986946622 -3.851724197916633
-45.74665413787525 -41.78428390860553 -3.8436067520142965
-45.66580746626072 -41.67506726418139 -3.852853303906905
-45.90294326356156 -42.37465863981697 -3.8002949555624177
-45.822778863475065 -41.81670871433211 -3.839629164000657
-45.910041991948624 -41.79273902001056 -3.8393455019634053
-45.92950964737442 -41.685366963208295 -3.8462029122391095
-46.12365292560929 -42.321750539658126 -3.7990856233055754
-46.06379413799265 -42.14943065424642 -3.81204212038391
-46.01601624251893 -41.69113859294494 -3.8442072993608667
-45.96792919301788 -41.60611183117827 -3.8509402778150963
-46.00603687385332 -41.527622114217834 -3.855549824033268
-46.06090028756394 -41.51340351803397 -3.8556523058731615
-46.168071750173844 -41.56441349802292 -3.85049209442593
-46.17070131282812 -41.482031417484635 -3.8561564911925097
-46.374309422535816 -41.77609239744966 -3.8332068584526846
-46.31952181171546 -41.56283198995249 -3.8486326066306957
-46.24835799220454 -41.43403238301373 -3.8584803153284106
-46.31037276087866 -41.28119254713807 -3.868417250976084
-47.86550238987699 -41.61158893612134 -3.8566980279473
-47.78351732999262 -41.40463446445052 -3.869386016184754
-47.96567949554386 -41.688607575374725 -3.853977449241088
-47.90922254924485 -41.62971415684941 -3.856582918149407
-47.856237921273845 -41.53005632806927 -3.8622734909858876
-48.11994816903675 -42.00002284406429 -3.8368331256450046
-48.08329762360224 -41.857229645076735 -3.845631090973149
-48.04661134905991 -41.80761176316121 -3.8479660863988814
-48.017932620918906 -41.700441951067795 -3.854629737787431
-48.32924167507317 -42.41693301971789 -3.817902931340472
-48.304000497564765 -42.37684217215759 -3.8174374941922795
-48.2887016673074 -42.25242718201689 -3.825347506814085
-48.251710333837465 -42.16368854929235 -3.830059692216783
-48.20855451323021 -41.99603640354769 -3.840116967949572
-48.39779754252077 -42.41188672799995 -3.820660167424095
-48.35647357010863 -42.35928391644138 -3.821897864342948
-48.3062250133661 -42.22774567907906 -3.827728889175079
-48.517998846809895 -42.46949262536863 -3.8221562602845274
-48.503500167155565 -42.419344871759414 -3.824848290434789
-48.468153784460604 -42.35391693571194 -3.827047511917225
-48.7521686277624 -43.00998854711569 -3.8001101914519886
-48.62275361906246 -42.46391075585653 -3.8297218046566353
-48.60040103599842 -42.40973534407452 -3.830116446652883
-48.77670782036877 -42.688408936923864 -3.8228495722617675
-48.75644958899003 -42.544300027137204 -3.831374525347838
-48.69438370951077 -42.482774529173575 -3.8321711314653566
-48.923652018790364 -42.91972165432285 -3.8165051773055096
-48.89529327796271 -42.835623424071535 -3.8201846116213973
-48.8602950809804 -42.7430474720023 -3.824116777790696
-48.83482972616923 -42.65333352541497 -3.828528755938999
-48.8207534862325 -42.55045400357354 -3.8345703581035604
-49.05433923344574 -43.13190518581561 -3.811747309684129
-49.0334715720333 -43.01296525987933 -3.8177152283337557
-49.0264845341293 -42.90657936497693 -3.823944372519475
-48.99223996033397 -42.855567009194694 -3.824967322565632
-49.34629880393856 -43.95421169221874 -3.7884572296625008
-49.19147645528185 -43.47047551175249 -3.8014818891445357
-49.20330952646533 -43.41028972077201 -3.805839479463611
-49.20153039097103 -43.28904919880194 -3.8127782149560505
-49.163473561755204 -43.183770146497075 -3.8162500268373387
-49.11779540597439 -43.147929131497065 -3.8151589372933477
-49.47718211139065 -44.1430302677684 -3.7915512199156622
-49.42538584880383 -43.94213478863733 -3.7960885750328397
-49.4095418538543 -43.854873928623775 -3.7989623897249474
-49.37662602452756 -43.78592279284641 -3.7995462145229144
-49.37369853210639 -43.6763686323622 -3.8049459783254376
-49.3672569467224 -43.53213752450495 -3.8120399032283134
-49.347765191538315 -43.44923046748539 -3.814955426629264
-49.294429275153654 -43.39136848611475 -3.813925815311621
-49.25066520702901 -43.30170704170865 -3.8157076259147993
-49.66520870697735 -44.56916842438981 -3.79358661512212
-49.63024228524669 -44.35921017672507 -3.797532255641786
-49.57798880047749 -44.23666923184147 -3.797217844756249
-49.53973377230688 -44.15797235990962 -3.7968414126731536
-49.53565129466161 -44.055390091394166 -3.80096337402406
-49.52521940341705 -43.932401296644 -3.805640945197949
-49.51236454467659 -43.86540718832982 -3.807621159248596
-49.39480231118433 -43.55180673659486 -3.8132621313240955
-49.77363032567411 -44.584817024791356 -3.804662704416877
-49.746721609764315 -44.51869178042061 -3.80391399300754
-49.74003531361473 -44.40564951256819 -3.807089292963427
-49.70157487984643 -44.306824071276054 -3.806765634498013
-49.65858660052065 -44.2354959943647 -3.8052216608246976
-49.558109083339886 -43.877240087482505 -3.8112101084497825
-50.033913949211836 -45.45577536740107 -3.8192489487479935
-50.02810693647143 -45.36695214993545 -3.8189670778283693
-49.946722487837505 -45.02867517674153 -3.8132221957841437
-49.9435313723838 -44.9756292680904 -3.81383245317696
-49.93589991086998 -44.890093245081026 -3.8146720189185874
-49.87245666791938 -44.82960461800137 -3.8087832502878247
-49.89223721300665 -44.63656257596713 -3.8160347393149086
-49.83830235386056 -44.604149793358424 -3.811069093284536
-49.780955731445104 -44.36298680643208 -3.8128389731233225
-49.770204473797364 -44.33146913278881 -3.8128635862385716
-50.26893369002119 -45.9273241491343 -3.8525367717505623
-50.23526489083764 -45.84436954739795 -3.846917392786299
-50.178120500999846 -45.74899119361092 -3.838417031805537
-50.17975892491994 -45.61857265072793 -3.8378484960194736
-50.13768013234769 -45.53499207075878 -3.8322682730260995
-50.16106873781069 -45.469292507202816 -3.835268838600509
-50.09929625303356 -45.246761186056204 -3.8287094667475703
-50.10876629625702 -45.16332882863084 -3.8307124123748757
-50.055954965191674 -45.047247847831784 -3.825889188852638
-50.02103697966458 -45.000972979147654 -3.8224814722483202
-49.97032032930242 -44.86574102105749 -3.8191760933980223
-49.96474046060376 -44.76920945490229 -3.8207231606376126
-49.9476382506758 -44.669370832083544 -3.82129808074536
-49.91230029517933 -44.62025805614672 -3.8187084551453934
-50.38300036751146 -46.064549554749455 -3.8703674246456523
-50.37403027029078 -46.04365690358797 -3.8687159768194084
-50.31874714397232 -45.93281244432707 -3.859278811161108
-50.26344256190571 -45.83844472489066 -3.850576468345979
-50.28368036414818 -45.72588587672886 -3.8520569882608817
-50.27327838797024 -45.63559301506494 -3.8500350975101636
-50.226405533729974 -45.55101905378783 -3.8436513599325783
-50.128608441910536 -45.10563111052306 -3.8338044389581056
-50.14770307313489 -45.067278168941314 -3.83660323814359
-50.63277939307355 -46.37412983831875 -3.7912687325499257
-50.60646646037976 -46.238236388149616 -3.783603736064697
-50.595824038437065 -46.17355150347368 -3.7803295031119015
-50.5765468115642 -46.06114218166516 -3.77480029673891
-50.576846836253594 -45.98715401345102 -3.77265030754104
-50.80516290694617 -46.63754505919905 -3.8200403321316307
-50.78923100726333 -46.55245684464128 -3.814565737451666
-50.77514656117147 -46.405693506738004 -3.807006548541937
-50.707572017142994 -46.32106955288847 -3.796865125642554
-50.73394608468228 -46.27170223021171 -3.7977321990591135
-50.64714016147074 -46.08917615498073 -3.782767758344176
-50.60787742099339 -45.95883016964446 -3.774949029099137
-50.95553218463342 -47.09059500904435 -3.858726267263685
-50.97435623965625 -47.02802831665895 -3.8571717207160723
-50.96919728782792 -46.93264770002176 -3.851495721580102
-50.93121318513644 -46.82250071577137 -3.8419020233089696
-50.876781823495065 -46.7272183306303 -3.8316185511197043
-50.841995635973376 -46.61211198435616 -3.822648730644023
-50.84205170015161 -46.511277255398156 -3.8181880700066837
-50.81470905554786 -46.44592732195937 -3.812665244549448
-50.768917525314954 -46.29966239653372 -3.802300939864322
-50.771480004987986 -46.25533243996328 -3.800945586308484
-51.21689236213941 -47.59101616378069 -3.7727035011928503
-51.08048940684436 -47.018342587808995 -3.867510540262315
-51.00388576378471 -46.90170785558338 -3.8534170645678283
-51.368211303756986 -47.92575667840055 -3.80317274598055
-51.34730562037788 -47.713187110535706 -3.7886985411409886
-51.31968590094846 -47.6559914761241 -3.7834258204459412
-51.28924074934464 -47.55346256847785 -3.77531132944457
-51.47560011155957 -48.03412026706618 -3.8170688282538747
-51.44292897976875 -47.942956832479524 -3.8091795341462853
-51.39830427763656 -47.832692932443756 -3.7993753394239564
-51.376326621577746 -47.76577634179532 -3.793816779706143
-51.61468918513531 -48.19408371316462 -3.8364324210387806
-51.60236190988182 -48.12016748911948 -3.83086699717694
-51.52841291147069 -48.049023136500224 -3.821488291765396
-51.530360635353986 -47.92081736520352 -3.8135498698245973
-51.7567552889338 -48.49026112848364 -3.865167622659028
-51.72544200276055 -48.38099357414454 -3.8558664590387464
-51.710644511604194 -48.29743085670572 -3.849405924066265
-51.657697772540686 -48.18705065011892 -3.8387864432711596
-52.473623184223044 -50.873599936163544 -3.8531263963116853
-54.139074642907254 -57.56210990326866 -3.8545896209789463
-52.760328243618716 -50.94321034942904 -3.8656700952219523
-52.644898893594664 -50.10215822083248 -3.81360876603434
-52.56345158397484 -49.92640200243436 -3.8010845881385027
-52.5642118378655 -49.901284318168386 -3.799683876121314
-54.18615061027282 -57.43486665068667 -3.851016086112474
-54.20553634348364 -57.38382218552812 -3.8494810148747747
-52.89534404351853 -50.788654850847536 -3.860700830104684
-52.887900003567 -50.75402006872404 -3.8584730888988856
-52.664503365944455 -49.8334604030006 -3.798894697476348
-52.58500112127105 -49.67029073709625 -3.787208442620563
-52.59999320742813 -49.510669289825 -3.778661912350206
-54.15027794590777 -56.617303114319256 -3.8248406194408537
-52.97950880530898 -50.877313753477004 -3.8683587906896806
-52.95417980786588 -50.59548754330612 -3.8512917651424834
-52.88592571642246 -50.301375374072286 -3.832329792245674
-52.72674066516249 -49.794721136119946 -3.7986061050468196
-52.727239459359225 -49.55096714309216 -3.784869339639331
-52.65654738931438 -49.3761163283069 -3.7728746200668684
-54.21844020657379 -56.42306508007109 -3.819117447720057
-54.14351272448622 -56.1505578946265 -3.809800931086802
-54.12258611229732 -56.01896247605044 -3.805449675314401
-54.03536452554545 -55.83692354888338 -3.7989080833173974
-54.06551434137547 -55.81147188582613 -3.7983591347450956
-54.04385904018403 -55.590987180049524 -3.791002840667029
-53.04296150240376 -50.74122924116886 -3.8623737810184124
-52.971001722108085 -50.39529477947573 -3.8402893689751414
-52.92855491437555 -50.3005305767175 -3.8335700915762154
-52.97305194590383 -50.20502256678486 -3.8294669967276525
-52.941763851913755 -50.06578662696985 -3.820580693497733
-52.90785335736733 -50.020257016861954 -3.8169460920372447
-52.78930437367715 -49.72818830982631 -3.796767882125171
-54.23809420211616 -56.38147962779851 -3.817849757603035
-54.08834909801024 -55.5535620786557 -3.790109725561308
-54.07795868326765 -55.447049494393454 -3.7866053040889254
-54.08091640849756 -55.26770555238563 -3.780698613792799
-54.07408870984876 -55.14152628372456 -3.7765206431581144
-53.17016881091662 -50.73764910497468 -3.8659953723219065
-53.10276053761834 -50.63465433756052 -3.858025855457033
-53.06403767097695 -50.58059580761788 -3.8537496368955666
-52.951080602977896 -49.99203651434588 -3.8166692309800836
-52.93928824808395 -49.88436807852074 -3.8102025163282045
-52.88179160845935 -49.603303245159736 -3.7925829326843012
-54.116575601058415 -55.25145499784903 -3.7804518576006045
-54.10362082554135 -55.11962956817589 -3.7760461585438745
-54.11526096465997 -55.043520236825074 -3.7735729823037736
-54.26955207185341 -55.02132270889586 -3.773660539147872
-55.06984950468627 -57.05681185414291 -3.845347525773213
-55.09322055574849 -57.0135186060887 -3.844179334497948
-55.14827586340909 -56.68754787255381 -3.8338863777720755
-55.24519386786318 -56.222986516370284 -3.8191721386348734
-55.33297880228237 -55.86992773683262 -3.807517900118563
-55.382736278253894 -55.61333921267942 -3.7989127560872573
-55.40520776668931 -55.57605121657302 -3.797706506512447
-55.443179797039356 -55.1653799670059 -3.7835734959125027
-55.46455801368137 -55.10197397575896 -3.7814335880227805
-20.673118136143646 -80.3170757492503 -3.7681284982863144
-21.24062235496821 -79.36803282194194 -3.7544539436720905
-22.000759093613837 -77.96985673237408 -3.7319730203093338
-22.17601582202638 -77.97510206063043 -3.736891067886898
-22.437616728003572 -78.53211172441296 -3.7615077827695815
-26.282016099600916 -74.61044450808888 -3.7460483160827733
-26.604817690873617 -74.98967294596291 -3.766597250933307
-26.774735860692566 -74.14513753640607 -3.745082538147042
-26.934624797634623 -74.11964170510271 -3.748796525030858
-27.166672033530347 -74.41925744860674 -3.7642505219640316
-40.91873234031893 -50.95094072956636 -3.6733025305935483
-41.63608312802692 -50.94398293864001 -3.674262494727611
-42.302027726761466 -51.575654768870415 -3.71141983512443
-42.254928137463814 -47.76612115211926 -3.692024517391167
-42.6702586427553 -49.18598478319093 -3.762454896899092
-42.56264983552532 -49.04045647848017 -3.756330063282376
-42.67297053051967 -49.16503891716198 -3.760949609587713
-42.795298618149744 -49.14084998793637 -3.7554891547525053
-42.59652075639681 -47.621010576866006 -3.6720715268944657
-42.99439419261486 -49.05628804211508 -3.7436316688807527
-42.935571687431825 -48.956168362175376 -3.738867472777333
-44.901129373329276 -57.70841173959048 -3.719396266069427
-43.5020455942454 -51.22567260518913 -3.6969343955912506
-43.021681896819594 -48.65019935851912 -3.7163541408103433
-44.931947635723816 -57.74959383363831 -3.7213671762735445
-43.75220640749697 -51.73464476219649 -3.7283366738281924
-43.20602982076279 -49.18273613365443 -3.745654277710291
-43.107943240142916 -48.801555498091595 -3.723218943449707
-43.11881273250172 -48.69223790042537 -3.7158122642099096
-42.98340958897085 -48.00505205550574 -3.678982026028964
-45.09171136550237 -57.95890838548892 -3.730797160351498
-43.8789247012095 -51.77118497540689 -3.731392998539175
-43.264299741768184 -49.022704747864296 -3.7329846509284064
-43.214814915939535 -48.61669582494972 -3.707869851934545
-45.17298775490174 -57.74020253511278 -3.726491743480786
-43.948592489534285 -51.63257935551576 -3.7236423616821526
-43.867835866415405 -51.53746655430125 -3.7174455673327214
-43.75002208666499 -50.84872210650639 -3.676422809378215
-43.359894000548216 -48.63360075998097 -3.7042288168291
-43.248077814750204 -48.488283431239246 -3.698673857703874
-43.203582635565326 -48.142273031413296 -3.679169072174049
-45.248994205568245 -57.73381473920237 -3.7280042209600053
-45.23648378416822 -57.59949707556491 -3.723804435103436
-44.02868055697547 -51.7050517394976 -3.728554716759086
-43.42752499060983 -48.71458396758925 -3.7072957677464835
-43.418988075787006 -48.66979985373017 -3.7046670594100837
-45.45425957751426 -57.94086454812775 -3.73836384096558
-45.38481332509682 -57.88102483990168 -3.735154323285729
-44.073501902776336 -51.31578918197095 -3.705740801048063
-44.02924089779512 -50.741379544027545 -3.671721528892738
-43.79791604842548 -49.598385832148324 -3.7599376368948536
-43.818340145777654 -49.45679763883982 -3.7485636279622003
-43.829114400051736 -49.41180857407794 -3.744866858102682
-45.59240609663123 -57.806279898226 -3.7374390725215725
-44.39795747114739 -51.82221828137433 -3.7385162648527026
-44.23358589417497 -51.15125914359611 -3.6971231032398646
-43.74237746866655 -48.4426054214339 -3.679485382848778
-44.35780981387781 -51.09887865403454 -3.6948872863257485
-43.98804799852287 -49.37273258546419 -3.737864726780894
-43.96579608538934 -49.21118258057728 -3.7261824592214303
-44.46380953440716 -51.08231141639177 -3.694699214934666
-44.4609352386539 -51.03773534083619 -3.6920272174467947
-44.19359430413723 -49.66999869921137 -3.7564059489574926
-44.0460173879412 -49.08692089724165 -3.7147731419972647
-43.90853750319341 -48.71447854014774 -3.692236788560559
-43.59851322286679 -46.705869451006876 -3.719889661906628
-45.892522488272746 -57.908777629997346 -3.746725515894038
-44.65052746514634 -51.47237283593466 -3.7196139026515045
-44.52994408408978 -51.15760580476152 -3.6996903472707827
-44.08447874580266 -49.09270341944525 -3.7141859811241704
-43.6638352123006 -46.7522024281493 -3.7170787380794383
-43.62410345504551 -46.66983298352795 -3.716629563730449
-43.648110751133075 -46.577546266573115 -3.7114010666996498
-43.35764810367006 -45.184434155195504 -3.6999576007175015
-43.2979500607032 -45.11784903839619 -3.7031422892987225
-44.691769670827654 -51.454019173626925 -3.7188755697514506
-44.615098404776184 -51.123083829100274 -3.6983151345495844
-44.65125748930913 -51.03052792525328 -3.6930401661722048
-44.63242901619934 -50.94697292555652 -3.687906733745914
-44.41767749240926 -49.8722632555427 -3.7683752394452044
-44.14759105618292 -48.59371244238506 -3.6767163052133482
-43.753271067985374 -46.76688938817781 -3.711234684873273
-43.700584050147505 -46.624628378046935 -3.7093937430571104
-43.69232495407029 -46.52532411180809 -3.7063399030946913
-43.693855476182364 -46.48880323881241 -3.704946539034644
-43.6393688808413 -46.356785952039665 -3.704442804243614
-43.7056412594318 -46.26009466695809 -3.6967980388261585
-43.654597886678495 -46.143059276086035 -3.6971057406373458
-43.64939299542637 -46.09144559702544 -3.696109855050861
-43.51067879025509 -45.459883647925295 -3.6932699849119466
-43.48861883228459 -45.36722951868067 -3.6935146583636516
-43.4615713880395 -45.283147858625306 -3.6942645458918193
-43.433323756832856 -45.16228544976252 -3.694809057447431
-43.43155254765962 -45.07409161306795 -3.6941175287302546
-43.41393667866626 -45.00104722289904 -3.6946551207684353
-43.349473533861854 -44.8711988504341 -3.6978621289027105
-43.36640813377198 -44.78303963430606 -3.6963046655895178
-43.33784379774708 -44.697772902676476 -3.697699036687272
-43.18265361216602 -44.024896660708094 -3.7067237090602134
-43.20662013598763 -43.884045092199436 -3.705897705373153
-43.163353667140974 -43.763749317889314 -3.7089183663761363
-43.16871194811337 -43.678466980408665 -3.7091184074520496
-43.12878742584099 -43.56490028994706 -3.712067113317298
-43.10641800186765 -43.45329298496724 -3.714100251342068
-43.056707043156905 -43.107447324924074 -3.7198577551972964
-44.79412592024667 -51.08920192095162 -3.6977582306224326
-44.74417886345554 -51.034767089379145 -3.6940587836351546
-44.67293881560225 -50.89828901717009 -3.6853153453902157
-44.66440950163652 -50.88118164687852 -3.6842114760228832
-44.46021278541906 -49.86788557435192 -3.7672121423711116
-44.427698341044945 -49.63899123336954 -3.7489368074946485
-44.29730669657015 -48.97136665388606 -3.699509661243658
-44.29485941990017 -48.927130266925204 -3.696261703152463
-44.26722085352987 -48.76642751764128 -3.6851835481757598
-44.168844225045355 -48.053355057513315 -3.756525825337035
-43.9219768967019 -47.00048537644084 -3.7094320768639326
-43.89654148265062 -46.920665945883144 -3.707592073007591
-43.86486970174306 -46.82329948563407 -3.7055830502400213
-43.82789494717659 -46.650726332605316 -3.7012422266510616
-43.735108481442715 -46.290006239130236 -3.6955965475733814
-43.75782240884597 -46.225967738118406 -3.69213500424551
-43.75006880377654 -46.13153744297829 -3.690092280094808
-43.71419577719689 -46.035565895003984 -3.6902095545554108
-43.703736269480416 -45.91681402775399 -3.6882248888440503
-43.69869947844315 -45.86288138675887 -3.6874120561576342
-43.696962300184744 -45.729482808359414 -3.6849795905043017
-43.645265743730754 -45.63310425889349 -3.686848106981861
-43.58238710169513 -45.551526645450316 -3.68980883600827
-43.58928095065291 -45.425065549340445 -3.687602555981048
-43.55531991772041 -45.3968708302431 -3.689480743562412
-43.49731975734158 -45.15977779569246 -3.6906498743115295
-43.49239774490655 -44.8926764774436 -3.6890044016811356
-43.48581788946232 -44.71996843949568 -3.6886816541196366
-43.42712327225403 -44.60651037039121 -3.69196986281764
-43.39216272213949 -44.49446517408141 -3.693929239013065
-43.404036965784805 -44.33498320912679 -3.6932406720496034
-43.322719433594045 -44.01109180277219 -3.6988010852693853
-43.25214912278594 -43.64115789141479 -3.7048113167424095
-43.25327040819727 -43.551719763829865 -3.705430392618324
-43.238291032900435 -43.46710977429475 -3.706961612649657
-43.17436605770257 -43.388204056444394 -3.7110037881853986
-43.130997957217254 -43.28475730060794 -3.7142519176265707
-43.104778944168096 -43.17658669952623 -3.7166414445926144
-43.08751442204179 -43.0588277713794 -3.7187588507363105
-43.08577380224528 -42.97708121909292 -3.7197612515765304
-43.08701132952928 -42.89627783112488 -3.720704847646766
-43.075383208776834 -42.71641353684737 -3.723488442263515
-44.9095975349458 -51.38912689417937 -3.7169254851698077
-44.891319108966876 -51.23358259678108 -3.707311381400983
-44.832025824513316 -51.12883703039954 -3.7004546270051635
-44.65480302074353 -49.94636657138505 -3.7704006990487815
-44.46098587948038 -49.14716996431261 -3.708866509314996
-44.3972147321338 -49.06978677005696 -3.7044324975046763
-44.219169505591715 -48.07817647332709 -3.755066909508489
-44.2240375166873 -48.01957097909968 -3.7503295993942034
-44.08868866829715 -47.45756535568356 -3.7219013873167963
-44.071157601186044 -47.34762577840321 -3.7167500838775824
-44.106773471361024 -47.306670084272 -3.7119363722563548
-44.05533439803351 -47.18307671246505 -3.7089403011871545
-44.07581913295303 -47.087008738686635 -3.7025840679786732
-44.03537940680657 -47.039994921559874 -3.703154466033708
-43.98639960184664 -46.90534285673396 -3.700432957532631
-43.81443130275753 -46.00124358194018 -3.6824329084974194
-43.812360457366715 -45.93867366737318 -3.681179490537098
-43.76481037339319 -45.82727233577471 -3.682191533196776
-43.750040995107355 -45.718975559802686 -3.6812100437060566
-43.74372483909208 -45.61597075741971 -3.679975906851521
-43.73038582852519 -45.542058756083186 -3.6798043532061184
-43.5446139420704 -44.57082755179391 -3.684849163091269
-43.18737201432894 -43.124366303487136 -3.71299375076614
-43.16036942977823 -42.7446276962918 -3.7189871285498843
-44.99299280306666 -51.30355134927598 -3.7125138698837894
-44.95429559012629 -51.09131081849227 -3.6992814648043852
-44.59562486132344 -49.27919625092107 -3.7162162871223994
-44.45284876143439 -48.66006141058565 -3.6722902059649782
-44.373281696305575 -48.13609073372004 -3.7495035789363262
-44.218168122840275 -47.530058116089315 -3.717230548239001
-44.211565503561 -47.44820998762221 -3.712697331375776
-44.19874913802835 -47.34938833735098 -3.7078081738820075
-44.16899266532725 -47.26791520507601 -3.705370683167204
-44.187935383392166 -47.19019317421491 -3.6998216858432933
-44.09887650135996 -47.07249293956553 -3.7001960546027934
-44.08254500971725 -47.02635663243902 -3.6991248157139145
-43.92200048573231 -46.120008852829216 -3.6777689187721743
-43.863996251164885 -45.82070909757877 -3.675283513125109
-43.77599494644155 -45.12490678250574 -3.672557418032813
-43.578573449712316 -44.3582571732895 -3.683051093955589
-43.44153670076149 -43.66303918002932 -3.694482077282386
-43.387739238576415 -43.4777648031165 -3.6989930187681037
-45.05621197677849 -51.273415518339874 -3.711275786660335
-45.074652886627455 -50.993451910826586 -3.694457434297214
-44.76441528772897 -49.87866724039673 -3.7628280457442753
-44.71237983372605 -49.61186199115829 -3.7411334605459357
-44.66287693702551 -49.025184557716194 -3.6945304732107473
-44.46899076330499 -48.43038605159415 -3.7677473852730947
-44.44611753071227 -48.21671330015568 -3.7512721427572684
-44.448243188092064 -48.148269496986174 -3.7456435139946778
-44.43200428069901 -48.01782982034576 -3.736503438603299
-44.44379131451354 -47.90121297538066 -3.726962299703511
-44.415905422030505 -47.85092162061518 -3.725166859217449
-44.40209671565863 -47.6985305664904 -3.715423613494618
-44.38233337320846 -47.619347518744526 -3.7115090246003235
-44.351319649715734 -47.5423467661533 -3.7087034293524455
-44.29907538801116 -47.465299814334465 -3.7075684149517603
-44.28888147747322 -47.37641477388851 -3.702983109067266
-44.2222435550711 -47.22839264783337 -3.6993972423275157
-44.244101732779306 -47.13733197176591 -3.693041309477537
-44.223468244118216 -47.09715920446343 -3.6924790787553725
-43.51295382393023 -43.74564515447706 -3.690017341515291
-44.86832578974084 -49.552602789800815 -3.7333331067447206
-44.73153498563826 -49.10578230655898 -3.699337017284568
-44.661719654641765 -48.52955126927125 -3.765099921749299
-44.61083004936117 -48.361370986390945 -3.753162749460313
-44.60808423097198 -48.273743082551704 -3.7458602688818656
-44.56971830538749 -48.19472835275073 -3.741690106639637
-44.525162482897144 -48.09033363016232 -3.7360937251893374
-44.469149889595656 -47.913476893173765 -3.7261927985014034
-44.46837867688884 -47.840268565946495 -3.720891792148682
-44.46665381809245 -47.69487366516933 -3.7107666200973477
-44.445800530150734 -47.61730318798645 -3.7069969283460362
-44.43915244370422 -47.516115527527155 -3.700906698227058
-44.32817415670432 -47.24610623937884 -3.692805381561497
-44.38265741932582 -47.10924512264288 -3.681679142607384
-44.30886927149637 -47.064387659823815 -3.68470477957643
-45.51073828502786 -52.12012817312515 -3.7682623767329173
-44.93894867635179 -49.38108660396538 -3.7176259631620807
-44.86134559401152 -49.273577494785044 -3.7101931423331798
-44.77371664130665 -48.961235607438354 -3.6869084690973972
-44.74253316665789 -48.57726742109021 -3.765010505070696
-44.70728177212673 -48.407276116123306 -3.7514040295968636
-44.66448382318265 -48.290974462816656 -3.7438600480339286
-44.656416781817185 -48.21119445349825 -3.737642551325437
-44.58802239672276 -47.93658216427517 -3.7200640166321546
-44.564097136672494 -47.77207850173554 -3.7095335208423905
-44.53855384702152 -47.677906642357485 -3.704694708272585
-43.667086534020974 -43.129909443890504 -3.6893803633887243
-43.36290027739453 -41.811485082188995 -3.725852365195469
-45.51538681132941 -52.04393508285983 -3.7636275016520786
-45.477879211833994 -51.80585333168471 -3.7484603462464774
-45.04624606403602 -49.5703790915477 -3.7318641092262133
-44.97176992028148 -49.36220472971769 -3.715450527742228
-44.98166886932419 -48.996201553917174 -3.6850692406561985
-44.84151367267205 -48.35333943124663 -3.7386730386277747
-44.76611271314796 -48.193119202535705 -3.729295184246079
-44.62454394194392 -47.582705155812384 -3.692348490669483
-44.603816811974674 -47.2872245999224 -3.76957892073994
-44.470528612376285 -46.9327721550163 -3.7642497514379665
-44.45722724921751 -46.85582058827681 -3.7621879301319017
-44.32795629063489 -46.24671564556395 -3.7571009837251887
-44.33642330207994 -45.966174011084156 -3.7524581108435777
-43.69775195357384 -43.11014723598212 -3.688207933447869
-43.7370560085803 -43.02127955154793 -3.687738012949378
-45.4338061363735 -50.90761140624777 -3.6927404575237754
-45.18736159984827 -49.83653138056878 -3.753083307125597
-45.17333723457095 -49.63317135378748 -3.735390504058369
-45.03977614099482 -48.77891040630576 -3.7693273339216424
-44.865642906938476 -48.30955973258723 -3.733344989220317
-44.84782757343061 -48.292113149364496 -3.732858146248532
-44.71849004163091 -47.45456659677708 -3.6775320250913395
-44.684960846500786 -47.0594889559807 -3.747656934563517
-44.5762298103052 -46.985051689855766 -3.755452158543008
-43.85093445910694 -43.22312837587687 -3.679369428424539
-43.83282509935881 -43.04009458245618 -3.6831002223779232
-43.82722436096428 -42.90707049754473 -3.685565425659964
-45.248324773775394 -49.56072140924853 -3.7280087104023503
-45.19282975148256 -49.26303516937253 -3.7031751954585634
-45.16479723626799 -49.11436178122862 -3.6911570522030948
-45.13175211246522 -48.96615222669175 -3.679502716150247
-45.12361644683038 -48.94553407792867 -3.677973446155975
-45.131121174830135 -48.80477798691611 -3.767609423432072
-44.865197471193085 -47.79880442249236 -3.691397626873534
-44.76650693695951 -47.07864663908391 -3.7399639911711784
-43.99106205515389 -43.325015374956344 -3.671307441637582
-43.959514922261214 -43.240319904064535 -3.6740977169560654
-45.302527769232846 -49.33779341971601 -3.7078293484739637
-45.261859897446406 -49.318905331855206 -3.706827049898702
-45.222069940471656 -49.13083217042831 -3.6914743231417733
-45.2199586301018 -48.934855110911116 -3.6751677075105023
-45.23911043934509 -48.75648239630176 -3.757469925169746
-44.7589768675127 -46.55123925798271 -3.718849357891365
-44.57684203560791 -45.54481703402977 -3.728934555721716
-45.34938867058792 -49.22530278334179 -3.6974088187335066
-44.94111981019226 -47.08678566900787 -3.7217936068590753
-44.92412588610902 -47.05626931866223 -3.7219320606807695
-44.63731869348832 -45.535627585635815 -3.723315661042489
-44.042110356039174 -42.43352475175729 -3.6858947430071014
-45.336622944235025 -48.71372291099781 -3.7484510455782774
-45.3857945700039 -48.57907387922211 -3.7319437079739113
-44.69423204924157 -45.525142620125585 -3.718070222699081
-44.60288638635571 -44.788600633519856 -3.7410726148163795
-44.59683368633695 -44.73073437359661 -3.743244554970059
-44.520686807719116 -44.64584332445443 -3.7519411330095958
-44.47975308727218 -44.49935700117678 -3.7597314603604586
-45.443594459536 -48.28405288317863 -3.6988878330299615
-44.85056564479391 -45.50003644062687 -3.7039252402765572
-44.768742435916955 -45.14309997460327 -3.7179779976756357
-44.70169588492681 -44.837299634923994 -3.7315856805078145
-44.58622976687239 -44.161702501714984 -3.763687494111679
-44.23794280000382 -42.58384117731143 -3.6750914953942555
-45.85651231020905 -50.02797342356733 -3.7651911812116468
-45.50892646840373 -48.50901830258673 -3.71881624719768
-45.56895497531768 -48.46230234190473 -3.711092328601233
-45.12136056843235 -46.5331302123229 -3.67995489873271
-44.91672797146141 -45.53799814788707 -3.697301336784129
-44.86415658461514 -45.257509143733756 -3.707144267979363
-44.804822060574494 -45.09260913179572 -3.71610898684866
-44.831986152787614 -44.95516506295726 -3.7175436432786544
-44.773645914931976 -44.80322917547301 -3.726810233256549
-44.77306972347358 -44.67571159935349 -3.730956523323081
-44.71567613642369 -44.65634423679847 -3.7360807896339914
-44.034552646629706 -40.95879144338001 -3.7220907200209865
-45.48533009494668 -47.60274891348412 -3.703055256001425
-45.448861299346426 -47.40421515753149 -3.756317499042171
-45.203239861200075 -46.12442375096227 -3.7424121784809685
-45.05665978252418 -45.63254509578513 -3.6831069776540204
-44.953027000559786 -45.17643625812216 -3.701474514553368
-44.95359767038185 -45.07775833703045 -3.7040730756881617
-44.94720010079394 -44.92813917753154 -3.709043957494886
-44.878196116550164 -44.81275286388017 -3.718198063493129
-44.16259787778868 -41.0039431438982 -3.7170545719565333
-43.96579892851342 -40.18325352466118 -3.7454565900991095
-43.94750796872722 -40.057748430946766 -3.74955920261925
-43.94899389659469 -39.96949525257205 -3.752085672382663
-46.010254835427126 -49.78333884779925 -3.7418302955294487
-45.78796767870192 -48.59211568132435 -3.71602068970171
-45.62886026365291 -47.784296776762616 -3.707327137621677
-45.59257181098182 -47.70325383174146 -3.7283512968865775
-45.56116668879953 -47.6130468038107 -3.745702103608031
-45.49438080037477 -47.40532196866311 -3.717667849405501
-45.26213765780663 -46.15734883065376 -3.734290123611663
-45.19591018103353 -45.5727990624256 -3.671514998836883
-44.83714706201683 -43.784754001514635 -3.763075580303695
-44.29388620788937 -41.48195444584675 -3.7002908078611814
-43.98339682044698 -39.94889310416591 -3.751728089793288
-44.006532935653425 -39.87204473774171 -3.7533530913618707
-44.01382165108986 -39.79182990311069 -3.755458896871047
-46.29261931018718 -50.64629837826479 -3.6868174780571494
-45.84434744789453 -48.47289563809799 -3.700412933170686
-45.700973657653485 -47.787359644784786 -3.733224956405305
-45.645863648304044 -47.697490146683144 -3.7396537860931254
-45.53101615899584 -46.75866568429475 -3.703775168088091
-45.506416487737575 -46.70824656046968 -3.7469877689455204
-45.49982466533463 -46.55406734586135 -3.76599467174832
-45.49665444000566 -46.53237009102033 -3.766335067993094
-45.30717276202928 -45.70796711054577 -3.738556770063263
-45.17344569399314 -44.940983462463315 -3.6910220442341255
-44.95466711597516 -44.045166917417305 -3.7434387125641484
-44.06886890824226 -39.75402720640598 -3.7552382344713835
-45.953940572321045 -48.39834400480227 -3.6877359938379275
-45.918958221354764 -48.323509389820536 -3.7041771201769693
-45.85420605295268 -47.892457475347165 -3.7444076427841897
-45.585466917173655 -46.749327306791415 -3.715258857737132
-45.6093829640509 -46.67563656681422 -3.723491090619125
-45.58203925326512 -46.61498120708849 -3.752344564690398
-45.42486848004709 -46.018532523433066 -3.7150762818067573
-45.364518144219296 -45.62069177662822 -3.7350179294730466
-45.27568980166713 -45.292094693834265 -3.760242202283773
-45.23084430559814 -45.013885333794455 -3.68408365655205
-44.96540453354778 -43.64063594340313 -3.7624127541235546
-44.64040844198238 -41.95613534931903 -3.6771192396059758
-44.64317872015676 -41.87805347408006 -3.6791750860346117
-44.129461375372216 -39.688215389497785 -3.755721092213349
-44.175584745698586 -39.660917843721066 -3.755442687108982
-45.98498201931675 -48.365881028260624 -3.752824502375212
-45.93849693868963 -47.9512422703283 -3.7156438492206982
-45.93457211946803 -47.85420137291926 -3.7280972731949817
-45.657830994754526 -46.76043247253887 -3.68578089796458
-45.663308790783304 -46.65946863782713 -3.694679857599827
-45.693303472737384 -46.60417273512483 -3.732591635708377
-45.25866429128301 -44.36139726214955 -3.709313425411576
-45.1846973255766 -44.249561110641594 -3.7192720284820826
-45.16758493487437 -44.1022315722504 -3.727411904617034
-45.141867823796304 -43.97519434621419 -3.735215856339863
-45.11686809781482 -43.78797566679369 -3.746188000807042
-45.066812700494445 -43.72686926097123 -3.75218145022042
-44.72789809413119 -41.95823212692815 -3.6744713325795506
-44.6674383571633 -41.753619082921645 -3.6819354991060047
-44.25372620573674 -39.6343474131091 -3.7544560751696205
-46.669109763830626 -51.25945446487489 -3.7312803193783814
-46.41640851833188 -49.83106669517369 -3.746689348443508
-46.46260140470324 -49.76280584601658 -3.7403308979404537
-46.37930833388369 -49.56796465328482 -3.7213457444829685
-46.14795245950716 -48.48036195001627 -3.7252759572712395
-46.13762195395519 -48.414771500217945 -3.7512165815014553
-46.02832235840374 -47.94399247777243 -3.7513392921508704
-45.994867849038215 -47.822004403258845 -3.714297025578409
-45.97421970819461 -47.75994710749103 -3.69285435424853
-45.76807887826016 -46.61128489085342 -3.7195551444585577
-45.45067458113905 -44.83787117077512 -3.675172238019331
-45.42139480116401 -44.79713764995789 -3.6789349721432023
-45.38863466999343 -44.59184404595568 -3.6902833824531522
-45.25101627184045 -43.88402240456587 -3.7336257562058517
-45.163270430841465 -43.787924618578785 -3.743535808336421
-45.18984844603392 -43.68705294333153 -3.7474262883966674
-45.17034762659956 -43.63181658309652 -3.7514241940084774
-45.135207888269 -43.4226207328988 -3.764635701340793
-44.77448820178093 -41.92363927464092 -3.6741259591501394
-44.36145909151614 -39.64705366187894 -3.751698020568828
-46.80707232029083 -51.367333989132504 -3.740460739160242
-46.56355211432109 -49.91811666178799 -3.756018806666447
-46.50860358982093 -49.75356615997906 -3.739679175457143
-46.400693424987125 -49.19280325113329 -3.685643837699237
-46.426103265319526 -49.09825827028667 -3.761447198417017
-46.148481585405754 -47.75088826770086 -3.7612560411100797
-46.072292826078716 -47.693106032964394 -3.7363746001283826
-46.06857744998922 -47.6280390220107 -3.7522832640551496
-45.988845888943366 -46.97192342547633 -3.7157019246934913
-45.93863937861022 -46.94376796714293 -3.708104662145936
-45.926610058488684 -46.66978905590385 -3.6924583161865594
-45.83647379593137 -46.63002829712516 -3.7590791717480267
-45.73439325983985 -46.03573524087935 -3.675719789785862
-45.54992773860845 -45.08418005097321 -3.7444841389781507
-45.550827893073574 -44.966938530005066 -3.7523750335040615
-45.51053752872465 -44.828685315112864 -3.7468295118529094
-45.490075181305095 -44.7670050596787 -3.723174357025264
-45.46153713200908 -44.56991727999334 -3.6867310311463903
-45.283804574524595 -43.83296492320279 -3.7345144039909184
-45.259517025604644 -43.66223203274097 -3.745044640127977
-45.23495082062607 -43.481526902810714 -3.756282122006177
-44.450930067611566 -39.653623419176036 -3.7495558852335473
-44.4877136515262 -39.60391804835025 -3.7504029870959767
-46.96268355655063 -51.299518891862895 -3.738954331548612
-46.65476467128274 -49.825559503421026 -3.7478026195981906
-46.655398785018704 -49.766882336904104 -3.742126459337448
-46.3424918376853 -48.56144957992331 -3.7640709770765963
-46.19672418162437 -47.765192452784824 -3.7242531302043282
-46.06219102115379 -47.00671458931051 -3.7690190087535265
-46.02651224102129 -46.633169468055954 -3.7641226271732395
-45.623414329761665 -45.042025027666206 -3.740524950251756
-45.62558709251181 -44.82196917311988 -3.756259535032633
-45.46945896095597 -44.262129630594124 -3.701664260304334
-45.35459860632702 -43.65884791451764 -3.7403488141599563
-44.57117973410867 -39.59753771441199 -3.7489388885985164
-44.53274593472468 -39.57124056367478 -3.7504256423659403
-46.98458689402572 -51.18879638487475 -3.732323110384545
-46.756411450134074 -49.86077137953014 -3.7522792210437563
-46.71489687395608 -49.85144919062835 -3.7509452588787284
-46.705990218685685 -49.71739374429564 -3.737792760965196
-46.23527347908952 -47.327608159520636 -3.766050395961328
-46.23832349415085 -47.29056458216982 -3.699158819969918
-46.22000542611259 -47.179886084225615 -3.6823783103107495
-46.17006174329018 -46.869073953438146 -3.7330855031432644
-46.072967092525715 -46.657469623374325 -3.7306999637289375
-46.051543583224976 -46.57909843790802 -3.758550207073771
-45.70822432471113 -44.90623316021158 -3.742961180003565
-45.68174081039954 -44.83637419528252 -3.750465483362904
-45.6876033368071 -44.755193314814306 -3.7562561315929983
-44.650389157862264 -39.57861321939878 -3.748015580316253
-44.61960876933962 -39.57262720790232 -3.7486893483754358
-46.323255033716414 -47.2689255440005 -3.7182288497139755
-44.80000744588837 -39.7151692525331 -3.740876906234023
-46.869826170609606 -49.73128636575199 -3.7410047361415573
-46.60821215404113 -48.10560939952637 -3.6999700715095174
-44.98068650070566 -40.295460657211734 -3.718920075721064
-44.8575046191261 -39.69374655530273 -3.7405883556835167
-46.70347731702847 -48.08862126284546 -3.6969980775313886
-45.01748785071858 -39.85016514819736 -3.7327704445187435
-46.75203958692035 -48.06301881874027 -3.767263231461988
-45.158297639345065 -39.87826248674827 -3.72963667754123
-45.07649406721879 -39.86735240076827 -3.731336964665681
-45.072446328560844 -39.72448301966099 -3.7360603224766686
-45.18943378171854 -39.8940641458645 -3.7287553592771854
-45.204040310188844 -39.80770840863403 -3.731374843583792
-45.22227845962991 -39.73089184110644 -3.7336363705249127
-45.27922837922441 -39.694487570407595 -3.7341560249697765
-45.39495896540887 -39.88282190147072 -3.7263860612825543
-45.421589439754754 -39.78512563292854 -3.729376403925619
-45.3983611027324 -39.69523276824473 -3.732604198475575
-45.39817035966439 -39.14131101109941 -3.751578103608423
-45.474874268419335 -39.05022789692141 -3.753931001655709
-45.53117575705156 -38.9856756137242 -3.7555902582070266
-45.5668762611932 -38.950513688026646 -3.756563643515058
-45.636508330489285 -38.93933274443505 -3.756339586491945
-45.619088622558714 -38.85313119750936 -3.7596004767269986
-45.65356545831372 -38.73431976679694 -3.7633787007134485
-45.72327591542632 -38.80045030265026 -3.760582179758305
-45.710895555067864 -38.73464448206236 -3.76309659503238
-45.78248910499639 -38.64354339529952 -3.76578463983385
-45.86825722557926 -38.53735101758055 -3.7691183377111166
-46.00888185042917 -38.5867997011767 -3.7668549638558675
-45.95846751266795 -38.54081069789548 -3.7686146311873316
-46.08620608400485 -38.62383504859912 -3.7652390129370534
-46.211495297310925 -38.70468589390296 -3.762076740901808
-46.381787467939056 -38.82595398204851 -3.75764052127103
-46.31866935992782 -38.770526929188826 -3.7595720709458367
-46.437327238100465 -38.82374590350129 -3.7576556273626522
-46.60797658034453 -39.03605977176502 -3.750235429834681
-46.55940755890137 -38.933684718768745 -3.7539083515979237
-46.50854163168472 -38.834800545653685 -3.757346635767222
-46.69406189038723 -39.10094217063507 -3.748167196145715
-46.84804122732708 -39.205033171433094 -3.7452909228534454
-46.77594340561305 -39.088744924646925 -3.7490773991025628
-46.98367076280077 -39.327581531016726 -3.74182010406644
-46.93007715451788 -39.27812292846675 -3.7432397244745514
-47.17085657135553 -39.691681489202395 -3.7302979288519063
-47.13250060374513 -39.58416053163097 -3.7338210869628035
-47.08104568526606 -39.554996963321116 -3.734389029184959
-47.03886788921537 -39.439991757749056 -3.73818243860749
-47.010649222115845 -39.37071029426235 -3.7405272088973676
-47.29188821226328 -39.9130650832983 -3.7235156760171937
-47.23299936560842 -39.82344639908301 -3.726116063524578
-47.19585062991149 -39.717578251113466 -3.729559340033649
-47.45485390188068 -40.169176868865776 -3.7162600876966954
-47.4095436195653 -40.09185233094812 -3.718438822646113
-47.3511765122204 -39.990526762298245 -3.721395597867922
-47.51529561924389 -40.07959194949419 -3.7203775821965017
-47.683555075510384 -40.20703658544082 -3.7183998936951914
-47.66742065991603 -40.10183824068624 -3.7219120543853115
-47.61223562706479 -40.03140503596987 -3.723616986307376
-47.79553837818916 -40.25989615331128 -3.7183958362732934
-47.73572825049121 -40.130727425165894 -3.722040129075615
-47.933133493165265 -40.48702682115512 -3.712851428371771
-47.88676268951377 -40.38190210922248 -3.715729168920432
-47.83533385029071 -40.32031591316422 -3.7169789272742664
-47.78171216692253 -40.14634980699152 -3.7223237807822502
-48.08913527076807 -40.74265761135969 -3.7070389756968933
-48.06009250907027 -40.715450774726584 -3.7073288863101803
-48.02474038114549 -40.56569986498224 -3.7119572921581057
-47.97459872310996 -40.51921326642298 -3.7125820392220583
-48.2364209735745 -41.020642382496476 -3.7006999046078413
-48.20573671478459 -40.954634355240906 -3.702266317745362
-48.191617545186794 -40.84194535921127 -3.705946313048954
-48.149487637899114 -40.769707249960824 -3.707482783421369
-48.329907749104635 -41.13422760824133 -3.6991642965749576
-48.28314156235197 -41.050259917739915 -3.7008543611026123
-48.584151807850624 -41.6890353058606 -3.6920285483258324
-48.55237001119519 -41.466143050201886 -3.6941449271884172
-48.51586593564159 -41.409055829593996 -3.6949767416431443
-48.51210168918145 -41.24816155020648 -3.7003690464061907
-48.47602884850783 -41.17861298485297 -3.7017269362730314
-48.42032505336786 -41.0973296787423 -3.702950773537384
-48.68932432325362 -42.068597604276796 -3.6825679527578155
-48.7362966240359 -41.95512650108253 -3.6839386425461194
-48.739127393698816 -41.86667604019387 -3.6958723131188007
-48.660935314518305 -41.76547862611176 -3.6965325145728936
-48.645408675880574 -41.67348473648771 -3.6935525418714814
-48.64749361156346 -41.59685923577527 -3.6927988499308304
-48.58712229555123 -41.473523771752646 -3.702134784094662
-48.60459356248161 -41.37925808640802 -3.698732802635114
-48.5053218410043 -41.18509651898756 -3.702390042283373
-48.83381217386243 -42.05979200770892 -3.6928420707716683
-48.79485029472273 -41.95381281569478 -3.6949709710752305
-48.7809255451617 -41.88100453323616 -3.69699856671976
-48.74467387958109 -41.786853510999876 -3.698929741509806
-48.746942810873186 -41.68963749743868 -3.6962127535160185
-49.08842779544603 -42.6138997121582 -3.6857006329544824
-48.99664532435437 -42.438317963482596 -3.6870609032921973
-49.00400923453994 -42.31010866814234 -3.6916790983689856
-48.966736046278285 -42.21207013063488 -3.6933105915228053
-48.91954476634166 -42.14235913659375 -3.693608736796914
-48.89588524451407 -42.06669256120438 -3.695217554922975
-48.82973872348214 -41.74144711474025 -3.6943154859216643
-49.23367566569258 -42.999220634119496 -3.681354103005901
-49.2097746716886 -42.779414498163646 -3.686675763494673
-49.20225123671642 -42.63384014516299 -3.6907864388105676
-49.16371020891841 -42.49454273378012 -3.693244272499883
-49.091413049407976 -42.38287452954404 -3.693344000281447
-49.46992924941858 -43.8425776023324 -3.6742485543164154
-49.50493438712266 -43.78218414173392 -3.6778818092985026
-49.36897686982122 -43.150479080458304 -3.6846762283517736
-49.346172206261905 -43.041562045494835 -3.6863832589255825
-49.334624241417416 -42.985080599171724 -3.6873263319627543
-49.30654884374264 -42.88955765282982 -3.688550705462526
-49.284473260385425 -42.7681148528396 -3.6909611862409615
-49.240043842985685 -42.55348997571262 -3.6952147240102744
-49.198914763509244 -42.52618473287111 -3.6939717700245183
-49.157047773763466 -42.37762655031046 -3.696652138788246
-49.60897821990478 -43.799429180473666 -3.684635458967992
-49.53545770996238 -43.5356313137764 -3.685321513786783
-49.516754575286434 -43.4271316541292 -3.686628408770156
-49.49723118251797 -43.329327398370616 -3.687762016886936
-49.453860543526055 -43.238611132550986 -3.687354174319329
-49.42812761146956 -43.14604022067911 -3.688243163927243
-49.412896072237814 -43.04613750770394 -3.6900561609363844
-49.35774234668572 -42.88019914644731 -3.691645518210022
-49.774354078270605 -44.061674390936425 -3.6918971330092614
-49.74370671766887 -44.0048297026399 -3.6905303551898525
-49.7277103348219 -43.9099826317325 -3.6909663231339302
-49.7048863756 -43.79889751077934 -3.691343851230521
-49.65528087177113 -43.70261856523347 -3.6897659918081183
-50.004246868742605 -45.07811903479538 -3.7037268379167463
-49.99291750990379 -44.5288391519125 -3.7038742486420406
-49.931835507583486 -44.466789499649224 -3.6993570663018964
-49.909227035923266 -44.37803201598331 -3.698321984659314
-49.932679212761954 -44.26688999394573 -3.7013268319370316
-49.88182726681727 -44.159243332426264 -3.6986574921778996
-49.86339748846699 -44.06329963099254 -3.698545756174045
-49.85498324359292 -44.02395931394602 -3.6984807133015187
-50.23275677032809 -45.416684868101214 -3.7273490737828734
-50.244182299866125 -45.33621514370678 -3.727481209952925
-50.197594139582854 -45.24283533707019 -3.7222454583408813
-50.17238910323491 -45.041777001575745 -3.718679318757448
-50.15356324018007 -44.93105867763229 -3.7166540018614955
-50.13337932861166 -44.842202704318126 -3.7147894759022555
-50.112485704897075 -44.74623920302475 -3.7130562345903697
-50.09680472766731 -44.63766995428186 -3.7120040669377765
-50.04501496138815 -44.567698739992096 -3.707970145228359
-49.99049645630752 -44.446808436449004 -3.7042719380959634
-49.972170956469014 -44.39859309679563 -3.7031756362857173
-49.957140512426484 -44.25607514893743 -3.7033679612285577
-49.94383227150031 -44.18791957037639 -3.7030974065301323
-49.92343251957913 -44.078345482211695 -3.7028954044164295
