ply
format ascii 1.0
element vertex 818
property float x
property float y
property float z
end_header
-33.8942248155469 -22.49829510921571 -2.1460494054797543
-33.86411559022928 -22.422745711676516 -2.1344418020597047
-34.00658867062914 -22.638347674246596 -2.1463504182974766
-34.0012926394839 -22.59783821604286 -2.1539556763435455
-33.99629553158286 -22.480070208375427 -2.1181555671876726
-34.13327477597844 -22.622040416350977 -2.156696094412725
-34.10167987811071 -22.570810726745584 -2.153717537032339
-34.086033046422685 -22.490501794120703 -2.1499018082690156
-34.05450330440158 -22.40413661966101 -2.1322805105541542
-34.222601553459185 -22.63273482558779 -2.1544008921669975
-34.170387401555594 -22.5775923278136 -2.167666590919815
-34.37084115018605 -22.77194262029011 -2.1512611147034804
-34.356685135084994 -22.72056109867664 -2.158752448676717
-34.314109358329304 -22.62558966826976 -2.1399422178994687
-34.51228061999774 -22.948839838415537 -2.1404417636430733
-34.5070501192877 -22.929093732262352 -2.1428212775143116
-34.4589511893071 -22.758435448682633 -2.1578356228350706
-34.44758789126356 -22.717787345761355 -2.1359480028119915
-34.371208749802115 -22.618155681971174 -2.1226397687283916
-34.36668795002001 -22.548305855865877 -2.1323372737412
-37.615290875327766 -37.90918510763791 -2.155914428374002
-37.61998783538552 -37.74208796094453 -2.1525537995985453
-34.56138309874485 -22.902097545816815 -2.155419667251808
-34.54990678463229 -22.76197292191523 -2.1407187283477285
-34.54430411448586 -22.71644100987309 -2.165667609348529
-37.69510261140242 -37.83343160292323 -2.155140932578588
-34.68013699635556 -22.83944057929158 -2.1777412339525872
-34.66654404045782 -22.772673375470784 -2.16744604171369
-34.62503216644379 -22.64893732806166 -2.1470383085941944
-34.62658122889336 -22.60487481612021 -2.1529953079753277
-37.766411240047944 -37.72199122761541 -2.153579949381426
-37.50646136023606 -36.485868116934924 -2.128149725111094
-34.83603360565375 -22.945868429027108 -2.197503543879757
-34.764645153053344 -22.84229894790993 -2.1955111438414296
-34.73845450277063 -22.755614690860433 -2.1692347467066906
-34.73814273259548 -22.622692289975685 -2.165555184942712
-34.73077444000674 -22.564862585916174 -2.150571989864008
-37.9942855261836 -38.33057612348573 -2.166557827680614
-37.94966836667393 -37.81862445274892 -2.156475132399008
-37.64663496121656 -36.640392014159374 -2.132082240982318
-34.86086958367042 -22.974198145025568 -2.1987855822019347
-34.878213550622 -22.92335137184311 -2.2087199101371633
-34.85980150524379 -22.815882586486055 -2.1801062809784284
-34.848851913352306 -22.731027217535274 -2.168938232513469
-34.810603827074374 -22.617449492768326 -2.1608300162734397
-34.81151698815718 -22.52759356832955 -2.122718904673652
-38.040197352913026 -37.778951224956714 -2.156334756493707
-37.848332417499826 -36.992928237127934 -2.1402068863665127
-35.013820663102 -22.877161074646306 -2.1814608642320747
-34.96880415676714 -22.79675993606342 -2.1705483710896956
-34.97294445029557 -22.7020985496353 -2.128931941770738
-34.93490438578642 -22.595826702885685 -2.13242022273033
-34.8985075180387 -22.541200117245133 -2.132367245623906
-38.01319632300426 -37.36678808926248 -2.1482249698492053
-35.12852590649136 -23.0443490155837 -2.189149463234065
-35.11121479078356 -22.95785044190873 -2.192549264637578
-35.091549685797204 -22.881121764590265 -2.156655327317594
-35.070028998010265 -22.78325465451686 -2.1371335271764127
-35.04659226569354 -22.69588317864437 -2.1400369357949804
-35.01413259527495 -22.60901139389889 -2.1421671403414244
-35.287784721525334 -23.19954558276827 -2.2129934301284537
-35.25808518079714 -23.11468266710451 -2.211131712131456
-35.22182703306341 -23.043114367599422 -2.1792846329880664
-35.19936667952533 -22.949283636618446 -2.1700146476667257
-35.167186474598964 -22.891338469974627 -2.1455155883019827
-35.332815719640436 -23.09899004877801 -2.1644482051371834
-35.34869792613326 -23.01936188110629 -2.1703891884496516
-35.29124782039843 -22.922768997754098 -2.16483862371374
-35.43979747332 -23.09689058869501 -2.1754318188755852
-35.4248576547245 -23.010090300602265 -2.139439343394469
-35.39927108990132 -22.942150128518843 -2.114788512063993
-35.39028415252338 -22.840611716371217 -2.1160960733727405
-35.35404459187123 -22.715551661892665 -2.1149902054226124
-38.36634914020478 -37.061593223113 -2.144423173451565
-35.5124391998502 -23.116435590072662 -2.197332591689496
-35.50911554670332 -22.988660172424318 -2.1304574195668673
-35.65334089627495 -23.030501846815415 -2.1523672192394887
-35.63063004935069 -22.991258509107112 -2.149171613607107
-35.80606937022444 -23.262159191196268 -2.1778031494960737
-35.74389767368735 -23.138365623094252 -2.1664851108160814
-35.76297963123243 -23.030214847788756 -2.169762563602714
-35.73516442652236 -22.97766263020417 -2.165700001927314
-35.87157116654551 -23.239768394088838 -2.1688759936237787
-35.87305299946487 -23.138262154950993 -2.1877691979171123
-35.8262511248493 -23.026114066529892 -2.179947313868482
-35.775494817013296 -22.949035354869082 -2.172262458691386
-35.992679103741445 -23.192743446801412 -2.187906202801419
-35.95179064171097 -23.106370927876913 -2.1593369205833173
-35.92103209768877 -23.029622299655156 -2.1543144232714444
-36.09063086555794 -23.269336530045116 -2.1423731940381048
-36.084853089377006 -23.19950217834245 -2.139481140744327
-36.017592013365885 -23.09999191325534 -2.1278253999865546
-36.170559960826175 -23.245923855795873 -2.152587485679861
-36.14851301761663 -23.153284835205522 -2.146830835453612
-36.33609396507244 -23.410157652698096 -2.181568192541909
-36.35082012560129 -23.35064497007641 -2.1812562631594403
-36.2861364882173 -23.24841777637481 -2.168576556603979
-36.272385486465595 -23.193356239226812 -2.1648814220046204
-36.39727553537321 -23.32058903607796 -2.1865823364230526
-36.38425187907086 -23.23411379333763 -2.1816378302053874
-36.624416653365344 -24.023327674079773 -2.1591400280923767
-36.55075188005373 -23.513480697843136 -2.151451509216679
-36.523251131459716 -23.39711357450999 -2.207292874022855
-36.47480113221348 -23.304575715314748 -2.1968029076751785
-36.46121917488483 -23.241310838434785 -2.192564409026349
-36.74161496344435 -24.138617714830318 -2.1801215705206376
-36.762464560685096 -24.083641912221093 -2.178406202282151
-36.7349667306949 -23.972160885267908 -2.1676628486516116
-36.720629952567336 -23.78007043188396 -2.153528601821613
-36.66172811379644 -23.698311177666042 -2.1421381728584152
-36.66296043888747 -23.479031104486246 -2.129822654863036
-36.567275429827276 -23.38557716480897 -2.2130016315107746
-36.75566731596727 -23.742182305276337 -2.1549257748195414
-36.771428133488264 -23.652995059469678 -2.1512930652227578
-36.756462413104764 -23.559724681842457 -2.144280063580255
-36.75529911431608 -23.44665641805279 -2.1379277005289197
-36.712091910449416 -23.36948680000735 -2.129280250974098
-36.72586991479781 -23.17353830603061 -2.121170821988999
-36.922421068210305 -23.881173935027356 -2.1818969080966193
-36.93376885872941 -23.854127893721888 -2.1813282507922955
-36.87084956354035 -23.697407548957614 -2.1646819090198495
-36.874851190573835 -23.63431481009184 -2.1613374619627765
-36.86372540558111 -23.531213929801705 -2.154181991713376
-36.83168114713618 -23.34975251187171 -2.1409901504406976
-37.028413915558325 -23.901317012574506 -2.1946946929996005
-36.98542872653778 -23.59668220769544 -2.171000532103751
-36.8971150566776 -23.340740038491752 -2.1474434879412625
-37.104864317305314 -23.969064552060647 -2.2075212404939872
-37.07413624645165 -23.79399684723387 -2.1926213053245838
-38.27247267076007 -23.773529861905846 -2.165893139450191
-38.30916338475396 -23.78603705377013 -2.169327093256261
-39.72253005655366 -24.530574768839813 -2.11985941530939
-40.186969346484844 -24.78493949449173 -2.155687387511962
-40.27764528990921 -24.817278377218148 -2.161309125879504
-40.37517780375801 -24.87483433308665 -2.16914614531069
-40.502099602570404 -24.93625265511167 -2.1784750253253615
-40.68073769972513 -25.09003456792391 -2.196293381186755
-40.698468228485716 -25.092384609759673 -2.1971349300062215
-40.88568791180459 -25.181398899791482 -2.2105754715222727
-40.83197070949975 -24.56802191882574 -2.1647653762077685
-41.02035805078696 -25.053279677268 -2.206457548503974
-40.95302201763063 -24.43035920244457 -2.1596223359077955
-41.002557641467305 -24.50556948936593 -2.166669138662908
-40.999533268063566 -24.456932841709932 -2.1631148809397747
-40.96454930859932 -24.35802621930557 -2.154796720542337
-41.091284694614544 -24.28851303687718 -2.1548794417894874
-41.517434341663645 -24.563166058201272 -2.1905245243904545
-44.008246108511855 -28.91699714082587 -2.2129911517218126
-44.068499188821065 -28.90218177354742 -2.2121038348970794
-49.326544988364134 -40.48082201952442 -2.1529341581899475
-49.28434256193197 -40.32276451262632 -2.1488284444220436
-49.24980473026589 -40.167941398382425 -2.1439965275127224
-49.12724474085969 -39.92545384899409 -2.138379828886145
-49.09265235291884 -39.72947731381157 -2.1323635594106056
-49.87627128149672 -41.776891059147474 -2.185780123732251
-50.04170913609376 -42.33166548812108 -2.201052844203142
-50.001460570644944 -42.15879252096589 -2.195879564213351
-49.907879449393675 -41.69441824408064 -2.1831051503914667
-49.92211704918436 -41.58395765660215 -2.1790246926595107
-49.92101494014851 -41.46016534038871 -2.17546877920694
-49.85057616433785 -41.26923183438284 -2.1701104156421183
-50.27046873307635 -42.719038346450006 -2.2094047186674626
-50.130202863879376 -42.17793754730092 -2.194988170549334
-49.96460112792296 -41.27794777044133 -2.169017020703458
-26.504958762981197 -19.27635647199651 -2.0750662597145
-26.587933574874533 -19.275419190580806 -2.0714766418559587
-26.58774749588351 -19.20490411920735 -2.0698668507411724
-26.662711844990838 -19.200715504297964 -2.0665933443898767
-27.173056252445903 -21.082039552907403 -2.0959186399126604
-27.311571198217557 -21.090584211712088 -2.089292023445956
-27.25993591235692 -20.9983903964768 -2.088687589686996
-27.13909542935251 -20.476009663872183 -2.077986753586126
-26.856330083623067 -19.296148557324337 -2.060307452187085
-26.894493604541783 -19.28633791973788 -2.058560888356818
-27.409119522741324 -20.535139190754666 -2.0668767019401573
-27.44499612667277 -20.534988005381983 -2.065246944101273
-27.466027042840196 -20.47753518244771 -2.0626485455420864
-27.28111692919757 -19.51790855606109 -2.0470370444053523
-27.36827768961894 -19.51152085100211 -2.0432772634426417
-28.076685014497368 -22.627944652460148 -2.112519762161955
-27.721283790153457 -20.76074719989849 -2.0587497270778456
-27.439804868713537 -19.4449496755638 -2.038900785525268
-27.698720957245925 -19.449612042641274 -2.0284026544350495
-28.125511607936886 -20.809748819239488 -2.0412402557743934
-27.85716132148164 -19.601768017140536 -2.024765499394204
-29.031568828577708 -23.477900533126018 -2.1046895591439916
-28.997513146795576 -23.41342338904041 -2.102846004410455
-28.315448169340556 -20.00134956929249 -2.013764684622004
-28.18425263147593 -19.78186796694237 -2.014909084892214
-29.139961741374567 -23.58089271832805 -2.1046326611150383
-29.111851511703676 -23.496571705089366 -2.1012184716572846
-29.119550482298838 -23.40548932835884 -2.095468009062796
-29.009727416302496 -23.251972394648703 -2.09303419074424
-29.22807732221127 -23.752932908876023 -2.110204677230889
-29.216498628936677 -23.657177195105437 -2.1049114672100875
-29.211090923528182 -23.54237900387195 -2.098293685750529
-29.192226296560033 -23.465159074488373 -2.0948429025989403
-29.1904437615271 -23.38296565751178 -2.0902243646212644
-29.15080924910739 -23.292969641408018 -2.0874140365327887
-29.76582440678121 -25.74884395022639 -2.088104108837784
-29.778576365473747 -25.710631680253947 -2.084465039834551
-29.420165540603527 -23.925144738978517 -2.1103129133503584
-29.372287177286047 -23.851729978943453 -2.1082816011354577
-29.27208677846877 -23.59025077900861 -2.097661269578566
-29.23000999180393 -23.351571768129737 -2.0861963058107484
-29.897567574140673 -25.867810181245364 -2.0963990426090326
-29.856348417773724 -25.81098438457197 -2.092007468732224
-29.842002386162193 -25.661651002376388 -2.078909655202755
-29.799843573312412 -25.408092345056726 -2.0576403386032776
-29.476176268891244 -23.896589600633224 -2.105227522203546
-29.428885498367215 -23.73157960123499 -2.0973907910055454
-29.374772481662973 -23.64841112651152 -2.0953773015042723
-29.492741969650968 -23.72123744940342 -2.09313046905224
-30.012184204684416 -25.498120647157993 -2.0612877074714606
-30.264218602079456 -26.08908120437856 -2.1107012823327698
-30.182521399318034 -25.643777273771526 -2.070987914950734
-30.073476901228336 -25.491405708974412 -2.0594865951187575
-29.811227294764613 -24.046152888453122 -2.0960267620086137
-29.78886115094999 -23.995742121402678 -2.0938853072990957
-29.76505076738499 -23.87337630927996 -2.087164175489784
-29.959715487976087 -24.252358580200575 -2.10208626244764
-29.90727042266645 -23.9711918794631 -2.0854517176705207
-29.83113940439391 -23.835496200364314 -2.080981191284764
-30.753606497396106 -27.4750867497765 -2.0840316358329023
-30.70744071332579 -27.24286449394493 -2.0641938442215912
-30.391693076868773 -26.067685652552814 -2.106676253219068
-30.33105585654097 -25.56384450656499 -2.06106290402634
-30.248476775399677 -25.399654629279706 -2.048091572916681
-30.3024004868212 -25.214897002106913 -2.031101628539395
-30.37884308969381 -25.548909773959174 -2.058828912621306
-30.347712364164877 -25.350729815368048 -2.041935420992299
-30.382934771119707 -25.243687988346462 -2.031959987328615
-30.36826938266644 -25.114912356899993 -2.0213115923363274
-30.155508711399587 -24.064386233499537 -2.077530023231559
-30.948820048240744 -27.713437340352236 -2.1075196088352484
-30.946681527171346 -27.639446124960408 -2.1012719856565805
-30.90494618598908 -27.249762948083372 -2.0682418140906447
-30.80931571550897 -27.17545161270206 -2.060471225622091
-30.721474747509195 -26.703765626705007 -2.0206560211480404
-30.719052543665807 -26.670108581236036 -2.017924439121443
-30.6975917715662 -26.168850062057082 -2.11188921331153
-30.42648291716428 -25.309899216136955 -2.036823577208276
-30.444405772383732 -25.259365641069422 -2.0321199976853532
-30.437364767385812 -25.12543183916368 -2.020810520543123
-30.241469359492292 -24.162890199585423 -2.079487494210456
-31.072661592992233 -27.73757948737853 -2.1121133239314784
-31.03615828233747 -27.533347473375255 -2.09406371338425
-30.965570926768063 -27.217788929023847 -2.066677836052188
-30.920832917229657 -26.995192469192176 -2.04766006811605
-30.91057975983158 -26.802508843532827 -2.0318124020714716
-30.87803240510116 -26.73870834843012 -2.026059853966134
-30.6472999323785 -25.669326093239658 -2.0650253764625037
-30.58040662640125 -25.413510826802764 -2.0429921294807887
-30.521691037425146 -25.134738249648425 -2.0199187450944227
-30.497485022264847 -25.065325495066656 -2.0145446862503653
-30.434882762383445 -24.366273097936077 -2.0833582274932985
-30.378637080109954 -24.21212855430566 -2.0751180310425172
-30.334204405487004 -24.155811718358557 -2.0736577659722046
-31.147066140580094 -27.65499101583176 -2.1066980186137974
-31.17633614998594 -27.508878533773487 -2.094873962253126
-31.023394453828583 -27.210402218771563 -2.067116646927451
-31.065316442996455 -27.063105512474785 -2.055728522010335
-31.033707849180583 -26.84879213432022 -2.0376605004901265
-30.9567299667968 -26.761301714754456 -2.0292242039639956
-30.81609475912976 -26.138560787789693 -2.107225680853719
-30.826832505080276 -26.018775566281057 -2.0953488694328697
-30.671839935409015 -25.30079836983967 -2.031324808607546
-30.671927358559362 -25.200615608850477 -2.022555594291795
-30.541759894102675 -24.7003262123054 -2.1043111547410227
-30.586737083488025 -24.645615572215913 -2.0971379644046464
-30.556068707949922 -24.47474787727348 -2.0848986695131595
-30.498658993181984 -24.418629876788017 -2.083772084144957
-30.48666709087269 -24.321453126600908 -2.07702550165538
-31.238716140595038 -27.598398585831745 -2.1038497542243064
-31.198071439116468 -27.51729189303729 -2.096075221098858
-31.092668069593486 -27.01452670367564 -2.052256845810622
-31.138461099141963 -26.947597733090632 -2.0475473800664217
-31.113869617860185 -26.895201732534332 -2.042826099066571
-30.90115902478754 -26.02423852687905 -2.094796847496965
-30.862016622248447 -25.78597136214907 -2.0723915470096306
-30.859495309588958 -25.69501285295775 -2.063842172214404
-30.83798683666157 -25.552035234610983 -2.0508752185374943
-30.841070986202368 -25.461075896209135 -2.042494154171521
-30.74392061604824 -25.164054776584027 -2.0180095679374563
-30.752969868045362 -24.913810489513327 -2.1114923143600715
-30.671141392752595 -24.75852000318439 -2.1020961327566012
-30.655084384031827 -24.69724937766624 -2.097710516519455
-30.640376747051594 -24.596596552382625 -2.090031117596806
-30.607905457095708 -24.491594465909685 -2.08333076112541
-30.572321177149714 -24.42028794709003 -2.079709642918645
-30.524720540283916 -24.277796492935718 -2.0715842802590547
-31.350301075908845 -27.490064339057312 -2.0969523201098466
-31.17045271788971 -26.895037127929136 -2.043832049438262
-31.015146087762687 -25.734530166448696 -2.065061090474635
-30.910913792024278 -25.672973426115032 -2.0609267806651506
-30.91729976124344 -25.553381209942145 -2.0496284901746793
-30.94632377679643 -25.402766212513253 -2.035333567343654
-30.790536326535868 -24.853440353699522 -2.1039209891438544
-30.765946619420944 -24.79048733064853 -2.0996453527326793
-30.72778117790832 -24.696381483266848 -2.0935460247267805
-30.705252590942845 -24.547545968167018 -2.082329138223455
-30.689837501135774 -24.499003620258584 -2.0792583502206594
-31.35857086000451 -27.110212898157737 -2.064906320298125
-31.317364497730086 -26.93530404598705 -2.0497442245253605
-31.102595194837182 -25.978257959686665 -2.0874682609700432
-31.08558490005996 -25.818654235337473 -2.072095049784277
-31.100439273982023 -25.738177456598958 -2.064122819613885
-31.024693123365147 -25.531783574601633 -2.045806871528092
-31.015575507009043 -25.43220151761973 -2.036786078852419
-30.8841102040829 -24.863579517018884 -2.0997083019304292
-30.891588456876963 -24.763140451112555 -2.0902587650909163
-30.865929137628825 -24.654116222245428 -2.082181969662592
-32.93088583251793 -34.55261217553863 -2.0232045155169347
-32.92499107202015 -34.24262528265819 -2.0173319391079048
-31.766193169348938 -28.743594985780405 -2.035338567721699
-31.75747038399622 -28.679109711495787 -2.0313799225397196
-31.41343351159887 -26.849906625657763 -2.0444118137607945
-31.22774029569466 -25.970216894849834 -2.0850067013376496
-31.233575859301425 -25.90825393831664 -2.07878228636775
-31.156608190373937 -25.731610788203092 -2.062599762919149
-33.21992877932005 -35.06544296183864 -2.0429706004018064
-33.06994307260286 -34.59315269897972 -2.028865199733156
-33.04411331012727 -34.26882667514334 -2.021972894230946
-32.99419116373918 -34.25932850195057 -2.0201027438927746
-31.876799353248163 -28.841471923433364 -2.045018046473869
-31.88688473308155 -28.77391719232369 -2.0416065101042515
-31.811227203638726 -28.45065722627667 -2.020864678268591
-31.639032237296547 -27.557657055847226 -2.108948273054874
-31.348830681888792 -26.07738217823369 -2.0942967238373726
-31.324969305106272 -25.981026249893546 -2.0848626652870386
-31.326181451640046 -25.901995096650584 -2.0769188570762696
-31.166398090171505 -25.27301590868319 -2.0195830163794835
-33.19632068409346 -34.85739787307091 -2.038140997976739
-33.172375004469245 -34.66729534265423 -2.0339383965250066
-31.92641579518802 -28.64066930023268 -2.035870250857096
-31.95877577282924 -28.409755719196596 -2.0243052360363945
-31.422054081091623 -26.12466458363533 -2.0983163737687356
-31.47746811930256 -26.066377084819027 -2.0917039245846127
-31.423769847806454 -25.96518422990351 -2.082028190195116
-31.343737870900206 -25.775004382199416 -2.0641062883194476
-32.24360547073991 -29.25791734027129 -2.081508995789689
-31.97916679945938 -28.366383218504165 -2.0227764483265758
-31.511935589205173 -26.108148886946818 -2.0956576303049266
-31.50062994837834 -26.034713900375426 -2.088224779294092
-31.56107903804722 -25.908383206576232 -2.0746460542794307
-31.50571690531059 -25.852914456396327 -2.0697030101143445
-31.43545875127042 -25.27400870028453 -2.111557129989324
-33.298668674261464 -34.39515908385973 -2.0330003163826698
-32.27787910189987 -29.094604936377504 -2.0739611230375745
-32.2350973869321 -28.997861780545445 -2.067110003540835
-32.12821322081224 -28.46707007256755 -2.0340487458246614
-32.152362020367526 -28.408945610555154 -2.0317043101613534
-31.623128947752775 -25.945743751630715 -2.0777523923999026
-31.567676319551634 -25.820993438045832 -2.0657196728935325
-31.578943584033283 -25.538497730536537 -2.0376099918114736
-31.572448859778625 -25.45426438969093 -2.0295922634726344
-31.527567172021136 -25.331265830164654 -2.0186513564419886
-31.324804552144656 -24.70208547178138 -2.060864187244758
-31.189868115073473 -23.613109238217902 -2.0877778163022516
-31.113121863191207 -23.336262002272676 -2.0825709837852333
-31.126527420722766 -23.319411116563657 -2.080722372834195
-31.115173706961695 -23.17928159212001 -2.0767645892230857
-32.37103720005425 -29.164187617399612 -2.081147048975831
-32.19728871485273 -28.132247927185738 -2.0182341937748536
-32.13628034119341 -28.09304052223668 -2.01378235451983
-32.01145446499013 -27.4396269728835 -2.1071086083678936
-31.765440237229903 -25.916833359585244 -2.0732490576501177
-31.750221208216104 -25.818257992639914 -2.0632750251239105
-31.605403118143354 -25.451305384067773 -2.0287901150973475
-31.55064940374575 -25.28879850967395 -2.0142769952912887
-31.567824146411308 -25.198177706132 -2.0969386227038
-31.558876594780294 -25.166583545651452 -2.0940157255738545
-31.221959458337146 -23.561420343744313 -2.082409758187319
-31.20749681372557 -23.486782670610875 -2.0803306069290093
-31.166797432940005 -23.268430506189677 -2.0753349306154627
-31.145226076338375 -23.209984066383424 -2.0751726276106837
-32.43525914417812 -28.89745840584234 -2.0689122855854687
-32.40526448558945 -28.55762588683642 -2.0493266334158506
-32.28497582014272 -28.22492758735627 -2.0266864809635288
-31.84369483965871 -25.960371339155042 -2.0770164878873274
-31.828840322650173 -25.901874683274162 -2.07105924167683
-31.78776820840235 -25.77088598152269 -2.0580026480128084
-31.690939671610824 -25.46939658310294 -2.02926196080333
-31.64207755061967 -25.110554249883304 -2.0839321893284612
-33.63768763762516 -34.208515226544485 -2.0406974912860587
-33.54056197708017 -33.67082102281797 -2.027542287339193
-32.52380672194136 -28.89919398050782 -2.072295426189122
-32.56378310398558 -28.825484002963076 -2.0696599131934654
-32.48478440694902 -28.422092597676745 -2.044875412848584
-32.41285317078973 -28.181168511131595 -2.0290907938690474
-32.387577614859225 -28.149067313108667 -2.026399285528248
-31.891187518958162 -25.980283566308472 -2.0786620418983945
-31.869744749901702 -25.873003096408254 -2.067641548694744
-33.60750887000252 -33.6013291105742 -2.028417444867309
-32.66376049727954 -28.844986861090586 -2.0742928266329854
-32.62109788735007 -28.80763280029602 -2.0707922838000874
-32.5144376030272 -28.286595838322782 -2.038654895367373
-32.47254263478591 -28.199570183165473 -2.0323309512123418
-32.09922234687418 -26.06460827425275 -2.0861219928030557
-31.43713499798968 -22.88232762023164 -2.0423337945753253
-31.4394800803431 -22.81407632360631 -2.0410426198449776
-33.89680017213249 -34.75080709173354 -2.0588314837886963
-33.861292593649246 -34.57261100359419 -2.0543110229995527
-33.79961891634086 -33.890034703661726 -2.0397950284977684
-33.71983304558724 -33.69257010773107 -2.033728446131754
-32.73972680418065 -28.87168589673188 -2.078476311532167
-32.13568517985348 -26.102027034033927 -2.0899653504519393
-32.13626233709281 -26.07408399460452 -2.086925831024786
-33.83233822663643 -33.85047065750285 -2.0402059344039536
-33.771802211103505 -33.62163345306586 -2.0340959930583673
-32.81112549152706 -28.845984796610416 -2.0795776132737935
-32.76777451635597 -28.706854576281835 -2.070510275004046
-32.784221870103266 -28.54608249922498 -2.062435417274144
-32.65765287621343 -28.041387709490945 -2.030561099518045
-31.619743467794585 -22.77033292674908 -2.026429036223168
-31.275555308400104 -21.069944781443567 -2.0619689526134537
-31.221709459772615 -21.007693962532123 -2.066031778754456
-34.19418305182598 -34.991796325034485 -2.072044212719707
-34.15579979987812 -34.94860856023895 -2.069993750303317
-31.681954787821613 -22.74914432546276 -2.021513697296035
-31.661741200756786 -22.67256745693612 -2.0224792156825018
-31.348328161149322 -21.05988061380828 -2.0585504854205965
-34.222194836190546 -34.663015771564666 -2.066608807210415
-34.06646410231179 -33.85214940468966 -2.0471084960851935
-34.03338245431236 -33.854558459242696 -2.0463142081531074
-32.80891796890025 -27.88116770607156 -2.0272912744511165
-31.485614303418767 -21.16360177275854 -2.049461750087155
-31.424735053865632 -21.110409000089586 -2.053681102269452
-34.0981828816932 -33.78171122727275 -2.0468602345071516
-33.02858982801771 -28.081138579032107 -2.0459213869070125
-31.61113613575296 -21.215831223183002 -2.042259816877727
-31.538076218587662 -21.196691080660603 -2.0461787662466926
-34.475134812200125 -34.71325739010604 -2.0747933409269104
-34.420336668570286 -34.64180238253798 -2.0718639814323936
-34.316712787622215 -34.321915062207644 -2.063108435726779
-33.07427859302727 -28.182071183106398 -2.0528956641666753
-33.048628694234466 -28.086645378875968 -2.0468841739941146
-31.706986933054967 -21.336089008113404 -2.034840026038355
-31.68833406268626 -21.204786295141943 -2.038977134317478
-34.55235438079922 -34.77115408835922 -2.0779661633691435
-34.5091461020787 -34.657383050098176 -2.0745267678964754
-34.32743429263678 -33.69311322970299 -2.051598062114783
-31.784540282268274 -21.318215751457604 -2.0317225488744644
-31.783563551476647 -21.206297855784452 -2.034719044790406
-34.64931085745397 -34.55666663957569 -2.0763975892754583
-32.21548707741291 -22.609596763885428 -2.063449877704662
-32.18497823457476 -22.583081957017182 -2.067058711929118
-32.154104076283474 -22.41205252253256 -2.0756114386239006
-32.13941903825686 -22.3628916524353 -2.078722435480652
-31.946521796647644 -21.35922682142335 -2.0235072596180155
-34.583197422419154 -34.102172088288626 -2.066329759393137
-32.23162282369263 -22.59307787587831 -2.0625380102523785
-32.23355309901931 -22.54774850098959 -2.0639336450943055
-32.20907994849596 -22.475800867359595 -2.068618991758427
-32.20160962548082 -22.35951769406388 -2.0737083818203144
-32.01296844429898 -21.43206212624929 -2.0187041741899776
-34.909965782640825 -35.0677246115954 -2.0926376413205166
-34.84360417132304 -34.72027550592072 -2.084605856612818
-34.79827585661648 -34.61568052810789 -2.0813538900880713
-34.696230405123835 -34.00195783604217 -2.0673391468008235
-33.42803118825271 -27.60402437466737 -2.0337633004168496
-32.192823723328594 -21.6201909131935 -2.1114347203449086
-34.89295099885958 -34.487064565334336 -2.081473677017251
-33.44781839299659 -27.595736711821147 -2.033945368695519
-33.47802244611552 -27.50712838234103 -2.0302070174214295
-33.506320555525264 -27.424232087401293 -2.0267096310925936
-33.42622313222803 -27.29690080144205 -2.0172336761010743
-32.30700969413214 -21.707409126111102 -2.0995045071981693
-35.03852510175095 -34.82242584161682 -2.0911773632120605
-34.93499486183382 -34.16166308190107 -2.0763740959264396
-34.88605687907812 -34.02576642546612 -2.072491340622899
-33.5498543124942 -27.399332583157726 -2.026760550505413
-32.44696702586138 -21.808336937378165 -2.0853825735403877
-32.35925337118214 -21.715612420916326 -2.095984718008501
-35.17310209491098 -35.047282363935295 -2.0987782863004467
-35.02025173744363 -34.143771898346756 -2.078016102630898
-32.57584820337908 -21.83619824518879 -2.0766604406956843
-32.509311692530254 -21.804114028504692 -2.0822205844282906
-35.26636057762331 -34.86912701836142 -2.097405862830964
-35.16159879490339 -34.29977776539002 -2.0843367224251144
-35.11348557592887 -34.19871757260304 -2.0811798113389477
-32.64260504349038 -21.92410916709829 -2.0676398396509468
-32.63212763620445 -21.853526400498268 -2.072710620732691
-35.414584402660516 -35.15251193928174 -2.1062795314958356
-35.23318686683771 -34.18810585846843 -2.0837828433173096
-32.74079155819078 -21.917268092551684 -2.0633173510654177
-35.558787316927805 -35.07165419682132 -2.107850676615252
-35.41141653199918 -34.31920265686459 -2.0901290446763507
-35.369945251163934 -34.28272755653448 -2.0886694569412696
-32.853926504734126 -21.9595046417655 -2.0554537954361316
-32.85994841668342 -21.92319282643923 -2.057704009719139
-35.52254565345325 -34.587788877786195 -2.0976516077461462
-34.19298778659602 -27.950702073337837 -2.075630900758188
-32.96754277051461 -21.99239475730343 -2.0486662302112277
-34.30144649616908 -27.976075692748427 -2.0800240042100913
-33.07133870868282 -22.025309104385272 -2.0427381064470977
-33.066721932962835 -21.991047478673956 -2.045394631009114
-34.359435592645 -28.012379956907907 -2.083556345239133
-33.19965622922063 -22.106090335921664 -2.0998762222932776
-33.18133115098302 -22.064583981723036 -2.056694419455538
-33.32536135062927 -22.186985543587486 -2.0239498430224576
-33.303616603199124 -22.1157671102514 -2.081657760471692
-33.25103993474327 -22.066565085452524 -2.0723679401263877
-33.43724720527972 -22.190801407913284 -2.091008794281663
-33.380208387414456 -22.1013491870999 -2.057874004655456
-33.419517184192486 -22.022665275661915 -2.0356443837099545
-33.57892696362248 -22.350576886257752 -2.0704767465729614
-33.53555587957993 -22.25576606091543 -2.0819379681583436
-33.506457603802154 -22.163894243601717 -2.0526192462584323
-33.49105749375528 -22.11809561508547 -2.027385951758492
-33.43702778655056 -22.01757819853589 -2.035914864419916
-33.622936450117564 -22.228716294325817 -2.084549306540153
-33.61680751709081 -22.1647187389187 -2.0427290404327914
-33.805037531640515 -22.42217321072479 -2.0625586022954914
-33.77432688801566 -22.308456488587343 -2.0757236594321853
-33.723452983774095 -22.22719246013756 -2.046210247457318
-33.6826529617546 -22.170986684445044 -2.0740347512047097
-33.94694635957142 -22.555001666739898 -2.104612153382353
-33.929133565022994 -22.49580310413478 -2.067543921403203
-33.8597339923794 -22.421460480703203 -2.06366358782902
-33.8685101649676 -22.321811448174447 -2.0475756236545295
-33.8131249788693 -22.21002448846727 -2.031217642679689
-33.77633498607557 -22.130952716569865 -2.0276357161214538
-33.99189095423064 -22.551279589255273 -2.101388665641951
-33.988378971222836 -22.49587284572178 -2.083736404194485
-33.98795165803893 -22.39958491455702 -2.0597053838116093
-33.93096840015437 -22.30619055994762 -2.0162166654545683
-33.89043434680869 -22.238419553527354 -2.020830968139723
-34.06753715177624 -22.544913247165017 -2.0557998053276294
-34.094141755432446 -22.469541665463247 -2.0585772551492374
-34.059964108670194 -22.369689055102814 -2.0233274429224717
-34.01987495952971 -22.28618624300752 -2.0207371906400073
-34.250678082478686 -22.623460621190205 -2.1112200914543773
-34.23341286209361 -22.531118421314275 -2.0667847012147864
-34.17661032531863 -22.450268162313634 -2.064201604093595
-34.1581312062754 -22.37064197162682 -2.026383322458018
-34.37085158054936 -22.711630880573324 -2.083031150999352
-34.33181336544763 -22.6231830743336 -2.0669704628981047
-34.342294157684755 -22.531825559331008 -2.0172835063770895
-34.244503687769324 -22.42594217376561 -2.079672536524159
-36.18251766564538 -31.06871451271565 -2.0150954191385844
-34.480787904542666 -22.773069663897157 -2.1126242513134805
-34.40448529976404 -22.693102786520996 -2.084386679720945
-34.440687594854346 -22.614150394938385 -2.0623666126179265
-34.40278267533394 -22.502477243701602 -2.0238981546839363
-34.38836094170273 -22.426357949419778 -2.0287799218258797
-36.2006049530462 -31.04372309821141 -2.014567306146763
-34.55142199297745 -22.64160925895153 -2.081938532441052
-34.51734677761405 -22.571889280012744 -2.0410879485142215
-34.49294408793887 -22.517746469225642 -2.0482857472767857
-34.430333889584176 -22.419281847111403 -2.0322653831998734
-36.29283203723382 -31.001761041942416 -2.014186806731729
-34.589434711346236 -22.643542565185577 -2.085779155519809
-34.61485539174214 -22.561492979204267 -2.0549968870163062
-34.57341177581819 -22.48336102087034 -2.077047421850914
-34.78867259769283 -22.835575901263766 -2.037470368567582
-34.7088719489654 -22.53071586815372 -2.0837786424679954
-34.671439319580806 -22.44908363161991 -2.049970032165926
-34.83391079941657 -22.72805030283896 -2.1075118905214287
-34.81884045282647 -22.629045412007667 -2.0678910031445796
-34.81603657622399 -22.50668387363582 -2.0601769059092
-34.79679866938891 -22.467751337790077 -2.060711396290985
-34.931850606804645 -22.59801055202812 -2.067211489411223
-34.90162281000736 -22.52195983765186 -2.0683287747956878
-35.091672839193876 -22.843562085226043 -2.074648929038937
-35.076380357015594 -22.773420183565108 -2.075781568489659
-35.065343426461816 -22.654139175720488 -2.0634127992226263
-35.02758941140937 -22.60983682101247 -2.063261188913882
-34.983937688960054 -22.515867480786437 -2.0777560086260456
-35.20032693809484 -22.916605614435724 -2.086795113586645
-35.19045354486261 -22.88022321346649 -2.071027228262886
-35.16444236011042 -22.765952081548523 -2.0761293724824954
-35.13332567360548 -22.652675772767385 -2.0576820017854835
-35.109985239838885 -22.57089031489934 -2.0208790402121815
-35.36310666500681 -23.000296785344045 -2.1081588464557077
-35.33602152999559 -22.94344397087339 -2.0922022468675467
-35.27111199271814 -22.85313055188807 -2.0988550795594785
-35.24342827116395 -22.755813700469762 -2.076184689742557
-35.24205599647617 -22.619880429791678 -2.0333148218444053
-35.192436445211285 -22.569985649945465 -2.029121686466142
-35.39817192801574 -23.10036617379071 -2.111737210046184
-35.3895044747545 -22.981027234373524 -2.1124702022665534
-35.37026653055688 -22.923177071379957 -2.099772015682207
-35.38477640103562 -22.82124020295239 -2.063496233541226
-35.357630720972864 -22.7260417587243 -2.0618181059127565
-35.32424500597891 -22.63537285626809 -2.0418431082972046
-35.509735684601786 -22.96648999213582 -2.0609609480132622
-35.48923503317385 -22.911316561715573 -2.0584430598471637
-35.50427875144091 -22.816231740251407 -2.060428550849454
-35.43378773847756 -22.69341439356074 -2.053169607383792
-35.43789148988633 -22.62347508490371 -2.0543991841770755
-35.631367129052826 -22.996766036233353 -2.076191601301316
-35.540367766246945 -22.823942917931866 -2.064653189861207
-35.757562012336194 -23.050390146241586 -2.067456165537019
-35.70630784231906 -22.954183698069535 -2.0853416927112236
-35.704308737525565 -22.876362271649107 -2.084581620698122
-35.87663059952516 -23.214012381335046 -2.1116423266855047
-35.82875242467937 -23.11446313255332 -2.04562871793818
-35.828300164617346 -23.04686828199407 -2.0842485717427395
-35.832189076122795 -22.940271021868014 -2.0910714564058925
-35.78684209614859 -22.85404076156078 -2.0947417265804593
-35.91132769224751 -23.113788222513207 -2.0610878198805325
-35.922879426408535 -23.02066775797444 -2.048656278301327
-35.93186966257527 -22.89191096262335 -2.046371627884474
-35.893393840443466 -22.8144182539261 -2.0240870201997665
-35.90733100881188 -22.748575684837895 -2.0237694705136735
-36.12387986614858 -23.228285345544656 -2.0608187610142674
-36.088140960547236 -23.17604885435773 -2.0550074757764953
-36.06723408687737 -23.07477389431251 -2.0489402489456237
-36.0352775663325 -23.022378491838307 -2.043818781754484
-35.98342524621633 -22.90208644848959 -2.0350334890306994
-35.974503233144944 -22.791983810295267 -2.031221005051789
-35.96712517394177 -22.729594444896225 -2.0289942892130024
-36.18661002241428 -23.156285177431307 -2.064344824161809
-36.131771626824246 -23.072686210779953 -2.055423851089239
-36.35303947609748 -23.429740712275656 -2.0942468116789303
-36.26728731911253 -23.159826677626647 -2.0728141809736518
-36.39544925861136 -23.39740210432198 -2.0971111810774463
-36.40841637773786 -23.31721776701412 -2.094585228271505
-36.39920769889793 -23.196823592704728 -2.0880941264443504
-36.3845517208491 -23.114647902187514 -2.0830416079105554
-36.343654839995054 -23.072345618170885 -2.077081817862409
-36.62791810885318 -23.78323408163455 -2.046240267684069
-36.49111590771822 -23.40196867048062 -2.0596594475672125
-36.505180642851975 -23.304231920896715 -2.1041501973490653
-36.45556121908362 -23.250354099143177 -2.0964161702345505
-36.42666643503289 -23.14823725028088 -2.088826261133904
-36.776526409144495 -24.280615891394508 -2.091950555334858
-36.77069690160355 -24.185947873526867 -2.0846016880921883
-36.76179922363944 -24.07680428490271 -2.076111418880035
-36.752405025012195 -23.968359570392515 -2.067820392380264
-36.70376995390306 -23.916948752023536 -2.0607577749836397
-36.70413086134873 -23.701422216766154 -2.046506119141438
-36.622170817313155 -23.445560081351587 -2.02464236008139
-36.558933781210406 -23.182498928577534 -2.104120611217922
-36.78554392305322 -23.84717035590295 -2.0620031767684024
-36.78011041040821 -23.706287853386367 -2.0523314708039933
-36.76797676452043 -23.529013882410315 -2.0402607487904003
-36.749023663277065 -23.43688628771446 -2.033250253849933
-36.71015448922676 -23.333194063853547 -2.0242548117183286
-36.71623018740457 -23.25166400363222 -2.019969764694676
-36.722462934070286 -23.171977794472514 -2.0158963949374327
-36.86552951448497 -23.643330903333457 -2.0545144548040613
-36.865704717824485 -23.53875795676651 -2.0479559818123207
-36.83618686159142 -23.459686484709348 -2.040953820136841
-36.856222358444654 -23.358671340986128 -2.0362717837399025
-37.069826422314875 -23.961879505230627 -2.090635317526078
-37.06923728315096 -23.93394485870902 -2.0886800191423616
-37.000061543150785 -23.754039924754068 -2.071559810530343
-36.98549598701192 -23.582647618403545 -2.0594124386886947
-36.91138740734317 -23.538362124431966 -2.0512727623604112
-36.874606834840286 -23.376028500840146 -2.0386331543892973
-37.057658075308844 -23.770192519940867 -2.0768359535347507
-37.06932942799782 -23.724524447754774 -2.0746828159613693
-37.02852314158413 -23.61942179077819 -2.06491573185869
-37.06259156946212 -23.320264390270694 -2.0489133343281396
-36.963811204016686 -23.13482822988647 -2.030978335007892
-38.6912909780654 -23.92194554433777 -2.037656793838244
-38.78491119756186 -24.019220833977286 -2.0480206245417842
-38.928822265688154 -24.077963424133653 -2.0575712747057344
-38.85590927247823 -23.950126252684782 -2.0458977053763907
-38.96949651259692 -24.11319781754653 -2.06159622653987
-38.952902285542606 -24.05173623268131 -2.056702272088825
-38.95808664021841 -23.96482702245973 -2.0507130756786927
-39.19962350617584 -24.160144112536443 -2.0737243601269917
-39.37180201471119 -24.32328087851018 -2.0917345594647134
-39.318047297366455 -24.21798132279746 -2.0821924681562898
-39.29986798039673 -24.189458735611996 -2.0795481737233334
-39.517802851750744 -24.397429173142577 -2.1026039228109403
-42.508700383540194 -26.12386377151044 -2.030114220318161
-42.47790272999681 -26.053964845924103 -2.0253042201613134
-42.454218958787706 -25.987503530729107 -2.021020174626663
-42.97707953652903 -25.87432486049926 -2.015216716955777
-46.80285766391942 -35.31256188742752 -2.0210829767189087
-47.27123257867856 -36.20921767669395 -2.044329527373125
-47.647498516570366 -37.43814494567169 -2.080244537036989
-47.748572085554805 -37.26097335101019 -2.072110283943331
-47.5755815719637 -36.65879616377172 -2.0545531883976373
-47.583911491261276 -36.57862883551469 -2.05129630267688
-47.89728051746107 -37.4933021093791 -2.077737918095694
-47.74925117117094 -37.1732003019911 -2.0693469297687987
-47.97776120254775 -37.66339678843354 -2.081857058923498
-47.92355842254265 -37.24771422267595 -2.0685075297890356
-48.232873953143745 -37.44707140579968 -2.0701131378624655
-46.03930163421679 -25.751222000671227 -2.017660807199986
-52.83158432208984 -40.43650426633623 -2.0891051158594474
-52.95125020841837 -40.36790552797264 -2.0843749717994697
-53.03702660682213 -40.270335577415636 -2.0792241774945563
-27.79481572698087 -23.927907515571473 -1.9890691665667628
-27.814661175468174 -23.08125220030514 -1.934236103632305
-28.351379935357794 -23.346465988342956 -1.9388721387506798
-28.394489196883903 -23.216571527605016 -1.929940315969595
-28.654449779012584 -23.763115602051165 -1.9589013268537074
-28.500103208002326 -23.214325630065993 -1.9274665169698244
-28.854135413294767 -23.714423821512078 -1.9513037249270528
-28.99702780691674 -24.013555910402086 -1.9680309501846678
-28.954301088228906 -23.807283671238128 -1.9551335973717954
-29.142800858651256 -24.032907889572083 -1.9661368121667924
-29.004897500528216 -23.708920518445602 -1.947568148432153
-29.01904130558853 -23.45412700786666 -1.9310355660732361
-29.61411819550998 -25.944732751453465 -1.9442858408584718
-29.32463313242708 -24.494271856624287 -1.9948839490750934
-29.22707765765871 -24.29242604893336 -1.9824140399080226
-29.208534107602784 -24.066939921074567 -1.9670033702672762
-29.10702837264372 -23.767340514394743 -1.94915035466741
-29.137415556216684 -23.58736704382192 -1.936850430353343
-29.07666181373417 -23.25830080553001 -1.9177102303777855
-28.374408467206834 -20.015628168161186 -2.0117025055866806
-28.370471352843616 -19.801253117579407 -2.0078083085298664
-29.659137394669195 -25.94298620065742 -1.9448226439649843
-29.6728472651365 -25.79524427001059 -1.9337278813389602
-29.621480500503353 -25.725655075281693 -1.9277231510861919
-29.419735436566114 -24.502050043166125 -1.9933884730485747
-29.42688794325091 -24.46984142331622 -1.9908502649970046
-29.29660633486577 -24.122459821564114 -1.9688620155945324
-29.252568979126835 -24.05116495949202 -1.9649026085027457
-29.21803781488272 -23.670647513038205 -1.9403986278778425
-29.208756232710698 -23.545758701596093 -1.932619214197515
-29.207432094787862 -23.471179268264915 -1.9279614281714856
-28.493885646641658 -19.9856880857417 -2.006293257536728
-28.477108940326602 -19.92838471612125 -2.0058804557295593
-28.492209145927415 -19.866193386583703 -2.004212516959663
-29.820289308648594 -25.907184039942628 -1.944350294844507
-29.49614638485636 -24.433919986850988 -1.9866721237935283
-29.381438448134478 -23.989080129645373 -1.9577888623868802
-29.388525720238793 -23.92783669182809 -1.953517642152468
-29.31513048836235 -23.67029620608842 -1.9382044680104227
-29.283048433435447 -23.440870976851915 -1.9243959060450992
-29.97721685235814 -26.303588769543193 -1.9773028468467897
-29.912715794281663 -26.153871189762363 -1.964709294931418
-29.560559834598994 -24.505260642141955 -1.9904758308754316
-29.52837594147535 -24.08429424666868 -1.9610254585193918
-29.450231752720246 -23.929509473101035 -1.9522399095917278
-29.42261045830756 -23.850347222284952 -1.9476058827824492
-31.436417279860862 -32.998365600677936 -1.9326735201644563
-30.061497779962416 -26.238861307082267 -1.9734967067970606
-30.02215120396622 -26.097906735141013 -1.9619215783778083
-29.499200177441537 -23.440835393828845 -1.9196822737546513
-30.187534056128218 -26.41008798647758 -1.9888260041466108
-30.113464577597043 -26.270284457034844 -1.9767416203603385
-30.04438445949822 -25.5291428447743 -1.918671309415116
-29.80430736836136 -24.583036847658885 -1.9909608400814627
-30.62485878872713 -28.165402708448962 -1.9559853452724163
-30.30014710206145 -26.507573284881943 -1.9982777220543442
-30.20704202355923 -26.092849976159307 -1.9642484130200724
-29.897830170582544 -24.565208006961996 -1.987543304027928
-29.072372991968898 -20.183318431116362 -1.986853217268454
-29.01324722780542 -20.116617915935258 -1.9880985724727378
-30.021341559010935 -24.680448392164816 -1.9936213346977945
-30.037575299883592 -24.6030794044447 -1.9873457141065842
-29.060807615489185 -20.08984929254823 -1.9858734564410176
-30.46446163984493 -26.415271839504122 -1.993471734427274
-30.415544041491078 -26.212167862220042 -1.9766761223677496
-30.079602765856183 -24.577510219365582 -1.9844945097613171
-32.20410485213187 -34.34549497294053 -1.9920717991830321
-30.219063952347504 -24.663984986240184 -1.988075983650333
-30.246659436001682 -24.45489295353668 -1.9715918968490884
-32.3717624573797 -34.639377819411294 -2.0042817387948135
-32.34720541489589 -34.338311462425466 -1.9975614846167251
-29.916165024798172 -22.48288043148754 -2.0079288666963073
-29.9008768504328 -22.411762522590642 -2.0060851494687277
-29.88120921530569 -22.337716251700826 -2.004352685161249
-32.32211320083862 -33.84816941530564 -1.9870086959045223
-31.107242814489222 -27.878156802639776 -1.9599936959219764
-31.094342193069533 -27.814872463618467 -1.95578958621379
-31.015717484786038 -27.63513582668939 -1.942196241024529
-30.797426159779157 -26.33636580916917 -1.9924155658494538
-30.706757189484758 -26.00689733610896 -1.9649521391853537
-30.533182301666532 -25.02999033092606 -2.0108568445679813
-30.48508509767053 -24.832682926824045 -1.995668085060289
-30.443686659446946 -24.752694333257246 -1.9901641538507575
-30.378694934766198 -24.504086289437943 -1.9723375452004166
-30.37940854992703 -24.331564732892403 -1.959568686674687
-30.37020718425807 -24.23808062186013 -1.953034894639169
-30.368745146432246 -24.148809441911762 -1.9467724810130216
-32.52852196724117 -34.58075453475443 -2.0091387443620086
-30.817494377574555 -26.195081232830244 -1.9815080650143735
-30.601946574582435 -25.02364560885989 -2.0088923041148194
-30.59782791742269 -24.907987711219942 -1.9994088556776592
-30.58037064046689 -24.709281439777513 -1.9837906103850809
-30.53828054026633 -24.634466871726488 -1.9788434356477373
-30.522704998921064 -24.558413308718524 -1.9733023935041023
-30.462017279286737 -24.37361914129652 -1.9607873327260474
-30.474805352238082 -24.26567765563953 -1.952687874780737
-30.409506124385523 -24.184391953493126 -1.9483350421009034
-30.18804060174171 -22.73939333503248 -2.0039510542753853
-32.598824544492125 -34.319734682592426 -2.0066756913712664
-32.57730067843465 -33.95969436273889 -1.9990264641353264
-31.355733696287505 -28.000473102601916 -1.9772787664493774
-31.36957089298775 -27.94968144984067 -1.9750563209631369
-31.155922869644826 -27.061197491872164 -1.915443749048786
-30.901732517390258 -25.754879517466023 -1.9481098995718162
-30.687874962920272 -24.951856857856725 -2.001145908968286
-30.684991296036436 -24.88760049758318 -1.9959298300463373
-30.69942113020624 -24.796767349100165 -1.9882391775790982
-30.609169137585862 -24.570116000162106 -1.9723096331312981
-30.211482889069476 -22.711943963451535 -2.001610487571908
-30.202159217060473 -22.649940653776518 -1.9996535038143308
-32.677761523306685 -34.25721518101797 -2.0084375689943537
-31.380162209880147 -27.893035246245894 -1.9722501224373077
-31.407441329232825 -27.691042086707508 -1.9619341975262465
-31.33026224839562 -27.321404644064398 -1.9375332803806207
-31.030407989285088 -25.96075173706434 -1.9662165359292672
-31.013223653693217 -25.84049283879202 -1.9564937310020778
-30.992583001590646 -25.628199861918382 -1.9395823968899568
-30.95243821206136 -25.544192213091065 -1.9325146600340342
-30.95658152386975 -25.469238192037842 -1.9267949485208873
-30.925840677026844 -25.360416734197575 -1.9180177437161576
-30.835920457196217 -24.901908970757784 -1.9939733082602247
-30.768259006113308 -24.793463830653675 -1.9864910433271097
-31.442712874555152 -27.760350422438517 -1.967294854264689
-31.456393992297542 -27.70067504163201 -1.964516644304452
-31.424167041298976 -27.25951596883462 -1.9380174789942737
-31.314385064428873 -27.00030301132071 -1.9185967731285076
-31.0622883969848 -25.91974208497046 -1.963477442411534
-31.029817879341977 -25.621636322677006 -1.9396399584129267
-31.006714225646586 -25.5637695198513 -1.9348054532894832
-30.995579550043328 -25.415142646750354 -1.9232070656015752
