ply
format ascii 1.0
element vertex 846
property float x
property float y
property float z
end_header
102.52825423475402 -159.32680021586106 0.862501855925203
102.5876358490196 -158.83487194126343 0.822624630455681
102.09584357234513 -160.47978933826312 0.8355359960443159
102.18766601048729 -160.05922995000233 0.8383044972546277
102.32785198300245 -159.62585277018218 0.8467772331920981
102.45322679598769 -159.008222581308 0.811467467862265
102.00577113241224 -160.40802151660162 0.8265981385262274
102.07535375897892 -160.11841344200087 0.8290406371129064
102.39181530433832 -158.96603306112084 0.849169853011379
102.44748767664396 -158.75339898570178 0.8537650034017967
101.97772703750769 -160.3471758738635 0.8232158479790406
101.96519423915005 -160.2865797740088 0.8213907509249697
102.00762186143982 -160.19383564296012 0.8239699524438029
103.02062789122141 -155.36699537367602 0.9033598803334931
102.45645185436511 -154.81866792820392 0.8792947376414822
102.36003328698776 -154.84729559501784 0.8721975292302567
99.09855751333133 -158.3755665723019 0.8144873464834737
98.29984652934525 -156.70748575300186 0.8685929788648484
98.22704859848582 -156.69970015091386 0.8630370536852605
98.2300959006125 -156.63135394881817 0.8700982269833784
98.53845505517815 -155.50050500612434 0.8166292073680474
92.04618266938252 -179.96693259906664 0.8946903233086229
98.13134320033205 -156.65759480283043 0.8590838510432092
91.94994575980068 -180.08558344579066 0.8961613002304547
91.89495478740878 -180.00834240200078 0.8923255833886851
91.6960322560576 -180.25726868582757 0.8960696615308891
97.97643228182052 -156.0385062974673 0.9109964245622474
91.50429206727406 -180.4576349615773 0.8983082139228773
91.45222265453957 -180.36751499697914 0.8936001707243093
91.43574649380112 -180.12939187290746 0.8851233603338363
91.28368874869246 -180.45679337332678 0.8925587691506102
91.0695611823356 -180.41815321685397 0.8862316811430362
97.22903831683371 -156.41615922181214 0.820022786695747
90.46737545608852 -179.68959110121912 0.8461716732504472
90.36450016562968 -179.66732718900843 0.8431073655373007
90.24820030574399 -179.68852445039727 0.8412421575522656
90.16127107869517 -179.6145986711989 0.8365424954240814
90.12640401098872 -179.37836766651228 0.8274525168673813
89.90094543292503 -179.8520512028261 0.8388472072237984
89.80939640169191 -179.90442285429154 0.8383048959609914
89.81534870152328 -179.65816095635452 0.8301993408242919
89.67903275204989 -179.84473283376394 0.8332664953226369
89.64780896153293 -179.60432797983145 0.8244108178642977
88.20440595526351 -182.23567576166684 0.8821443410118288
94.81716673694704 -157.0738828561658 0.8165715675288484
88.07439242363635 -182.35416516331654 0.883589520136841
88.12390515974248 -181.98878319769383 0.871924466682688
88.02990510189392 -182.00486804808494 0.8706812013495898
88.27064859160578 -181.1425589773385 0.8462894213318132
87.82835626135008 -182.08230815450756 0.8689144023704166
87.94766608225292 -181.55829788010817 0.8533948892341083
87.52470214518755 -182.41919296969598 0.8737769309870598
87.61500391540663 -181.9691237795602 0.8601594573659487
87.5919282238834 -181.80930365198373 0.8544986266699938
87.18604747101686 -182.3785547825009 0.8651157111226777
95.75711797968823 -147.9910535837168 0.8469839249493512
95.0101469185423 -147.87877756367166 0.8310515244557364
95.04723063392207 -147.823285818718 0.8344391457077421
95.08120000997182 -147.72210701971233 0.839797860995908
95.11594092125333 -147.58688876952854 0.8466264442304874
94.87591849809613 -148.07551067072123 0.8189423011141908
94.93490860228411 -148.01032490800554 0.8233275404085404
94.9722295412153 -147.94247371102531 0.8272452513527394
88.79642047987376 -162.66141999125986 0.8144642611322334
88.64549219307875 -162.79196449658184 0.8283163933846607
88.71072777737595 -162.72951296816709 0.8221189738446396
88.74280491441351 -162.59258407651316 0.8146314327609964
88.71859855700495 -162.52973111716932 0.8133994323978782
88.64429903454521 -162.50831413963522 0.8167773111945466
87.14734564441885 -161.04443572160233 0.860332220802926
87.18135062056389 -160.96392556842116 0.8565718662918006
87.18835423097701 -160.86904891054922 0.8543884507241126
87.26426619033595 -160.77282262658755 0.8479322147028774
87.03372669694346 -161.0040662784842 0.8662811489238379
87.08431042046792 -160.90723119380965 0.8611855682316032
87.1569932341393 -160.838100966407 0.8555352626639828
87.02413604495536 -160.9418115269902 0.8655726943191505
87.06592934412052 -160.81108460520787 0.8605512513704866
87.01909822649017 -160.2899833668067 0.8548788123770018
87.058617852167 -160.1791504466275 0.8511656558770575
87.10304882500127 -160.13374858658756 0.8479224387857855
86.90360645451689 -160.3364244356432 0.8623204621257001
87.00348430117722 -160.22481241866242 0.8549588138869674
87.05394043706977 -160.08449105293855 0.8502144224160612
87.05303986440917 -159.78246667015188 0.8473977787055933
86.89766391246953 -160.045911538835 0.8591840136612877
86.94296450917338 -159.8709619794426 0.8546848202459376
87.03658138425943 -159.73510251447746 0.8480454211265418
86.64464308272036 -160.69595368862028 0.8834986600307645
86.73047901626856 -160.5131778660506 0.8752986293039383
86.98523972486544 -159.2478695413068 0.8484421266658916
87.0296354038863 -159.18751415415008 0.8456995603267333
86.5934992282545 -160.46422098148537 0.8826279813073543
86.62448997903746 -160.41442764284233 0.8801040519096187
86.77294022407067 -159.9586559023662 0.8656168638301825
86.78007837687052 -159.61613311853367 0.8622603148002657
86.58418756071895 -159.6329612788351 0.8740695164817057
86.7435087250926 -159.0655271348176 0.8622975737497837
86.54553371426587 -159.6642676371515 0.8764620890347455
86.57693359428339 -159.3631305292007 0.8728931701890112
86.43860689214729 -159.41500107284054 0.8813616619373273
86.47988448098323 -159.24889654426195 0.8781227842279196
86.61142439809572 -158.99706321305757 0.8698896671938486
86.51813870354509 -158.94676125967962 0.8754183959993275
86.26555657319865 -159.2577627056464 0.8908655772248759
86.36191731590523 -158.88651712114478 0.8844113983753906
86.42362352935594 -158.7244716084646 0.8810399590813351
86.44632311362265 -158.6226531805349 0.8798319465169111
86.34151044052722 -158.84990206698848 0.8857062998169564
86.04905448447265 -159.49804804529614 0.9047596444551905
86.09777294355546 -159.16682140239251 0.9004186242760338
86.25446877970538 -158.76539889055027 0.8907171631399367
86.30505131772237 -158.5428113845983 0.8882726165661472
86.27576956028106 -158.48454578307866 0.890200629702279
75.77359130953708 -163.21245615534932 0.8649184139286875
75.66492166955389 -163.1155660072956 0.8655352926735776
75.57671188789658 -163.01698704118473 0.8656459931367194
75.61116450176442 -162.8695137630237 0.861624561159628
75.71394234392406 -162.71259735471855 0.8557469841015685
75.66430327648598 -162.64457308286774 0.8552081932616153
75.68163538417568 -162.5018559278764 0.851778530396946
75.77654405254604 -162.27521805635985 0.8451177036461687
75.80207342448448 -162.20019556036158 0.8427133899712945
75.5084021120685 -162.9528872749566 0.8656415346513483
75.58532896643673 -162.58227349888026 0.8560840208963346
75.68967521145098 -162.35682640180045 0.8485905669585602
75.57904462944997 -162.43963978983274 0.8532610123631907
75.32890623561394 -162.83069385275738 0.8672813580583826
74.97953642367696 -161.38146852329953 0.8473945936664442
75.00842525633337 -161.30810526511195 0.8456841065102269
74.89716767005672 -161.4622668432349 0.8511088674433854
74.89174836123854 -161.2403503008549 0.8470825642921962
63.671495774127365 -195.55783654138162 0.8444185030005593
63.738565640135306 -195.24084998869907 0.8365550172932201
73.82963791408184 -156.90055960077723 0.8240850475346664
63.76283783183536 -194.97343807891662 0.8277451793616237
63.196669035841886 -196.58515814662408 0.8682375382581358
63.2947958274534 -196.21959724141118 0.8594155152722163
63.62049522291876 -194.88343586770918 0.8233430802571083
63.15661926817309 -195.13268231388116 0.8221961556811462
63.00576079213225 -195.0606435478949 0.818191808875527
73.38487815420892 -153.31726102001164 0.8301441080258604
73.4214108126106 -152.97465415317396 0.8305635167829576
73.35688398193605 -153.04323544997328 0.8318871098226633
73.06787630931439 -153.30618014310568 0.8372895952823657
73.15066762968613 -153.1556687820845 0.8359503369841407
72.94365933873928 -153.35643289206004 0.8396508223771644
71.74310157331013 -147.37817890948605 0.9141804024641699
71.56758220207541 -147.5039893162144 0.9155235684525578
71.65529760048238 -147.4407492066446 0.9150055559408062
108.46811120267029 -163.0615529789985 1.0030902838849751
107.6361144418126 -161.69994492080428 0.937506572220664
107.26203349322427 -162.20732979314272 0.9253652362184006
107.2767069178402 -161.58557197295738 0.9167952832067591
105.54499280054014 -166.84659193372704 0.9294934897819117
103.82275831509637 -159.35014375230344 0.9759476754557694
103.26526780168975 -160.91992002181598 0.9451740037524422
102.49658282408939 -162.95077912046037 0.9283748739858655
102.49224382022402 -162.77141451954225 0.9220806061281388
102.57016767326283 -162.50053263136675 0.920495149949604
103.13797021553637 -160.57178753144322 0.9287822179473384
102.42114128536508 -162.69645554987804 0.9138125455770222
102.4520840383514 -162.56032014288073 0.9122882503312764
102.50246645149471 -162.5157122428528 0.915234477739707
103.21523068886277 -159.76056822543123 0.9259356275036561
102.36242644080595 -162.77221841007724 0.9110998022456168
102.4094631858162 -162.64205258930238 0.9110216621756575
102.41873423690087 -162.60912433785356 0.9108848766316946
103.0804067283351 -159.30562048122013 0.9105882810397321
103.12280858725381 -158.83218775218822 0.9124821377955342
103.17540213205464 -158.6383531557557 0.9167057370495661
103.11359255578837 -158.7449920604659 0.9114282116672918
92.51290255839261 -182.71240461736636 1.0031535181451974
92.44994626642438 -182.61090231222394 0.9982198379311177
92.39109063703096 -182.49159429537545 0.9921654888093192
92.29386761689727 -182.59459363618927 0.9935596557933191
92.28967239080247 -182.17175550149238 0.9782428315908234
92.06769596104539 -182.5258146301452 0.9849667082940831
92.16386757859097 -182.43358250331397 0.9845004703595666
91.98005590559576 -182.5461337265549 0.9837326477079678
92.11930748186708 -180.66734259177602 0.9208984092467976
91.47654330850231 -183.0685489011829 0.9889100816596358
92.11231618016976 -180.33973142019914 0.9094707465199345
98.39999822074392 -155.71937827655506 0.9769751942956919
91.70958061490064 -180.52445198272753 0.905511937202363
94.75718499447575 -157.21744588704573 0.9249299934181165
94.78208965347027 -157.11833110643965 0.9406719431850835
94.68178450496592 -157.2185795702759 0.9283721320395029
94.7364610239928 -157.14670696757872 0.9379069988742289
94.54434429537856 -157.31121969275515 0.9203608543269957
94.59739452604879 -157.25403071394484 0.9268169156416055
94.45567081895801 -157.30349571943822 0.926891001211845
85.92746003188934 -159.86096632576712 0.9148882475209665
85.69142652674908 -158.66953959467324 0.9236464033799947
85.66329132391232 -158.5527745342537 0.9253254255505649
85.63870040556438 -158.5094894647994 0.9269538200289824
84.9832141310448 -159.3389816811811 0.9668180606397286
85.03284192281998 -159.30484424819343 0.9635712250246041
85.00477356256832 -158.94825426530315 0.9639767687555062
85.35205038711725 -157.26470093594477 0.9521557227535771
85.33621626316749 -157.2199134248543 0.9534725823349315
85.27016491450371 -157.13813362168077 0.958208285674391
85.12101871835445 -157.27959106562574 0.964849915965402
85.2286870141369 -157.0422387235054 0.9617518631092351
85.22762228474171 -156.93664083756548 0.9632844086977121
85.04410608029664 -157.21503212922624 0.969774470414115
85.15985341939815 -156.82867133499957 0.9684985766599264
84.36784242116983 -157.76306254514958 1.0032077260396393
84.28511885713719 -157.91546157184655 1.0071153570200537
84.27985217747904 -157.85021375918208 1.00768775961666
84.33453492751332 -157.71197688349244 1.0053095071627625
84.23953974690427 -157.51674565831945 1.0120930076493826
84.34093590162072 -157.40840218427834 1.0073696090259838
70.50238019327638 -196.31864380365406 0.9941426531535917
70.4684229958335 -196.10234962556552 0.9872250317428876
70.37762521414625 -195.96771283204146 0.9802393874574482
70.24973789583827 -195.88950953491667 0.9760323115231777
70.05125325749823 -195.90770220601618 0.9719953885760967
66.85915035648868 -198.5364994889292 0.9970345795466921
66.71404948198202 -198.4498611929331 0.9924039986255723
66.49351707412885 -198.46090184261573 0.9877429532663441
66.38813195500022 -198.32257505995102 0.9822071670914627
66.30190657085731 -197.89236044462285 0.9667182216855246
73.96921801783853 -167.10172313806032 1.0119367859547996
73.99747916033519 -167.00763666981982 1.0080569928879997
73.00908849852217 -163.66956967733762 0.9418084861078062
72.31956600163807 -164.27460998578374 0.9722414907290774
72.28666788258128 -164.194908837059 0.9708586880321844
70.89100079152743 -147.81036750117136 0.9236286031281948
70.88773264471845 -147.70105438340195 0.9252012771620933
70.80782130020312 -147.87857964161878 0.9244791207424737
70.69591692317867 -147.9336147122102 0.9256843836806704
69.73528285939548 -150.2124128653684 0.9230773502712115
69.57925640849884 -150.2558499714829 0.9257588910824546
70.84802267627842 -145.27769737467412 0.960656772695327
70.84750809614637 -145.03123983742896 0.9647531546274986
70.51558994834156 -145.19467144192183 0.9674241278619007
70.21642669783208 -145.85504531615757 0.9618926630238744
70.15967664200332 -145.7034533165576 0.9652608234989293
70.20428504197226 -145.60907874117368 0.9657982335345332
70.19386472399187 -145.48265839569794 0.9680639219264445
68.8801051549393 -149.33285882717257 0.9466608828651204
68.60489109678731 -149.33034418371835 0.9524214703925514
68.78310040707775 -148.72510490692724 0.9539217697069112
68.81759836945825 -148.62989087699322 0.9538889379319234
69.23848774839344 -146.51699962212518 0.9694444068708454
69.25004008528767 -146.40372510306702 0.9708993509792171
69.09757964829201 -146.5633351679718 0.9715241147312514
66.20603734913202 -149.43860596606817 1.0005055276725836
66.1600123497627 -149.18370311607177 1.0030191346922719
65.71362547732087 -149.97530533312988 1.007986347494429
65.7224421818788 -149.62323980828162 1.009820249105289
65.81387112429562 -149.53398418296223 1.0081369880525934
65.86341679947382 -149.43225758863264 1.0079301314357985
65.57378983448581 -149.81070659990388 1.011996411170836
65.61223887035312 -149.70696808024013 1.0114345570187704
65.38479081407138 -149.97888040876376 1.0152258068987148
65.53987245334972 -149.07234015555832 1.016782462636936
109.87616383732225 -164.60827131823262 1.1037505860252592
108.52816663792629 -167.78969203845176 1.100112903112933
108.33966015268227 -168.08425063948647 1.0972253817536706
108.40553779389109 -167.86249473758798 1.0955042639648496
108.47853351333762 -167.8185899441854 1.0979744541521375
108.3401015740294 -168.02677311136011 1.096228392764863
108.34580026277797 -167.94337663123648 1.094405420323205
105.57000619433448 -156.28926106725712 1.075146830487671
102.67066655972805 -159.67058376405683 1.1096110700152366
102.39816381502342 -159.9438127286593 1.0774395441653846
102.6689345555449 -159.29820285855712 1.1088372297853595
102.12733888609066 -160.48777271639935 1.050133303024114
102.07295242454482 -160.45664964889792 1.042903079407374
102.21551684982252 -160.0652433961445 1.056021926454253
102.01821526574005 -160.3952387034511 1.0352895919676566
102.00459777053652 -160.33412989954812 1.0328021215651495
102.05552873132382 -160.1583373851917 1.0371537919253926
102.10630471719554 -160.1138886312817 1.0429046466828917
101.9892771915779 -160.273032796759 1.0301634905371977
102.00772519594527 -160.2012377006049 1.0316144421323266
102.22464508136665 -158.79146280694013 1.0148325093056603
91.7274649509327 -183.42609907015537 1.0079185535133732
91.65929530847754 -183.37015763323043 1.0044948714154562
90.71519497382481 -184.23320570034406 1.0106072428259614
94.66441095620067 -157.32627242435836 1.0368831385704682
94.69694073120849 -157.25257361078138 1.0494312130008239
94.57817867317704 -157.3024223600264 1.0476063807248
97.88754429809333 -143.69481720976026 1.102852901342177
97.77979317045602 -143.6137512444499 1.1027597962454576
97.74792613210506 -143.31571157612828 1.1148505328231806
95.25286027092737 -142.30822911858888 1.0820343848231866
88.92776379153128 -162.97288540905438 1.0902291515608356
88.8396799850793 -163.07549538777488 1.1038977928278937
88.83061918190272 -162.9509505218121 1.0974858430164236
88.84827957823603 -162.8884892542981 1.0924361488884338
88.9464552032396 -162.40455940226724 1.0584551331901377
88.72512095829937 -162.8583849851626 1.1015792443657724
88.85380206846743 -162.55284221464368 1.07416005050017
88.8823363058739 -162.47623082141524 1.0677997549403122
88.92867082056564 -162.34208464667915 1.0571213097382244
88.90553711148299 -162.24153181910182 1.054554809649742
88.71502679660634 -162.83374163107493 1.1012430344232795
88.67207509921067 -162.64749301316363 1.0951699107592765
88.83426777041133 -162.19112207787134 1.0588183589709879
88.83120114188273 -162.15216591158824 1.057327906217521
88.87038024377337 -161.89111934213872 1.0428004957851371
88.88458368705173 -161.8498436517764 1.0399151926835977
88.71470112352898 -162.43964130744098 1.0811555947664762
88.78441560220669 -162.096481463681 1.0591811904962047
88.81419512134192 -162.0220337106589 1.053330904188355
88.82371886834167 -161.79588637325259 1.0434239791586646
88.72624035582807 -162.00090222045677 1.0605841396513371
88.48805362618519 -162.41520081781078 1.1003913669507646
88.57219655272797 -161.81481966533428 1.0675192639678275
88.52554094074586 -161.6595975528501 1.0662628221559445
88.57476812274064 -161.490286769513 1.0560278737675028
88.43918962423038 -161.7828096204498 1.0786129308260926
88.42374852737498 -161.7034092538055 1.0771685359978402
88.51795951542174 -161.42515123792722 1.059256759042801
88.52991344920667 -161.36070086803457 1.0561356609180665
88.66874514347936 -160.83379915643172 1.0293303539740948
88.65309101261715 -160.7677736556402 1.0293563317597394
88.40891787491414 -161.595564965033 1.0748620340318857
84.46746050468852 -161.57002378455937 1.0309052374810348
84.47561251579727 -161.50703169419128 1.0288459929723062
84.2791562825731 -161.46122190406481 1.039316200045104
83.99747304494608 -158.72569526047354 1.0225521395585813
67.09380325031385 -199.06646153116327 1.019548982205908
67.07388746121451 -198.82100421940905 1.0102765615307392
74.2619886146255 -170.04504895822095 1.1079923924989945
74.1993909962016 -169.17051349201162 1.0767411473750044
74.22111971073383 -169.0733850712037 1.0731435790845136
74.09256836126352 -169.3017756603552 1.0840438009765556
73.68836949282547 -169.8332945685426 1.1117407217029647
73.57747758264581 -167.04637397386682 1.0188907883632001
75.74600075546354 -136.7124445596343 1.1223321538230346
75.79183198754446 -136.60210585613342 1.1255657520072588
75.55170662798662 -136.65817553844428 1.1247320553909104
74.73542268405293 -137.06887799092706 1.115933789278612
74.81024846886679 -136.82523191891565 1.1228532429606117
74.72388389950939 -136.89542476777012 1.121178450750678
74.57733213037015 -137.056673830557 1.1171108655905846
74.25195679896781 -136.8728083881078 1.1242368121005284
72.78213094798389 -139.9054936268244 1.0511095640805306
72.76293815085569 -139.73987172363422 1.0555311659530873
72.69495644601754 -139.53050953525369 1.0615426902650251
71.5657022430907 -139.43127786303327 1.074479396797802
71.30398342243171 -139.80678840314192 1.0677630265000702
71.37365157428827 -139.71075300914032 1.069421232118236
71.40280318335556 -139.43740553134552 1.0758979811929028
71.2038249039998 -139.87124442872306 1.0672090239611207
65.47713234145378 -147.8182735861422 1.026980150823717
67.41277925808538 -140.37868917340177 1.1003394969727112
65.30331492929103 -148.3744193069649 1.0259910626600566
65.2537246680157 -148.22737340965702 1.0283134218835719
65.80378866725911 -143.92606254790795 1.064249088816829
62.94735211256299 -152.90097548077654 1.0652806292571055
62.94861405273619 -152.77920436094251 1.0647321976910091
62.753531024757415 -153.0987629606372 1.0701213365325108
62.860740934252426 -153.00339180448853 1.0671159424337968
62.43168726981843 -153.14816430167934 1.077335186411484
62.61806653776585 -152.57640757622153 1.0723918953850988
62.690288163582636 -152.351059146076 1.0705056558939132
64.35897501252559 -144.9568050309855 1.0767781268047014
62.2504322672267 -151.99599504445104 1.0803044933061003
62.31564371789495 -151.88425027077358 1.0784736647747262
62.2779385293296 -151.74880701191566 1.079647054880178
61.890310264563034 -152.0362889102807 1.0881702706550447
63.792384972012364 -144.9620813835026 1.0871607433603965
63.60403437317664 -145.15383062374005 1.0885444329196516
63.65046780952641 -145.0368343336319 1.0887273813660423
63.914623431868556 -144.0462724609291 1.0956395445974922
63.45478523368965 -145.22280140909356 1.0903677230912132
60.81758061424057 -149.11116460241817 1.116363033824578
112.00164964322943 -162.40135773887923 1.1793265243267452
103.13917918482912 -178.71607328156006 1.1931843281959822
103.01426143742897 -178.58410211923356 1.1843618205706294
102.91734928628598 -178.52251682735746 1.178559503794368
102.83973979940936 -178.50244845770482 1.1752934453979555
102.70758392640052 -178.5276813509414 1.1714623396082227
102.7783095460241 -178.5252160299689 1.1736866330146276
102.64124374660103 -178.54112791541584 1.169376765475074
102.44213393886359 -178.99408587026542 1.1783254884177787
102.46377142293915 -178.84095701932415 1.1735454651743797
102.50231707951106 -178.74509047133114 1.171759004956096
102.54240369286262 -178.65484767075603 1.169831724181946
102.58489366917189 -178.57826858241506 1.168868580324795
105.71179327793863 -162.68297017886704 1.1967176517441154
105.58640536584514 -162.98598202359847 1.1935717132192516
105.55916052425492 -162.9256292248758 1.1897331507856528
105.6042646714814 -162.76450136669143 1.1892218406271509
105.66106945626515 -162.72439720366418 1.1932424090050737
105.55172390735558 -162.87125578601308 1.187539190209865
105.55842040171729 -162.80442925352665 1.1863896583806501
106.91527105881113 -154.43155132420605 1.2025713302889156
105.53364606172367 -152.87402980063575 1.1365020303037083
102.42539247248985 -162.74708820399619 1.152256803797875
102.40703587608755 -162.716094740239 1.1489085187510215
102.45733952921728 -162.55000215598312 1.1477863734103047
102.50113811694165 -162.51524895821962 1.1515793605066407
102.39156785340668 -162.6611729929001 1.1446110316221452
102.42122075390922 -162.59802648254328 1.1455085840956227
102.94848515455247 -159.8533844243459 1.144642168703417
102.84505613779015 -159.95697174817005 1.1326499783649415
102.84722432273658 -159.9327844918213 1.13287028590534
103.13218435727268 -155.42742693733587 1.2115815065079418
103.00302369428432 -155.37390959815903 1.201248556167621
102.97363761149265 -155.286721088184 1.2023854869670072
102.97564138590798 -155.2106325517462 1.2059908590132193
102.1155291442659 -154.98781995937046 1.136071348135691
91.99118988131858 -188.3118355313364 1.1871529249420876
91.91984144037673 -188.14345644217545 1.179677343227195
91.80987848179919 -188.2317659057714 1.1794913789613781
101.19940062901843 -152.61145209673535 1.2013746289000597
91.71724825577826 -188.18888740032926 1.1759096474728696
94.66030217951224 -157.34996658079766 1.1591849913402792
94.70487442542014 -157.2892200737223 1.1696480495244292
94.56529757845188 -157.3211652842871 1.1740569104308807
98.20987625551993 -142.96070186819108 1.146013703235299
98.01864394873417 -143.01357530618964 1.137234523171625
95.70657121216188 -140.11905210977497 1.1915919844909253
95.30510976350594 -140.53760727119652 1.1613140390523695
95.19180354063617 -139.6365217295137 1.1975781834860544
88.67954387742647 -163.222378848753 1.1263396743829825
88.71151112534832 -163.1216974916803 1.1176377784003855
88.62004239850013 -162.92113194232553 1.1144041276236079
87.08233108203122 -160.80385811485627 1.1786289247419943
87.11896618099783 -160.7715656997641 1.1743995063569426
87.03266697873896 -160.7111051982947 1.1814753281522115
87.20819893025741 -160.27157941336344 1.1578760309058294
87.06030943542073 -160.30049330662212 1.1723485025049285
87.11953911911644 -160.04976504512368 1.1639385238477131
86.90425550880921 -160.65042465506653 1.1924145957076415
86.83686658057084 -160.55457273264557 1.1972579458449253
86.98017106294827 -160.1865278422543 1.1784826254447853
87.05333628594934 -160.11027578921886 1.1707911901505348
87.0426427329986 -159.9511031292182 1.1702301284189194
86.81344084180401 -160.58740282294195 1.1999026605156593
86.81083603152686 -160.34500116813334 1.1964841032678655
86.91423807295025 -160.23277208965845 1.1853176416819402
86.89901190946713 -160.13684364729346 1.1855426794465065
86.96947862907582 -159.88291202438953 1.1766990114243174
86.96695426582045 -159.81864933489493 1.1764302021594937
86.80529733653177 -160.03603772773147 1.193392753311818
86.84210304175572 -159.9726002752774 1.18945830091159
86.92746800738841 -159.783628490502 1.1800552247866265
86.92330878256311 -159.59094566705244 1.1795881546713047
86.93958859712903 -159.0740074387863 1.1783243911544625
86.84379969813712 -159.12375028405296 1.187081611576134
86.87474273258829 -158.99730667592937 1.1847162906018798
86.89341490829689 -158.83550930575882 1.1838723510566207
86.73077112045677 -159.14117663010046 1.1974735597129444
86.787313601861 -159.08299691224215 1.192384932442725
86.79945258051984 -158.85295502475225 1.192562887013863
86.84794556902096 -158.79499615486952 1.188485148688376
86.66107319379566 -159.1656950272156 1.2040269225192364
86.7224522751532 -158.8908073007695 1.1994135358119646
86.73416488855352 -158.7413765451983 1.199340903675416
86.75470620652962 -158.64206933746027 1.1984233492599892
86.76513047122677 -158.5938989467058 1.1978847998465816
86.62146472025387 -158.9934467551044 1.2082006695526701
86.6328015053569 -158.6704854662706 1.2093694835314566
86.61799541474274 -158.44328458110104 1.2130197250406578
86.68860300078325 -135.98948158023921 1.1852122284217224
86.76402320992929 -135.93691236484796 1.18820682043993
86.55846556863543 -136.16905268667932 1.176452011881969
86.616959430657 -136.06231969671236 1.181392863832623
86.4615924269126 -136.17304505252088 1.1751416763370548
86.33423553121214 -136.10135961758525 1.1766061949954556
74.65950774416292 -171.42697096747253 1.1557519700392318
74.67359143494458 -170.95064949706804 1.1356909704748093
74.68377532105976 -170.852984779109 1.131950616452859
74.55763949055611 -170.8216640346159 1.132670983759984
74.61599031873996 -170.609694746503 1.123137676691298
74.34471563678385 -171.29578298162605 1.1557602285652897
74.53594668231453 -170.73938270146547 1.1301765336690166
74.55706133302057 -170.54549289394572 1.1220932388844558
74.23616709058825 -171.25690339770006 1.1565611885324112
74.50213049964736 -170.47970429468972 1.120181381852232
74.13317687101109 -171.49834488490671 1.1682890718235681
74.26988394388191 -170.31337945944537 1.118522657360115
74.00160318286211 -170.52514932143833 1.131543137532993
74.15301349697262 -170.1843289869589 1.1158188044320667
73.70516689038992 -170.19355770426347 1.1249512556803636
73.65436074666829 -170.12144106593638 1.1228556799126934
73.64075406998904 -170.03899536114332 1.1203774168126144
73.69534367229349 -169.9271837370205 1.114711334482309
73.33364409523848 -170.92448934829454 1.1603267821448517
80.5519262532121 -135.0152107822629 1.1773794922165532
80.46475527308354 -135.07350437010922 1.1749826791921985
80.23451038886242 -134.901096788499 1.1805022860977779
80.13864959310794 -134.93738093202077 1.1789057089954962
80.02420196426755 -134.94330407818737 1.178413382321323
79.74130425918229 -135.47980970353726 1.15880045721098
79.8441812730508 -134.9606300713984 1.1773408297190544
79.31162744506575 -134.6309409740878 1.1878466758045911
79.35944962893427 -134.5069042494286 1.1922902064294332
78.94510546571706 -134.46743728485083 1.1929229948951885
78.81117832942887 -134.46275292161016 1.19285169652622
78.3700927295576 -134.00262635321704 1.2082799820026746
75.78720570586609 -135.38609822451326 1.1638398017813016
75.7023490839582 -135.46035981880618 1.161686497759467
75.56563507540555 -135.4717216572204 1.1617280133309604
75.41504912127418 -135.63556589281157 1.157019531909793
75.44212018065257 -135.4959515982415 1.1613101874711942
75.31274321489929 -135.6925830852577 1.1555483044877017
74.56057297997768 -136.38024363653145 1.137418970728012
74.62819496254771 -136.28226962573478 1.1400598408514144
74.88928102685328 -135.37243731900764 1.1669882505235207
74.14808710422398 -135.22120160373956 1.174436942952963
59.695823671185344 -144.3915308528355 1.170450758906991
59.77176254337411 -144.26935217150253 1.170436904101182
59.71832430008016 -144.09007041523583 1.1729543634072157
56.092221579806406 -147.1243837583853 1.225937983749871
113.58029082764673 -163.7087019183943 1.283080323890626
112.19265256489749 -163.73836864384552 1.2107231038667063
107.21168958824913 -177.1716046843557 1.3012620986277537
107.11270431691969 -177.33704283551913 1.3021905644081753
107.1649191991308 -177.23368821425618 1.3009652523757436
107.40566062968924 -158.40173919480364 1.2846510484763267
107.30662503270955 -158.38021149006502 1.2756594086372008
107.23375826396662 -158.2527189970442 1.2688745077925085
107.24294917366113 -158.17135699526085 1.2693778200705363
107.27495664608507 -158.10445019192426 1.2720633266397778
107.60163994581634 -155.10102153273272 1.2441783860294708
107.49863983297084 -155.1022099632976 1.2363358955384736
107.42771376569723 -155.08770584117102 1.2311997892997708
107.36443521085673 -155.0457251722422 1.22696854771675
107.33686990478347 -154.98666134621854 1.2256778375304527
107.3176736546993 -154.94767303748978 1.22480750686592
107.33219752705197 -154.7718900936126 1.2283777117963326
107.24934005009605 -152.74513928206628 1.2581908616655373
107.15089040082526 -152.70192887575845 1.2520930309003844
107.50269806717195 -151.3425206014077 1.3085786604127059
106.5749982732514 -151.96916301877872 1.2298559957310424
102.12360983589066 -160.47504983159018 1.2627626125821725
102.18098748085652 -160.08569884367867 1.2675297880468943
102.02244748067925 -160.39267334502782 1.2455203392900243
102.01519327561456 -160.28673236512918 1.2430824871561583
102.04992497181318 -160.18646278141813 1.2475737856785813
102.10871420070929 -160.1214070731008 1.2563726410264608
101.98995655787074 -160.30162642220418 1.2391474129882443
102.00001631757219 -160.23901618628707 1.2401908003441873
103.01950669137833 -155.10161837874634 1.2152363173890832
86.01788179839596 -195.65619792237277 1.2948102640752948
85.8904754166109 -195.63605339842042 1.2915490883205305
95.8172596975997 -148.1443454576969 1.273761451686382
94.87901955386515 -147.98534285964905 1.2622672116467861
94.93734284429493 -147.90748403352265 1.2697139765243062
94.98921470634883 -147.7584380758254 1.2826392388471775
94.7820852123105 -148.08884742444567 1.2520262321070563
94.8387245806026 -148.01958567561195 1.2587081184088358
94.68007429964088 -148.14301486346713 1.2456161017796274
94.53466800796585 -148.18791843600846 1.2391534687829933
94.59626534385497 -148.16995834873464 1.2417988819680759
94.44592435741572 -148.18175037873718 1.2379116126444287
94.35719949616151 -148.17820584865808 1.2365217688475074
94.268178806576 -148.16927658449373 1.2355994786744386
94.17543851808895 -148.13932879903865 1.2363025161867989
94.08021131029194 -148.0901969853577 1.2385107751439646
93.99811102830056 -147.9968454893383 1.244405780977308
89.12974841158754 -161.7961091631806 1.2685316347581745
89.14457391225154 -161.73051705848445 1.2636527586595476
88.97490279079813 -161.91645269715863 1.293744105812073
88.99047641085204 -161.87367404987256 1.2898024755430881
89.02630112201423 -161.7776531290641 1.2808955847066785
89.08617789713756 -161.70300212527644 1.2699366872829239
88.93150780228255 -161.95121256194952 1.300997472735578
88.9951843259811 -161.64207124035542 1.2789803892580367
88.91781349468857 -161.65471790304315 1.2893824361231592
88.69674454883103 -161.4537464951701 1.3098869267889741
88.704366434335 -160.94292884307643 1.292817741471244
88.73271466210855 -160.88925764446103 1.2877678103099255
88.69475919409143 -160.9175852707005 1.2933037004514598
88.7100538129271 -160.8393167433991 1.2893887297607225
88.73746723292605 -160.77194715294763 1.2843203697526626
86.2269367329651 -160.45801518979687 1.2532962454852759
86.23694931202492 -160.40638528300315 1.25164620147719
86.0540730151198 -160.52846244751905 1.2707519112776615
86.24891374948257 -159.59845946690308 1.2430716919275855
86.1428946171899 -159.55371524369522 1.2527633376199598
86.2439175787627 -159.14540887407347 1.242946971341039
86.08541031390621 -159.15977874430942 1.2578605058793932
86.24341243412469 -157.78479826017096 1.2571954247629042
86.02124008441189 -157.79897999018573 1.2769858958490399
86.00525604525912 -157.7579390441819 1.2792703530425173
85.68847932126828 -158.30609806735478 1.3000411263436595
85.678506736493 -158.20776745788737 1.3021549211107692
74.30848944333732 -173.08311439909144 1.2320125831908808
74.17544216870763 -172.9519120626111 1.2285316321603394
74.15532827645819 -172.76204030193057 1.220634513417486
72.97990604004033 -172.18101704617305 1.2168870730121264
69.14348491529864 -171.61705753428788 1.268529345437602
69.05095594099241 -171.54472888756797 1.268166017852046
68.93101331287059 -171.48359507270925 1.267900355076115
76.28552287731549 -133.20216730427353 1.234623129542793
76.33738772741381 -133.07315434695082 1.2389751214609452
76.18580500968636 -133.2652140885446 1.2325750360576135
76.07673012135672 -133.3157220221662 1.2309258970349672
75.2857708052523 -132.85613864921248 1.2469041987481633
75.16167464464381 -132.89250279658435 1.245828722876059
74.39581927249826 -133.2900017795683 1.234285564081909
74.23204463564545 -133.28048318337966 1.2349576639667632
64.10926821013095 -134.21000472312176 1.2771352920734242
63.23636588845453 -136.07123219019792 1.243800881072225
62.37085443844538 -136.14434811674275 1.2530225070726473
61.83771722133347 -136.11315647763155 1.2606267130912463
56.91223406818288 -142.3396096078019 1.2444590518335668
54.875431672798484 -148.15158501127158 1.2486797121034454
54.654158382780814 -148.55212009521307 1.2531665061367188
54.73120290740723 -148.41504115149817 1.251329449636812
54.08667675997287 -149.48997892032023 1.2645731853311177
54.016499404355194 -149.00707724075383 1.2668030405235065
55.42890679335607 -143.17089965280726 1.2648156307435632
53.756872032970946 -149.24990195122245 1.2724825706923342
53.82618386839653 -149.11386795461178 1.2705879086481984
54.60660803273744 -142.31989940438163 1.2888495254783965
54.3086376491016 -141.31083675604253 1.3041643660024649
53.669740613025574 -143.47268573955603 1.2973836745725305
112.50276907033562 -169.25348201619803 1.333399925082788
112.5000408006586 -169.17832210207177 1.331166805838937
112.5991129224416 -168.93771228073382 1.3309103474105015
112.48093465610563 -169.0949343142181 1.3288007089910896
112.49520859409279 -169.02936452351491 1.327651696786983
112.53031103293317 -168.97493854892878 1.3286647792227677
110.04277075996514 -173.407057409855 1.3159867318906227
109.9505864768258 -173.40928655539335 1.3113541377127733
109.82365088522874 -173.47104934867684 1.3071216551507234
109.87323885495815 -173.42732139990903 1.3086086599819255
109.70488848048946 -173.63212519132423 1.3064213016878947
109.7359821384446 -173.5655697750103 1.3056355387465555
109.77483053644104 -173.5134955780826 1.3063788221198818
107.54885005059599 -177.168518626802 1.3153178759657895
107.44692588384001 -177.14373640082533 1.3099282280161337
107.35652956756535 -177.13245917360314 1.3060871021261273
107.2818786062982 -177.14411764137637 1.3030028606447037
107.0779763033079 -177.6066884753485 1.3091396940824047
107.06330070702981 -177.4523161639154 1.303936316487807
109.31573041211405 -152.84613264852103 1.4060247276228333
102.43778665664213 -162.7763753316675 1.394637103247461
102.47151143722004 -162.54249130307352 1.3871035830840008
102.48077214724442 -162.5208533982576 1.3872267328143557
102.3642324980459 -162.72484173124943 1.380451899596869
102.35945777404405 -162.66216589333342 1.3763510868310016
102.39531530755194 -162.57714183583315 1.3772152483688525
86.46119906782228 -195.97098124872167 1.3163377117953723
86.36699790598034 -195.82911549490618 1.3096036447758652
86.24515714348608 -195.79117958172918 1.3049048943163215
86.09662065860068 -195.84493593380319 1.3036915339013366
89.05578270105033 -162.98951801825217 1.3473291174283157
88.92063167269492 -163.0380511502443 1.3669054792304094
88.70327326804183 -163.0570356590681 1.3945407074230245
88.77988730033024 -162.93140848026567 1.3766321806349797
88.76735515387904 -162.86450324913457 1.3737422254001508
88.7749219717723 -162.6375742038034 1.3583277035452959
88.81285032402636 -162.50174072498004 1.3453927043967033
89.51824440770602 -159.93951342604146 1.4099274768505248
89.57173476796987 -159.8289111950731 1.4013078924694877
88.65686592414654 -163.04447040759624 1.3991671563747103
88.68175203024798 -162.86418439628434 1.384043475654977
88.66959938636913 -162.7970239100471 1.3812422355209526
88.66816008573656 -162.71242119126774 1.3760568686625891
88.70160970572083 -162.61683502482896 1.3660509792932625
88.80050969151922 -162.16530812363553 1.3281685145976774
88.70269169137532 -162.37987449384804 1.3521247683682351
88.72277964049071 -162.26552526897706 1.3432382819638926
88.75825890140767 -162.20192077617105 1.3354961763791373
88.77407752413096 -162.10044563165982 1.328237617378134
88.789165303235 -162.02035590897495 1.3223197858930125
88.60253563654422 -162.3646134274677 1.3637312716676682
88.40857747537576 -162.4849304159995 1.3946050568726296
88.53176636865268 -162.1734697485665 1.3624029464104592
88.70980878536359 -161.62380041005457 1.314765212877129
88.54116833933122 -161.6234480122468 1.336259588035275
88.51367655361437 -161.08838205016164 1.3215382941872185
88.524171952672 -161.00825897904974 1.31784554143877
85.71165577837024 -161.5329370807569 1.3256284223535846
85.6005304330518 -161.4528514050186 1.333903301608983
85.63950971527161 -161.28298955585092 1.3256853985199653
85.45952105791727 -161.50389553857477 1.3484162164709317
85.53559729682316 -161.4215671305395 1.3390106731123934
85.52356819497224 -161.3655592794536 1.3387363181909993
85.39589109153657 -161.62237354515005 1.357922436371823
85.33070930505495 -161.21322667690814 1.3529783470973045
85.15824350289256 -159.38865211637525 1.3448568597971322
85.06289636451487 -159.34045381347676 1.3538329934727593
85.54445810634945 -157.41743111318766 1.3273265825199119
85.57834958027668 -157.3469466653742 1.3257939276433648
85.5552357151272 -157.2410305003327 1.3301921448942804
84.8726508225641 -159.59696295385322 1.3725676507713542
84.9077941483636 -159.5430587403434 1.3690504689243634
84.9603571699361 -159.11470981080333 1.3631771962558008
84.97050987134732 -159.05582174410182 1.3622001743116101
84.88879901177677 -159.22425143816793 1.3699306165520555
84.91100145564512 -159.16834220039257 1.367866218827087
85.33907009382591 -157.05208368487925 1.3537741363290337
84.93325315188041 -157.68168513304164 1.3776140577068854
84.89894191003815 -157.58898270076878 1.3821903997861407
84.97157560141244 -156.97938024811583 1.3881916155082672
84.87364965307474 -156.77479637647306 1.4018707034878048
84.48839118332812 -157.86978146719377 1.4154697992269227
90.04741458271803 -133.60684069384914 1.3371662869415741
89.88808181394346 -133.3357180369268 1.3455871847763206
89.8049992273854 -133.39607616568787 1.341471284028366
89.6551091560888 -133.1849916127205 1.347552505403143
81.97141513263452 -148.15743687694453 1.4131066522961335
81.98200703401103 -148.03601011858302 1.4186093326256914
86.37912250254534 -131.35323670444063 1.3701569794700086
86.44322787561728 -131.20758615377193 1.3771223371154246
81.90065179306345 -148.18120162811167 1.4145009081352773
86.27762256471053 -131.3874908979767 1.3673563182602748
86.1820679353121 -131.43906513065497 1.3638561357479317
67.3686821610263 -129.89929057547263 1.3665202995669659
50.87933802408422 -146.7892021998814 1.340065787193114
52.12378725911039 -142.138017444827 1.3388851987812767
102.39492054269553 -185.5765620191802 1.4086829660901052
102.26141409275064 -185.59514704522286 1.404527580760305
110.08733084927044 -154.33849491513135 1.4423870758953812
110.01449772432578 -154.23105857528356 1.438150476949772
109.93374563318659 -154.18067341540944 1.4326107133345776
109.87912274360207 -154.14762843684284 1.4289194147603066
109.8624742205292 -154.0972169023152 1.4282531135630172
109.81505517598673 -152.7430480722134 1.4445955684091898
109.46658765266172 -153.0597840464462 1.4136559976169405
109.51926228035524 -152.6643548205899 1.4241295441638528
102.11799084048914 -160.48269203543336 1.477572540794626
102.08286378041151 -160.45169432920324 1.4701924812782226
102.15995755197898 -160.09452971525036 1.4816564461472408
102.02873595726439 -160.3900710293464 1.4587851518913957
102.00988769617528 -160.2980435783443 1.4540047058994814
102.0422252341228 -160.20428476982482 1.459441167549361
102.0994121780065 -160.14000134601136 1.4701216722635118
103.08205616588668 -155.42063538865787 1.5096580890527478
102.94333789525486 -155.26652217555574 1.5024314649953214
98.64089933640993 -135.4739440268354 1.4883006942793122
98.3878922425249 -135.37768254540563 1.4838543003577827
88.51219258582437 -163.6442687023654 1.4605552027044513
89.46823435800407 -160.08644275208874 1.418499188418253
89.494238900256 -159.89247855083997 1.4138613199781365
88.50147850491567 -163.58423450905883 1.4572388603981339
89.31302965889698 -160.29163488856054 1.4457578644222
89.35147311591642 -160.19246684348977 1.4385023679570903
89.43000923824239 -160.11952644653704 1.4249431458515294
89.43269357651263 -160.00257472619484 1.4240911110056997
89.43853723324725 -159.74580766811465 1.4235607691730996
89.45267311602863 -159.68893952477973 1.4216531837736435
89.47995192372666 -159.6095321597346 1.4178100343379887
88.36699812579363 -163.54463950057493 1.4700381624339003
88.35964112426589 -163.48502616321554 1.4665081203678996
88.39096205024903 -163.3513204187838 1.4529282642012875
88.48294529193922 -163.2862271727784 1.4370987497849672
89.42364909637345 -159.56742443856984 1.4275159679438885
88.33425505917003 -163.41956907347054 1.4646164753765578
88.37999103619127 -163.2935613897945 1.4500870459738164
87.24386763361942 -160.5127441613883 1.473288060905572
87.31066249821366 -160.2676295571879 1.4611413298439493
86.9866400604133 -159.6891017216753 1.499330916965791
86.93007995460303 -159.6512712214098 1.5067131622728276
86.92900408946304 -159.55375321068382 1.5067367963483573
84.54938340548578 -161.22783016588593 1.427158627322612
84.48909469296935 -161.19119993765364 1.431821379238238
84.17397131938371 -161.33681223079583 1.4651964499092323
84.23600712463994 -160.66729377881978 1.4452076208374207
83.82381132952943 -160.5032933151074 1.4814825184292788
84.43193611838561 -157.79385633507448 1.4215904191961746
90.941974509495 -131.5656128034953 1.4431435427964903
90.8593531058897 -131.68219307844547 1.4363769371401436
90.43434395890222 -131.5881538895733 1.431372984820036
82.1339343819051 -147.8618933992562 1.421804963256956
74.02855356273889 -178.48718085252125 1.494663123996544
82.11340300037273 -147.75655066894984 1.4277329583109417
73.97651106351378 -178.40112269904216 1.4913602282238687
81.94666953915328 -147.87076425947333 1.4279111592110607
81.99579353598017 -147.82461961080762 1.4284540875377505
73.4000117905834 -178.35551812141236 1.4958696474831548
81.56861441252326 -146.79508876666927 1.4945254060550202
81.04074795338492 -148.67227724306807 1.423880329473391
81.01755924039901 -148.56917331854353 1.4293876746977985
81.24413024124114 -147.7045698219412 1.460997232584807
81.40007990890933 -147.0185175248104 1.4889951053543178
81.09512052006848 -147.75343887068374 1.4640906562543667
81.1353486144209 -147.69973885362828 1.465171074010183
80.8086214322813 -148.57727118702945 1.4371140660785893
81.25420885851952 -146.79054793396193 1.5053806907884437
80.82823010435507 -148.02885504323072 1.4611491765651778
80.90595198429122 -147.96201499549866 1.461314995932592
80.91878587048652 -147.8835385363108 1.464482749592171
80.92887641830889 -147.7542838643025 1.4701546746279466
80.60885555650441 -148.5092399096391 1.4479188071075788
80.6597359385471 -148.02452202673803 1.467714198229832
80.55457731032071 -148.11796798460725 1.467483899787333
80.497743944078 -147.9841392825179 1.47571035517884
79.39159029382576 -149.70739280506112 1.4504435987676203
79.44926240498287 -149.62350948031775 1.4509575812666422
79.42191133595483 -149.52277061008155 1.4560073685049322
79.28196683518065 -149.8033623993404 1.451806230350547
79.18012086734143 -149.8640809664641 1.4542179978860805
84.50706147939232 -127.31911186406876 1.5097144579104131
84.54796834071084 -127.07199293794687 1.520445081466691
76.57655868739946 -156.34285547054225 1.4569723052049033
76.52886307472406 -156.40546240787674 1.4596415480002403
84.13040549320377 -126.98612459715791 1.5182797876870309
83.97133176402261 -126.91177361559065 1.5192776668065755
76.3198581715109 -155.63995976582584 1.4760393619982939
83.82465060273606 -126.8737298021953 1.5188765471151375
83.671321365785 -126.81948406390343 1.5191769436803362
83.48604183371157 -126.6901002716418 1.5220453741909865
70.01052640179381 -176.55682214933336 1.4567682557808348
70.0143795375043 -176.42573536126477 1.4513122622827128
69.95124834475205 -176.33764274840775 1.4478469204830777
69.84726507475152 -176.2816538087077 1.4474992872378185
69.7913200680222 -176.19631015684945 1.444062733841279
69.57653467149754 -176.1990282533114 1.4481990156291153
69.57803160735877 -175.94563898313973 1.436971129791316
68.64820318828784 -176.61997863242277 1.481568806590962
67.76169796308855 -175.96183114361295 1.468501550643775
72.08307347419296 -125.45698456548033 1.4971697509060782
71.82178136812152 -125.58922448212539 1.4924352089537791
71.90298687477238 -125.45736966487326 1.4970458165883147
71.6736521171433 -125.87893630081608 1.482478427747695
71.54616995258489 -125.95477416090723 1.4799086696063348
71.66836540253169 -125.61608875609029 1.491471740412691
71.37454050230767 -125.96935746905264 1.4793769124503158
108.43517582483801 -167.79715808232677 1.5982222924072398
108.34006690321041 -167.94462769060738 1.5968859779368074
108.35211725079877 -167.83479396601305 1.5932851433464863
105.55934594048642 -162.9956570785333 1.5363264102974747
105.62062307160247 -162.80175083960765 1.5369123918546528
105.54268834268805 -162.8854648474071 1.530475458220264
102.96936469752049 -155.1714608586909 1.5121377222213335
89.19294035780773 -162.28440689988832 1.5430779042570917
89.08148391096779 -162.39277449675146 1.5680455199460503
89.13035476966769 -162.34007743430928 1.5566806065016374
89.15464423752732 -162.20432713471138 1.5440093729143627
89.16104005948071 -162.02422845132324 1.5318646793191046
89.19227850717893 -161.8903830164299 1.5192664042101331
88.92019935495725 -162.64191537199065 1.6111478077033174
88.91815330773302 -162.55976439876798 1.6055163177735716
88.9577319832881 -162.48053646740834 1.5936763425469875
89.06266128887991 -162.08452664956616 1.5513092580217558
89.10672682637622 -161.98465110034505 1.5384077865680583
89.11452519977571 -161.87427169824156 1.530901996020964
89.09911989603275 -161.807900958888 1.529880846595616
89.12152884500838 -161.70301525292032 1.5208547641758154
89.02678744530962 -162.00231287031806 1.5521998861562047
89.04623090229953 -161.76739508073732 1.5362702939527622
89.07051463091841 -161.6865797495648 1.5282504563563075
88.86490924972122 -162.169398647871 1.5882206046280611
