ply
format ascii 1.0
element vertex 841
property float x
property float y
property float z
end_header
9.300171180921836 -190.73881408332613 -8.002653125128045
8.953703532902185 -190.82140027285155 -8.046085435460748
8.86259163243555 -190.84827908382633 -8.057234246291742
8.813260089561796 -190.8486644459415 -8.054049400850793
8.728500443709944 -190.81074789419725 -8.04530685438702
11.157515308000725 -190.4777283456067 -7.8672848189518385
11.041544989229491 -190.49871567333147 -7.871617166226755
10.988299210146419 -190.49800558127228 -7.889413996693766
10.737398070779083 -190.57840663686855 -7.924008131181311
10.677997438047075 -190.55781456392532 -7.901415099332153
10.559940491598361 -190.59034239288124 -7.929743122282714
10.509028014392552 -190.60868852370896 -7.940074192493072
9.717462875940091 -190.72674617294538 -7.972180172528186
9.627684055113955 -190.80915845374844 -7.980687804095251
9.485334163072576 -190.80996451020565 -7.989639942576182
9.385027049810292 -190.84789247713914 -8.007160013906681
9.296185354756867 -190.85158068274785 -8.009283226957605
9.231929394308548 -190.85157943145285 -8.012606030005186
8.819455175471326 -190.90361391590565 -8.050712059971188
11.151036341248242 -190.5590566799444 -7.886418506119109
11.04539874344666 -190.55873200517155 -7.881374625091314
11.007896838618239 -190.56048637282092 -7.891386476588529
10.870964124775798 -190.58151871507874 -7.881903386469285
10.751505455533435 -190.60873783552404 -7.903780283287688
10.670971954763838 -190.64162061853702 -7.916768362142965
10.595978263790977 -190.6450127371955 -7.934442179993865
10.377615756047916 -190.7627558272776 -7.927926053519783
9.497153736805648 -190.89889317011568 -7.988307074987363
9.421426749936114 -190.9333316489395 -7.994077700094523
9.307301693901143 -190.91311650389912 -8.01518293735167
9.212793573944818 -191.00358995434817 -8.030406261416932
8.98743042689784 -191.0020519241414 -8.048095241945141
8.939937007436507 -191.0019003357377 -8.050947515162562
8.095538156303348 -191.20794257132698 -8.097218389388882
11.151930139986517 -190.61492818064465 -7.899146676130164
11.106472869997768 -190.66983503592778 -7.8956163149381755
10.994312175411201 -190.70070647158477 -7.922090856580107
10.917704892663187 -190.72449578389774 -7.926726592072469
10.819540132492397 -190.77027346886055 -7.917442135146227
10.70917365809811 -190.74763953362992 -7.9215917285229365
10.644373306895488 -190.78399330160173 -7.967762077538697
10.377476235395338 -190.76899479437833 -7.926962550203318
9.53661913228558 -190.9522612537308 -7.98418782449587
13.00189103922972 -190.39307723568265 -7.719839996447848
10.982513643854599 -190.7458711989696 -7.930326878936833
10.808144579139078 -190.81842864216844 -7.932095966576017
10.727056692231306 -190.8345687602348 -7.9390983392778125
10.634856015290499 -190.86406467151315 -7.962582289723842
10.537536356543269 -190.87586081661647 -7.989078568764151
10.419390398646959 -190.8818276415425 -7.986828890174529
10.356264135206393 -190.962575188804 -7.984836499754168
7.993308608313217 -191.457652746329 -8.110858503492969
7.930047667604169 -191.43439355277525 -8.106057688806397
12.947496600769133 -190.43473276712177 -7.715890505751031
11.891025683261857 -190.7390104275282 -7.819114780054283
11.84737210359774 -190.74551465524533 -7.828363315938093
11.721792199197159 -190.72629037979914 -7.835998000019007
11.329335800230258 -190.81031046825842 -7.855449101351848
11.226607745839683 -190.8759242634758 -7.8584471757416745
10.840075560260964 -190.93082234177785 -7.887603043717636
10.721569182135884 -190.93065446705472 -7.922114648827235
10.6414419151864 -190.99588792238936 -7.932215844450845
10.580352423662418 -190.99385530919884 -7.955464140498819
10.486574505091248 -191.02926537989975 -7.953637156291743
10.407039058586692 -191.0373583514595 -7.954518549815868
12.106773095249462 -190.77173939737654 -7.790364644477216
12.076473017523947 -190.78067831463088 -7.786966009943823
11.868623554947623 -190.76059436314608 -7.812001803778911
11.64646042052258 -190.88198997780816 -7.862339033040431
11.595532779658821 -190.90692058999656 -7.8627496454235315
11.256323572270594 -190.94436791445906 -7.864892247955038
11.198383894300822 -190.97005337024478 -7.8647297983373035
10.837850329017597 -190.98125741780822 -7.882980557179559
10.763991468125404 -191.0443721867329 -7.910858123371927
10.661601891782572 -191.05240530628745 -7.920522478267115
10.595568972000338 -191.07648747100575 -7.94426300469503
10.463553564327828 -191.11514618251184 -7.951307193080933
10.372690661974998 -191.13823870701702 -7.951000213614121
10.302184993786826 -191.1253757207656 -7.936409962590427
8.186579154808125 -191.5948846969221 -8.086198051664216
7.559438086913428 -191.74443446338586 -8.147659329617305
7.482440174156946 -191.77588137494752 -8.157088280676339
7.132658692010212 -191.79269978744495 -8.167991838569208
7.084230691756156 -191.82860705860497 -8.188126735224314
11.822203681042234 -190.90706396021787 -7.862064464904849
11.795813639113064 -190.93923872497305 -7.860020091429255
11.673835419606327 -190.97090280211052 -7.872148531094719
11.599624286205767 -190.965852192092 -7.871524528185669
11.475002752962169 -191.00181421261703 -7.874412610719844
11.411135709225087 -191.03170374242762 -7.889202620500883
11.255275957729594 -190.9900760247856 -7.8746586033545425
11.213256288806388 -191.0294885878034 -7.874226260655087
10.849793579209228 -191.1106927341698 -7.917688434803324
10.79120418098906 -191.11531429685513 -7.899354085889389
10.710046666575273 -191.14272128882058 -7.898973741465968
10.578448531702882 -191.19026244528266 -7.92781680969069
10.490373236363453 -191.18273223860848 -7.939502894886441
10.397444420934969 -191.2133107001926 -7.959790742772144
10.345181400961373 -191.25838564671218 -7.960789858044096
8.644761715316754 -191.6124796619703 -8.075037191507985
7.462951666895149 -191.84221430577438 -8.173078387076675
7.412083143877581 -191.82810355154317 -8.18387596107247
7.107796503982982 -191.96532506519392 -8.177420035245419
11.902411332128613 -191.04205223794034 -7.821928056882381
11.776674889482056 -191.033350106365 -7.841042017885098
11.721758138428553 -191.02769236965744 -7.842525387387072
11.184943044612655 -191.15037897447823 -7.869906942929876
10.8898243417051 -191.2198515091609 -7.8900781539268525
10.815892616735935 -191.2156529105984 -7.886594484242784
10.706854051338167 -191.28043889972193 -7.939737972863011
10.614813132097918 -191.27080183065797 -7.932223529037495
10.564677830066572 -191.3346212990556 -7.964707141655095
10.403579177773633 -191.321235354589 -7.936532048620722
8.847344564024958 -191.6942764826333 -8.034331926735902
8.638171394725475 -191.66846276156838 -8.087410992373147
8.55948203551776 -191.75091632324478 -8.119950442819313
8.48658691889944 -191.72866933374155 -8.108190314771248
8.357018045282047 -191.76587436592322 -8.084695887853709
7.613316544791097 -191.88651222171592 -8.17095167850014
7.2667405607682305 -191.97169748652098 -8.16478790165048
7.205840333623588 -191.97537586440785 -8.175698109237922
7.12739575836148 -191.9795826014904 -8.184330392162572
13.514521763308036 -190.74548625654714 -7.680055891152372
12.208095258185953 -191.08484844797837 -7.847943698848206
12.10824086252672 -191.06751468328227 -7.836384712590952
12.016319335407095 -191.04593889170226 -7.826026347913976
11.936562634562772 -191.0505896903529 -7.825901888213009
10.805591502370238 -191.37611766724547 -7.902395923830885
10.765020549757917 -191.35333724587318 -7.8998085605240975
10.630000085289272 -191.3273026414593 -7.952766618260868
10.439817667409745 -191.3931114284122 -7.9823645550315145
8.367099205548145 -191.85995907515897 -8.08632546156933
8.302943759801396 -191.87320292587168 -8.088765704399645
8.189762989280316 -191.8715455684216 -8.09168234961383
8.120626314260859 -191.8884154415892 -8.1004192871029
7.9876523620374416 -191.95912143887466 -8.110667400141862
7.937493374267822 -191.9503866281628 -8.111919546115617
7.713005186029065 -192.0406411683417 -8.128732348467295
7.615481086344667 -192.02316922033097 -8.130718773967446
7.475538796826668 -192.0878826163015 -8.165912021568582
7.437675437809521 -192.0814440688656 -8.161238361310936
7.3427546252294285 -192.0922329873268 -8.14839601972907
7.26230458193362 -192.12557270481983 -8.169800494688666
13.50278167614907 -190.88666354129464 -7.675197835780701
13.313326155583225 -190.8995547325625 -7.684637792237752
12.269558364094662 -191.09288393003112 -7.8551909072272545
12.169006691915461 -191.10770169810112 -7.853000176630357
11.900491888642346 -191.2320791808484 -7.8901607694491425
11.870865695563378 -191.2398074239581 -7.884762329746667
11.381186446828456 -191.2827774215427 -7.844751131630754
11.346161551967958 -191.2973999167392 -7.851275537043951
10.865648720839427 -191.42934898169315 -7.920216235844427
10.763064265034691 -191.4432615190817 -7.935094910004158
10.666163805072753 -191.51050908234544 -7.92965872672752
10.608747199650358 -191.5253228451204 -7.98344337017226
8.39007246624028 -191.91526241730716 -8.074021014338339
8.315280267418018 -191.98515814205757 -8.105713671715744
8.242895410260148 -191.9858603584095 -8.090385478704642
7.825255104590141 -192.0989365367059 -8.117400012957589
7.720093226906664 -192.09061217578483 -8.151393301992233
7.644172285449802 -192.10520656159989 -8.148385241959557
7.542573610654484 -192.12838012184778 -8.153346623769057
7.450996072601746 -192.14440735056306 -8.15525762408659
7.352182992324131 -192.14285352962796 -8.149336919591374
7.278888797846388 -192.17239102942287 -8.160471779557163
6.326951922543397 -192.42376422634933 -8.228204111547738
6.273654733292993 -192.4279084291843 -8.2304574125956
6.168121816902258 -192.4695513867349 -8.241060031308624
13.848755013733687 -190.8719188858977 -7.6869694164802596
11.922765544712277 -191.3124453757538 -7.8891514926490025
11.857968924977257 -191.37316945831228 -7.893820506935148
10.951026721734529 -191.5315185708231 -7.919824319803188
10.875609312150086 -191.5177240106314 -7.910583136725362
10.78325598373233 -191.5246876676772 -7.953805344546711
10.677075266963662 -191.54268547489787 -7.943706963842944
10.58825077991472 -191.5638296198346 -7.987431765138884
10.513023004614471 -191.6341395042992 -7.988350360030177
8.831944871761712 -192.00255551213283 -8.061386500510972
8.62459662572719 -192.02167988188066 -8.119535086528819
8.550397245035242 -192.03869538093315 -8.113616647091156
8.460275451308851 -192.04169954745868 -8.119115513264248
8.341001134688026 -192.07877523042703 -8.15919685886937
8.256970694768079 -192.1164104629792 -8.119379592040131
8.054097406208633 -192.16595866625153 -8.159792561419348
7.839843803878299 -192.2146858626555 -8.185525194213591
7.768495898379329 -192.19090878045247 -8.16349265230034
7.690692700424986 -192.2020502583774 -8.169819166232513
7.443698783361809 -192.23574825151277 -8.15613221696415
7.365271863215169 -192.2966513336896 -8.18783998241965
7.297869372606139 -192.31370624266185 -8.204501350102598
6.52418782384091 -192.399166051607 -8.232420778856692
6.485082219172567 -192.43983435789278 -8.242667652302844
6.393016347030234 -192.46562643061023 -8.239208842536561
6.2966089938058785 -192.49571442841588 -8.250786866050525
6.194468730334709 -192.52758376233731 -8.262931524975098
6.071740894990433 -192.5843111336814 -8.27652174219984
5.996786798648898 -192.51970452662718 -8.266933397698361
5.783484648628917 -192.64233179068376 -8.312631715213751
5.710417149124044 -192.67165421967525 -8.320767017753221
5.610920599651788 -192.64858057533155 -8.315664729101542
5.53045980369547 -192.6641772476361 -8.315267581450122
5.410406277264868 -192.68166441614795 -8.315157566372726
11.858832918104946 -191.38191485702535 -7.886294780697955
11.81504510626224 -191.39315348257776 -7.894363846145053
10.963448419177388 -191.62531215615928 -7.918968815948869
10.874387289906283 -191.64529928174426 -7.91265944206045
10.70646312783391 -191.68529334729917 -7.97828183196533
10.608343311757714 -191.65332455537848 -7.988172800535606
8.715394087091317 -192.09442901008742 -8.134357548104008
8.678586110309885 -192.08552794902326 -8.1282586447357
8.555124009968644 -192.10020251843451 -8.108615008292979
8.427532705906634 -192.1560140054396 -8.124987569296591
8.38576822416437 -192.1526867455884 -8.129329813779165
8.27204623786795 -192.1575512369327 -8.153760360242972
8.157722708580595 -192.24154988450636 -8.165005302930673
8.073156092797245 -192.25358083770953 -8.181139692426122
7.991257220962913 -192.25537196231895 -8.16750786388392
7.883865872402906 -192.23734519975952 -8.17019074383942
7.480646153670794 -192.31996600878918 -8.196085037233892
7.388937110207822 -192.34818234476126 -8.207240970712967
5.885575506755248 -192.6440033954392 -8.305796954331083
5.7306956941166485 -192.68657848643102 -8.327555971777032
5.602737298813766 -192.71222982651716 -8.335978990496429
5.57119925105645 -192.74417875344537 -8.34713192470259
5.453058772062819 -192.76675795424674 -8.359709757465374
10.97563789734237 -191.6664159948703 -7.920641264358091
10.950074428014517 -191.68873169008836 -7.902582868458142
10.79073216439205 -191.78954250144466 -7.961059808495229
10.709877272209562 -191.76047946236855 -7.956291662539825
10.625701712438124 -191.80586643731976 -7.977376741798255
8.882450127438931 -192.17161764357087 -8.093078794341235
8.62967588137711 -192.18746589572132 -8.07785533165345
8.579428469718513 -192.20679867469093 -8.11457642549891
8.498245839719328 -192.2272675241489 -8.119126352283955
8.401850777441828 -192.29125712266162 -8.101064700097623
8.188110924280702 -192.2565947093349 -8.164067998496318
7.477067063656563 -192.4442364873703 -8.232166050603611
7.400743844093682 -192.45206402704693 -8.218954274014367
7.315952963453878 -192.49752583990187 -8.213825384425206
7.1991946251622005 -192.52737888988594 -8.185884695286296
7.119148699945475 -192.54734458256712 -8.166945011358358
11.95279441273005 -191.62705846694206 -7.856264030577625
10.924134820822195 -191.86144086831317 -7.959349028616285
10.803753219010057 -191.80492443700646 -7.962724976692112
10.71710489095155 -191.89373182964906 -7.978447881598201
10.62782025318851 -191.90537530426775 -7.94787527722305
8.904400575349754 -192.22866486466114 -8.111301934799132
8.761408445458377 -192.30690105047262 -8.129867608622567
8.71696421588858 -192.30285994178342 -8.1266488805678
8.555330865997272 -192.28817945021564 -8.11421554422645
8.526418445550785 -192.31458062262877 -8.114416641437257
8.400242394960111 -192.32053862241287 -8.106597091465394
8.264186548676076 -192.38682070584505 -8.1172455904775
8.214897819345765 -192.4046188262888 -8.120539290911777
7.49064945415179 -192.55917333662364 -8.210495549406843
7.44769816383449 -192.5602836982978 -8.207820090270632
7.294539064206209 -192.61427967344343 -8.22899318079995
7.265695780594999 -192.6412041829945 -8.238981839758788
11.82259799520415 -191.7642986253183 -7.863361566981191
11.77432047034371 -191.76816013393514 -7.869691980462751
10.90650131358305 -191.93128643629507 -7.965811126328523
10.729301907248857 -191.94430885712575 -7.969285376575147
10.646910167753502 -191.96611996272475 -7.932149396112189
10.252926355796689 -192.09207575886052 -7.9663854949772865
10.185195987370413 -192.11806995609538 -8.000428396315504
10.054916845592308 -192.08674553784357 -7.975027168942809
10.003783646573346 -192.1567764695854 -8.002777898549962
9.891680825013552 -192.1264921564455 -7.96311574999926
8.699956232987883 -192.3897781986172 -8.120433241470218
8.649118971662212 -192.41596602181014 -8.137791064895975
8.480303256609533 -192.4418948087436 -8.134283461925355
8.461550605455846 -192.46843747763282 -8.138755708558149
8.15683376082968 -192.48194235351804 -8.158148922967765
7.345365494552935 -192.67330984139898 -8.233535714066997
7.079780200234266 -192.75075644907696 -8.257414847981705
12.151889825577216 -191.78110179207303 -7.842278463184327
12.05425583507808 -191.80699621966545 -7.828852257466145
11.945462920206237 -191.81393900155715 -7.8415724852196345
11.853024711631944 -191.82763315942236 -7.852350696255421
11.771278680972575 -191.8325898137536 -7.841095173427249
11.048108172120557 -192.02317419136088 -7.954229191431984
10.922096632004626 -192.0788758022695 -7.959141834893607
10.27783412336836 -192.1777610245902 -7.9659351544575365
10.191923195303445 -192.1708445663408 -8.000192951251169
10.098746052036566 -192.20250753554393 -8.011367919925533
10.012817890487769 -192.21632930391178 -7.992571554082116
9.713419572675365 -192.32768593567562 -8.036405535724782
9.631732454531017 -192.34860871552166 -8.040471782162678
9.196906824139317 -192.39672106673123 -8.075646498954875
8.619243900718653 -192.4700546743273 -8.138602051053983
7.915276712327178 -192.713960575099 -8.149669359180642
7.853977134837806 -192.71872820073145 -8.160759098897273
7.2199423468004245 -192.772942014702 -8.24572800564859
7.165411424061309 -192.78107720269728 -8.253508041938021
7.070526431451386 -192.7981848117464 -8.262425895587553
12.239419334098756 -191.8491188719646 -7.801471800071552
12.196554936327185 -191.84595333546804 -7.8117635500942315
12.082869712391961 -191.8494037120196 -7.813894244379889
11.074478716386043 -192.10900819603688 -7.950191627907477
10.981651029302471 -192.14863688492554 -7.954734888949966
10.923242382319243 -192.10966673095774 -7.954799044867128
10.297137540864396 -192.25982912848204 -7.9921056887824395
10.216450893544367 -192.26495490994805 -7.986807103612689
10.01570163183099 -192.32241263736563 -8.001134647079223
9.929417759253447 -192.3929104926099 -8.013033728929338
9.79760689888034 -192.38473633318708 -8.043072324328898
9.736079486362733 -192.37704564172066 -8.03489167381587
9.643788175663438 -192.39666544061248 -8.050308520369397
9.575788877409035 -192.39487978382815 -8.06270640193436
9.36552526328128 -192.47786899463281 -8.039999551216248
9.247794688323584 -192.47265104416303 -8.090299252130418
9.169675323508088 -192.50649791117098 -8.053605532879695
8.548901637227086 -192.65348565924046 -8.115750627559752
8.048138568524815 -192.72388736616386 -8.128646149789704
7.97776715299536 -192.77571751433484 -8.152106196964162
7.882602430243002 -192.78048116943597 -8.16755380593741
7.2017848253401535 -192.95592213991563 -8.193649329344392
7.136061200796853 -192.97086700498235 -8.216983033770289
11.125525768592743 -192.22852798059614 -7.933892754667571
11.030813928611783 -192.22058505272753 -7.935333071814876
10.95589373942062 -192.1875817087583 -7.949326898262394
10.508783573782253 -192.36465991437422 -7.9574448416593615
10.452983577114694 -192.37166839510613 -7.970393293348147
10.357664558454431 -192.3653574966941 -7.958977001825788
10.216543053305585 -192.4157292209806 -7.98883639517653
9.933608506350943 -192.41837461675144 -8.01232491023207
9.857164482110853 -192.45987228214102 -8.023046915869564
9.761426345532232 -192.4557269224735 -8.034689859934312
9.652649292881144 -192.48487734626178 -8.05158577868681
9.248936194577103 -192.6064321748584 -8.056921472068986
9.168833964876352 -192.63575936635274 -8.066847622825797
9.104112199503613 -192.66083303510325 -8.082518041233254
9.009256848096612 -192.66742810708078 -8.047014628208025
8.55099834898878 -192.73619383541046 -8.127476878675811
8.502177518579847 -192.76892888126025 -8.141823814447436
8.189031799941644 -192.84036161419118 -8.102018734232178
8.081801500758761 -192.86951984081722 -8.134308767925214
7.9927040883238165 -192.85768009782154 -8.143482842363527
7.929574992982462 -192.87112193701148 -8.160456091629399
7.196059492687678 -193.00549398987496 -8.192874399372977
7.103187750818954 -193.04307723106666 -8.213024937725743
7.058808947903183 -193.0293274323163 -8.230042725521212
11.426082097187505 -192.271963464405 -7.88415345413131
11.222117748056991 -192.3011562955603 -7.88648604866553
11.150741289752938 -192.27989764120505 -7.918065343231814
11.06962752177614 -192.26134155378665 -7.921452031299317
10.52352522170176 -192.42276197325106 -7.947738928287045
10.437263354689977 -192.42862230431265 -7.928875846821542
10.395297738941442 -192.44236041800858 -7.931498659544136
10.210268204936998 -192.45460208234456 -7.978159648193406
10.202329911222588 -192.4675304893787 -7.969292457509739
9.916360472096468 -192.51819052279671 -8.019515697738884
9.874873965585442 -192.54499030743972 -8.029973008878443
9.826724681794285 -192.60679381904586 -8.040499567274809
9.614206327839147 -192.61206961842544 -8.064509865156014
9.361585997199514 -192.64703302479265 -8.075967489031537
9.281126264634294 -192.69677524843306 -8.078441798272738
9.238691782040874 -192.73026823198643 -8.068585439661183
9.105593726979935 -192.6921887662527 -8.057103052152474
8.996718217201808 -192.7371093595109 -8.093358640931115
8.92731632691657 -192.76238756149857 -8.11366979985249
8.830402909330688 -192.82111148987195 -8.057496842960557
8.57529039073529 -192.86370922101804 -8.13610444865408
8.4863920282586 -192.85694609108572 -8.145375912772652
8.185272997542707 -192.91097043957896 -8.11051600479105
8.118462641905602 -192.9304810436995 -8.113351091081638
7.980509874417795 -192.92246001514215 -8.142425838896308
7.959448684858508 -192.94388590675746 -8.14384016285168
7.043148649825715 -193.15249684760005 -8.228201117672416
6.944484013895265 -193.1945695678598 -8.248697118622106
11.51586440531055 -192.3410037035161 -7.887034909574492
11.470740250562418 -192.30094032333633 -7.887942968247412
11.235943271650138 -192.3501675265716 -7.8847793976391385
11.195861379533738 -192.33738363514658 -7.915810645334854
10.627037605708148 -192.49036314192819 -7.929781008215691
10.607769052194781 -192.48106093227176 -7.927798292769485
9.934372938913736 -192.60494380904248 -8.036613695430521
9.858218650755374 -192.62633839261278 -8.043055679407242
9.825176080479373 -192.70663408226412 -8.044874177278565
9.681749198784217 -192.74852296852583 -8.04483766567256
9.59370236682076 -192.75785406823923 -8.048541795994304
9.276033416486989 -192.7939238867127 -8.071369445782466
9.218456204821713 -192.80539554519265 -8.078017187403848
9.125824873214759 -192.8344585167986 -8.063188385436245
9.02446700127162 -192.87391317558362 -8.074690158631642
8.815941500722154 -192.90749579703885 -8.103919668053514
8.51470754767033 -192.95154536663978 -8.13906425763969
8.200334029425271 -193.0361714318895 -8.102467641716396
8.157267855605152 -193.0285402341812 -8.117839808181877
7.253304197827241 -193.21999106214247 -8.175177666606018
7.182602468536162 -193.24393104617008 -8.187986874275898
6.946802805491853 -193.28757174570183 -8.255037704804304
6.881934382012615 -193.31930789661814 -8.263225288254764
11.655497843101532 -192.41634513047526 -7.863478264979158
11.550647304319611 -192.39290489004648 -7.892152991987735
11.493175465557208 -192.4127345096824 -7.913070587788353
10.718019194338885 -192.62776321648838 -7.967485374292936
10.596131008737405 -192.63252224622133 -7.94383538246478
10.348301944675981 -192.69596148695953 -8.003248956404402
10.038533116991934 -192.76548106157307 -8.015691478900479
9.700834675643724 -192.77293672845977 -8.050280668811236
9.600459552084336 -192.82047158012955 -8.055562507526725
9.549600257351905 -192.8790928666618 -7.977229473539994
9.330952460659585 -192.86695362278738 -8.056083736574456
9.239198075074706 -192.90044875381918 -8.072618758184426
9.147908472169187 -192.92589809360615 -8.063986427562478
9.04109853463384 -192.9584101103804 -8.088944994851508
8.926374812724456 -192.97743475536873 -8.096322851758917
8.879059223067602 -193.00146445965524 -8.102276747312319
8.59804487598454 -193.03701147277928 -8.129983245872056
8.539971522347301 -193.06645815488014 -8.130031429552622
8.492871943828678 -193.0823440194243 -8.120278176232935
8.156192941753341 -193.11763938267137 -8.119439321903405
8.04257822082252 -193.17296474369587 -8.140294490906419
7.220484732261955 -193.293285576672 -8.179392681185487
7.180906850452457 -193.32061319010432 -8.189428418251818
7.115302977006983 -193.3376809459238 -8.203291892863753
6.951791445607382 -193.39507045957413 -8.246630498412792
6.891209048162639 -193.4296772029353 -8.266590287942778
12.44910449099876 -192.37149672073664 -7.779861996306993
11.762390169358737 -192.49737196649963 -7.848898931958123
11.672818216138767 -192.47821536317332 -7.879600988879605
11.60209739393039 -192.50292929188763 -7.873638157144253
11.543130600734477 -192.55046442484095 -7.871889820364904
10.700451802732553 -192.67952919592602 -7.962391591518781
10.639112453835274 -192.67610789992008 -7.954446558186406
10.433675769546715 -192.72812694679098 -7.998428671812637
10.103912990040612 -192.82073870302807 -8.009857617747773
10.06188624965292 -192.79953790110196 -8.020683853789874
9.919129238117087 -192.86008116232577 -8.01788022098965
9.614144797301789 -192.92202399007604 -8.012643302654865
9.542766454540452 -192.91855066336646 -8.006987550196026
9.436441684824635 -192.97302397365257 -8.062640044665512
9.354418823920257 -192.9718866341136 -8.05606523443548
9.279263815201226 -192.99473687082525 -8.072183717167054
9.163877499858186 -193.0208224160456 -8.062114577109144
9.057086073249948 -192.99001900836305 -8.087899896814916
8.946338516069655 -193.02686776415015 -8.096485099612782
8.900558445640572 -193.03339190235337 -8.102351875312735
8.769060553820253 -193.13624739615386 -8.108415693043304
8.70637074957921 -193.15587507475246 -8.072371926116187
8.54700780352408 -193.13897926491066 -8.132420549219738
8.457221165112118 -193.18800118882004 -8.108444446395389
8.383962687105145 -193.19633369337944 -8.082147742779924
8.238713634927135 -193.21615361315725 -8.105190365011747
8.190343513940382 -193.2378867589218 -8.10667203386473
7.1999521563197835 -193.4001747431206 -8.206633614878289
7.101820605204206 -193.45170824999545 -8.21488597405342
6.951700585277933 -193.47390126362797 -8.228102112304883
12.548076273511276 -192.4385486903147 -7.787618908269723
12.441517197859906 -192.37946303821914 -7.784166213976218
11.770579973200558 -192.5524085177789 -7.86706555516742
11.709324201390853 -192.5732151542853 -7.863534957195313
11.60199641500693 -192.57843058293025 -7.854390484521127
11.552056427954607 -192.56935383982028 -7.879788368190292
10.728247720610609 -192.77056979422738 -7.956688052393985
10.122227590773841 -192.8978232421418 -8.015429529263692
9.967936365865736 -192.90733260619302 -8.031224412975252
9.647146496979143 -193.03223949710832 -8.016397822501515
9.583285751702885 -193.0078148570508 -8.025202132645248
9.43282356175679 -193.0267285982456 -8.065735418205428
9.362617078873528 -193.05746080686845 -8.066653209458254
9.326367319482241 -193.1330879185383 -8.078107253210716
9.14609191224041 -193.11358121375875 -8.026105636434462
9.101933249511832 -193.13085891455367 -8.06529011273418
8.86362553984936 -193.19087348715553 -8.11181396077993
8.758123476831067 -193.18931705143888 -8.113878131027654
8.70143920849937 -193.21798500149833 -8.107760920594869
8.630812099703679 -193.27155294843692 -8.121578494554662
8.462851400495296 -193.2567326042938 -8.112647867649313
8.382286451017487 -193.2528797222188 -8.100723486241222
8.28886633836826 -193.31351891701013 -8.108781982973055
8.193002622572484 -193.30347317241367 -8.113228627670372
7.073437025290823 -193.55193621557197 -8.233545999203265
7.041197228029549 -193.5836398533139 -8.24401900294777
12.590028638151423 -192.47002137775178 -7.790762314069624
11.80273039754054 -192.65243928398428 -7.865259978098853
11.740355685695429 -192.64563731941445 -7.829401957369759
10.780745930925054 -192.89471542751588 -7.9636961848729735
10.554170474359681 -192.95228561987034 -7.978848043920223
10.47179963627193 -192.97544810768395 -7.983251173000173
10.37533407018583 -192.99165786281395 -8.002398984790158
9.634824954616247 -193.07548592407315 -8.007523564213542
9.580223561068665 -193.15044277222037 -8.021976072973489
9.479489094741869 -193.1756490527854 -8.025294018265447
9.385223630892101 -193.1932983783668 -8.06496662731566
9.323112506177681 -193.17017172177245 -8.064864593237061
9.156254225416601 -193.22910527009896 -8.05483311736731
9.04832174427051 -193.2297314520305 -8.056853333634207
9.00680430920995 -193.26991390947884 -8.053112087470183
8.90988804174862 -193.28969717585244 -8.074026659169473
8.80625551690421 -193.314677071943 -8.102479356854008
8.739480421674783 -193.29317671979118 -8.104518226952118
8.603783939075633 -193.33335724788927 -8.110905775319301
8.425026402930687 -193.38245506483267 -8.116475736079934
8.339047864521831 -193.355962544908 -8.112253921683115
8.193644308987269 -193.4008135034378 -8.12219639374695
8.16462020550804 -193.43373292229433 -8.132427683754166
7.356877663518349 -193.58956731209287 -8.137829169971546
7.02187470252104 -193.69761480986637 -8.205970318748717
6.961420877313352 -193.71782293300257 -8.26704322712343
12.816948450308306 -192.5734613141361 -7.791965233490617
12.738837448644754 -192.53043133767363 -7.79203842591216
10.866877898568212 -192.96073268980584 -7.952757065784453
10.55683648140142 -193.0319259136448 -7.965753433176551
10.473100327143943 -193.0441907879567 -7.9691938769812385
9.567301183252981 -193.20574031922345 -7.999860112258955
9.498369346996453 -193.2095775886456 -8.00378969654606
9.438573224374846 -193.21526837871733 -8.068553609019922
9.334829263752859 -193.26927196676039 -8.0667652752983
9.174719554719768 -193.3033714886693 -8.055390104273398
9.152904509891115 -193.32428457547448 -8.08056892365071
8.98195626956859 -193.3834775804857 -8.04936122126156
8.908208747477358 -193.34986480781248 -8.047608921471719
8.810841637951176 -193.41414664851024 -8.064225048079559
8.755607205314611 -193.40601467683533 -8.084781764402653
8.39170903333565 -193.46590642742473 -8.117629535780413
8.374945740449174 -193.51546844365052 -8.100701448558738
7.225835473608377 -193.73586502236557 -8.166726495008698
7.0336087101932385 -193.73895741797773 -8.176760875340491
6.971486242211311 -193.7684918358682 -8.221590665320893
6.900345206488221 -193.78719469643642 -8.256305222387958
12.924737251543366 -192.644859644359 -7.780351297832862
12.845097304895422 -192.64946161459414 -7.7892828366972084
10.907822546894508 -193.08303764349304 -7.910182361828906
10.705995087538053 -193.11134243032532 -7.963806740478121
10.489990617528212 -193.17334468256138 -7.980299661972336
9.394055974511094 -193.38265485164334 -8.03821482772428
9.356315973917981 -193.40741039675734 -8.062870970691666
9.104659240062313 -193.45944138908806 -8.06223286954471
9.04173585163335 -193.43828940521945 -8.058872737772786
8.93332804688961 -193.46319750793245 -8.0442657302351
8.838932825249316 -193.48510690913284 -8.052760099136654
8.726732345057307 -193.5084740348989 -8.078119935905319
8.682056108431327 -193.52688476881403 -8.093229579390961
8.350043369258277 -193.58422100130943 -8.091689408533346
7.7451637292759665 -193.72092680467176 -8.111703532519478
7.529726520873336 -193.78060910273788 -8.140242497257265
7.493173988783116 -193.7940047385649 -8.145742623743836
7.425606545443241 -193.83092796840427 -8.15358669528331
7.104710201940852 -193.85670937905044 -8.177044363460745
14.062664857385307 -192.442844381614 -7.698306499731424
12.928110273807226 -192.71841800704317 -7.79467950331094
12.887179641699475 -192.71901668369708 -7.79471519150323
10.98269083677193 -193.13992441825616 -7.872801456125171
10.897209573758763 -193.14805060568207 -7.913850901701148
10.826066043909846 -193.1839234664011 -7.937294747548674
10.720624440764393 -193.1911316605746 -7.967671532473084
10.53827897451249 -193.2423434734619 -7.952052178834829
9.35775640426775 -193.4576045622122 -8.054320936872104
8.954841827170522 -193.53074761918452 -8.0746796320036
8.8841940814273 -193.60118647540102 -8.057063230921555
8.682192938580688 -193.63344064551956 -8.037188457277967
8.324723215187921 -193.67969309135952 -8.091628039704219
8.310609504284107 -193.74379250789474 -8.102791951674567
7.682444742658852 -193.79462500518036 -8.116002545611293
7.4714327662681566 -193.84562154262116 -8.148357801580083
7.392563156948883 -193.9277992361876 -8.163164155561796
7.0434551224882656 -193.92722423636812 -8.180603511292814
13.004653778941458 -192.80320767015138 -7.794240991689488
10.940014437828175 -193.24305206853177 -7.891508103319975
10.827132806972548 -193.27918304601496 -7.953020463807493
10.75907262226405 -193.26501341340187 -7.947971305111942
9.047073927523364 -193.6686764044258 -8.041583275317254
8.983327192674754 -193.69675278176527 -8.069923614857016
8.88311102445216 -193.68117129123044 -8.095362263888294
8.803677474079404 -193.75411000937075 -8.080127020043223
8.640512583347697 -193.7212648142372 -8.050622513287516
8.57738629774896 -193.75991391694987 -8.043904560471155
8.306482271439588 -193.79930373572515 -8.102751355069358
7.559682635583445 -193.95909646104596 -8.150046341034408
7.419091951950867 -193.95113038698602 -8.16579462400704
7.331679659719471 -193.97231818713894 -8.171319524410647
13.682842294508916 -192.81105900922162 -7.7242766599353825
13.563113071616648 -192.75677926696855 -7.7424464050502895
13.161766926712001 -192.88627683389615 -7.778619646268764
13.101955534534621 -192.8558064495477 -7.788059675270726
11.158786714469223 -193.29897244529678 -7.890934210514963
10.982282072191015 -193.30723687874436 -7.887699530677262
9.05708901557251 -193.7194329718453 -8.018737300842695
8.990524921603928 -193.75509844718184 -8.053609510181355
8.85391378004716 -193.76218102411335 -8.07107900343873
8.82390500102047 -193.799103897738 -8.07620368091779
6.079267920688941 -194.35326669802737 -8.236292873706768
14.056454979596008 -192.83845650329408 -7.666709889822765
13.888936085343206 -192.84687952263548 -7.676360960685937
13.778954680923109 -192.83692907536374 -7.69908773727027
13.722532835099063 -192.82447799925055 -7.71817175091309
13.2876458887448 -192.9652222514424 -7.772409042768419
11.245222580514925 -193.38136472366398 -7.896652890110443
8.810013946984588 -193.90449542995066 -8.0971157063681
8.782730273726969 -193.94413713235016 -8.097381860012081
14.200929992696183 -192.86769218564547 -7.653473440325208
14.106598817788282 -192.85979535205513 -7.662060402146946
13.988567597011102 -192.9373893471459 -7.677851125703195
13.922520233332662 -192.93787575543288 -7.666342411031682
13.834400583504857 -192.95391816859876 -7.6646827866928104
13.462387130686853 -193.0548397540338 -7.723861221765904
11.766067681082854 -193.433942067442 -7.8915284011435185
14.106169590728642 -192.9914669211876 -7.642971253563182
14.052425714497085 -192.99394512521292 -7.6263697668677
13.964457003162995 -193.013666300853 -7.66555106378519
13.826765505036136 -193.0941528512312 -7.648559196357184
13.783277861388394 -193.07819180533687 -7.663510573697967
13.620411105433256 -193.10161521947117 -7.709499102468396
13.585592092314755 -193.1092877860476 -7.722550758766433
13.366752401355997 -193.15992234360485 -7.713160135941226
11.801627649236615 -193.4755576676693 -7.878521819837267
9.014550363918067 -194.03555941939598 -8.046028114400992
8.993086458984283 -194.0617312402224 -8.052292456729987
14.073374026118499 -193.09762827961444 -7.623768119976848
13.945714911738627 -193.14284663770673 -7.645155392597022
13.862420349679983 -193.1388134419432 -7.668434137727685
13.752105989404228 -193.13969680923324 -7.700116817602284
13.573208270748328 -193.22179181798347 -7.732752279367839
13.505175522252664 -193.25229121855074 -7.704163889428875
12.025680714863354 -193.58255084514124 -7.860484192796662
11.88576839092541 -193.54218154299494 -7.868407488786451
14.275309786694883 -193.20939726713638 -7.617698772560775
14.180106992322184 -193.1966724408122 -7.624116468426758
14.085897765847575 -193.17646852276638 -7.639127960491977
13.962697540683813 -193.17933645155563 -7.634452943008921
13.879213441302081 -193.21294201235534 -7.696477008788131
13.695292459051164 -193.31224570286722 -7.714206672445305
13.593842682633078 -193.29531290725507 -7.700593710142825
12.129090284739497 -193.6528739293565 -7.8598106918630855
12.022290086442258 -193.63420084027624 -7.856185660299457
13.873760133005653 -193.38999452730934 -7.706195392907701
13.757326749691074 -193.34741199081603 -7.700807535220576
13.71231665611596 -193.37260816397506 -7.689428427340833
12.217799412174209 -193.67816495495 -7.8373332938627716
12.061175587145243 -193.7253090517944 -7.843706843396192
8.215530612371708 -194.56360052722698 -8.074131910100112
8.187449375904936 -194.58315651353476 -8.088876684170407
12.346192930546977 -193.79061885747876 -7.816741937442662
12.28892290293384 -193.7492040320623 -7.817618479347865
12.121865702297702 -193.7829718105302 -7.837847107240942
12.110098711431334 -193.80867601532384 -7.830824888729593
8.191549099368586 -194.6500412118647 -8.085125240189804
13.92118443271034 -193.53030157632654 -7.670789319756564
13.872566149807255 -193.52794818265548 -7.660274390700241
12.443645057928082 -193.8685163274276 -7.827129137803531
12.170153220270306 -193.91355273889698 -7.808940338107289
8.161810814963095 -194.76701339915033 -8.078488716277114
8.136840685592528 -194.758702135905 -8.088238447178474
13.97114744512135 -193.6280275718955 -7.644971577750688
13.739667016441192 -193.72363232217083 -7.639268971819451
12.560797533969291 -193.9695972028331 -7.813670565499906
12.306272939049217 -194.00016275163 -7.826677364274048
8.616643378262108 -194.7800922162887 -8.039328755716786
8.268511043364924 -194.8814195003899 -8.059679917072376
8.198240830323543 -194.86436329815828 -8.074526102699414
8.146458151285334 -194.86338323348173 -8.077232940043887
14.196179347670597 -193.7391627956501 -7.642346979407246
14.076951976285923 -193.68390488444575 -7.6278852888719735
14.020431280642901 -193.67523726659053 -7.637159428033617
14.060270305138054 -193.856276568162 -7.616009492233671
13.997281795108755 -193.8357700287662 -7.622527664325852
13.932113999630698 -193.79920890075437 -7.629320437413957
12.770248431669874 -194.08926108592053 -7.796657915533343
8.575761260950118 -194.947784373021 -8.037762348707293
14.108313569614076 -193.9163778138849 -7.63274209266374
12.861430394448764 -194.12580133141526 -7.7984595120188205
14.214147589441904 -194.02056381921423 -7.616375189971158
14.164138508404223 -193.9937463919331 -7.632477138138682
14.464161608385348 -194.1881865529524 -7.638473344953332
14.391711003297502 -194.14020716161147 -7.6100467126401625
12.956859642187972 -194.6080614340645 -7.692545323200105
6.443022398368983 -188.89456778405648 -8.175950554209189
6.520839275921118 -189.0095174287086 -8.155035935098233
6.482362744845277 -188.9913396907915 -8.140502925949951
6.5492348148336985 -189.06195802709442 -8.143958876624227
6.456698549641813 -189.07263842792037 -8.155428420123632
6.584097705027079 -189.1914513855708 -8.14211813914221
6.523037393083264 -189.15417669455587 -8.131363429722226
12.61973521476389 -188.076302265371 -7.673756300963371
12.510923173740927 -188.22145336993455 -7.668083623486626
12.456845921635638 -188.20335402057293 -7.667796616272862
7.886773689240645 -189.62641709591063 -8.020767057001782
7.855184006018729 -189.61133426122396 -8.021703346919411
7.939075718001351 -189.66346542325348 -8.013845436410469
9.33588688140718 -189.4825434065558 -7.906209422675166
9.6702633899128 -189.56246188353393 -7.906924946555503
9.657729468255265 -189.6479996555113 -7.886654562950993
8.382564086911982 -189.8956776166841 -8.005096916439417
6.6175229488450125 -190.32659511767199 -8.120678976223648
6.573674924291419 -190.29990361904012 -8.11642254022443
9.674757815093987 -189.70272392126327 -7.885873868049018
8.753717185467895 -189.94489403782788 -7.954615302843696
8.737752461042518 -189.93225813693792 -7.959275696359619
8.424568092575576 -189.95535987503624 -7.992556701279424
6.728709821535185 -190.41002391441702 -8.112700519244957
6.636685213975846 -190.35675595587645 -8.115343916782846
11.629309505604366 -189.46252346419706 -7.727721377960542
8.494894117047439 -190.12236392806096 -8.03395256003685
8.433669216969442 -190.13835218955677 -8.004447561138155
8.008864337054758 -190.2410992258594 -8.0114620905611
6.968976980777484 -190.42284676601275 -8.109200744334458
6.87972367658292 -190.4542720503217 -8.116914252638045
6.786301824743505 -190.43719277950885 -8.111430674470503
12.839135203822517 -189.2714143159408 -7.674094951770502
12.771350266635203 -189.32203005795014 -7.656059960538923
11.619579158030813 -189.48979013915354 -7.735855195772272
11.586861759160005 -189.5248290308032 -7.741864950225836
8.621430517714177 -190.1872340272784 -7.980479162872043
8.501802599480563 -190.1913915872227 -8.009975283088504
8.451129567753656 -190.20726592279738 -7.9916098891131755
8.16205691368946 -190.31288460962355 -8.031114706191298
8.043442253965202 -190.29547722589714 -8.031908035663191
7.988601001221887 -190.3050286420532 -8.040873363262113
6.932430692403555 -190.4829828307366 -8.119215243612784
6.912283316948802 -190.49606321542126 -8.110250066749536
12.74716653447944 -189.36437852031906 -7.66166180368073
12.581730224203254 -189.44911914953346 -7.697629263074175
12.503108587899895 -189.47421120117937 -7.707831736947648
8.937529801911458 -190.22000479535265 -7.979330624551104
8.734984581756501 -190.25466655056755 -7.993761960402574
8.674524918106915 -190.25362533972347 -7.995339403010464
8.562160554818394 -190.31507236250178 -8.014723677062497
8.461525110409053 -190.31206322431794 -8.011941666489333
8.406898451886187 -190.32727879947956 -8.004372433669582
8.266005526275347 -190.35695728661526 -8.0387295369729
8.183264495697873 -190.3400923800561 -8.045091186072503
8.094196892668418 -190.35015878691044 -8.057365047826593
8.000157437556888 -190.40326138411612 -8.04744488918565
11.356830209038897 -189.7901157396361 -7.756244663829578
9.328802707301005 -190.26300750434578 -7.931013775705482
9.134154444087553 -190.28928833199524 -7.963058363797541
9.080886434397167 -190.2782519253682 -7.953923389636964
8.981317332396003 -190.27674469849435 -7.9781856939766715
8.786386524669355 -190.34570225195904 -7.98159963406915
8.692175032707667 -190.36902739920967 -8.025234318578981
8.577800755884013 -190.38795764437828 -8.015381143770533
8.505798020389069 -190.41239164994136 -8.011283714586371
8.406537907006445 -190.43916194477444 -8.019143454690962
8.306902040650428 -190.45499743780638 -8.041387129279151
8.213973301832677 -190.43943643042766 -8.060531514731252
8.026373123431798 -190.45041179805858 -8.03938344828159
12.414692270822798 -189.67298531977465 -7.717377316475103
12.266823608353386 -189.66034973005284 -7.748683047079262
12.228747174793094 -189.6971138729487 -7.72639574952258
12.143947007900243 -189.75230696667316 -7.725964938889177
12.053828991204231 -189.79131936281732 -7.742545062102336
9.486210639783643 -190.32846228318903 -7.888477037702608
9.418333700838268 -190.34365881758396 -7.923998147474344
9.33178914195458 -190.32315542171162 -7.924840880129145
9.157656689570072 -190.35865824974104 -7.943463283928219
9.089293185382077 -190.34214436288707 -7.934447037793344
8.676181987150448 -190.43293639456962 -8.03534790041044
8.608352040352349 -190.4844736487815 -8.032015907717831
8.534086064254716 -190.49177275807807 -8.03690890134032
8.422247577599979 -190.51391284513568 -8.04024980491109
8.340649605109409 -190.51176531401262 -8.042520148625641
8.122927744843542 -190.58930230848063 -8.022523200699004
8.057470146520473 -190.61494707243222 -8.019773121964516
12.507285522132356 -189.70455890297842 -7.653226652499225
12.434986197758443 -189.79215700010334 -7.672810303150214
12.337478774270288 -189.7784286161726 -7.7388924087493765
12.243305939224216 -189.81171728858226 -7.720112610947802
12.127062290520245 -189.82554179935315 -7.713499626234642
12.031808690233854 -189.8560847745225 -7.735824950133233
11.51568951931484 -189.93283186329046 -7.730755873087169
11.462755583095767 -189.96416008703656 -7.736213474685109
11.403341284590875 -190.01630797180806 -7.746438078918581
11.138225344780231 -190.06238791691933 -7.784262589879007
11.090071581991364 -190.10071354601536 -7.786196525479182
9.667719812496335 -190.40090728785123 -7.91374679640137
9.63595607895601 -190.40759824260383 -7.894915735198314
9.523374264975638 -190.34222951654107 -7.890172609054629
9.401993204016687 -190.37790941298195 -7.926325836232421
9.31381194441926 -190.42049409563555 -7.921809477945277
9.214715375628222 -190.45723544463556 -7.95098691219541
8.827522823133656 -190.55967353538813 -8.034326680196006
8.69640015138221 -190.53996777585365 -8.019481025236814
8.655291149342977 -190.5317233635636 -8.034108563439704
8.560119869705527 -190.58911940653152 -8.049689104800555
8.436394027424093 -190.60337645634473 -8.047265233479495
8.304747704441597 -190.68087307193815 -8.050813081477415
8.255840983506129 -190.67061612261108 -8.040670296383906
8.175213128094194 -190.6190188294024 -8.019170996736259
12.426569688619445 -189.8501876521684 -7.682646405091914
12.354191273164426 -189.8815141048289 -7.718020524205477
12.267145582263987 -189.87034245322826 -7.740892913979969
12.178733103974297 -189.94739801626667 -7.744645142158183
12.084966341249809 -189.975904003137 -7.737516784659154
11.91560889513387 -189.95542894459984 -7.738107191666781
11.869059103215406 -189.98767846567762 -7.754610342178452
11.800641284876004 -190.0422368986936 -7.757245112316443
11.712929951297285 -190.05032873839625 -7.779034344586116
11.351169433953771 -190.06372078187056 -7.7475325525199645
11.093134276070462 -190.13797316525716 -7.780730436070418
10.164321291449848 -190.36612668498532 -7.844180241523353
10.156007626853615 -190.38693086215824 -7.837638498474143
9.682447808505389 -190.43954754047525 -7.896688692824212
9.659004889449394 -190.42996142617397 -7.895059778871853
9.526403188634836 -190.5055368620996 -7.9549834825921
9.483193254356419 -190.5226951481562 -7.9815192661252485
9.320886032986175 -190.5260018221477 -7.944200456442344
9.246577318235294 -190.52624915807894 -7.983489457484288
9.045545123066034 -190.5765816958794 -7.981333464649035
8.934851152181473 -190.61013082122162 -7.961103526506533
8.862880328106753 -190.62850477985455 -8.030270319992017
8.632225307111321 -190.6555308324063 -8.035453747753607
8.527948117489714 -190.70718309281344 -8.019953844231951
8.472825065940592 -190.67873041070783 -8.023705045092182
8.319911218295701 -190.72769586378413 -8.069866091495575
8.251498880032988 -190.73909216969616 -8.05877930487238
8.181412557141542 -190.77440297816952 -8.048233250211778
13.409408118552072 -189.77761738552462 -7.672397882868485
13.374126653115011 -189.8128662795697 -7.670509747494284
13.14677392928612 -189.8652166591993 -7.679737361843885
12.115003905494358 -190.00777092205925 -7.738237808848654
11.676509872211838 -190.12641360608572 -7.801004868066993
11.6244187627479 -190.1256066003555 -7.792087367992715
11.434470896383932 -190.17467259247186 -7.780384198107096
11.08826544678825 -190.25555941109823 -7.771682851177002
10.908062002269629 -190.33910615135727 -7.825335443277516
10.044560650446575 -190.510843477014 -7.870206511853542
9.850178577609896 -190.52840924138147 -7.886636245567881
9.73942791888455 -190.55326398424847 -7.888185635255945
9.64760073955976 -190.56950728277369 -7.964168205088794
9.56013463172599 -190.582911811393 -7.9578160774019135
9.485040351892884 -190.5951359641352 -7.978863697248154
9.351793754890236 -190.59871740967162 -7.918220434977787
9.224674459530457 -190.67647055483917 -7.978014461549947
9.170067559384112 -190.7066252791856 -7.997252230645472
9.040199973933502 -190.7174234040407 -7.998725305553024
8.989214221640157 -190.68607233294134 -7.98452595426418
8.737708500227885 -190.77658185563834 -8.034575309154208
8.679051216267613 -190.74164374219976 -7.99573161943003
8.60207772054412 -190.7420798250992 -8.01041001664696
8.34663911939324 -190.79303271894287 -8.066329859576612
8.212419219046582 -190.83227697834906 -8.04920576528392
13.150015608709127 -189.881261587788 -7.679334808915497
11.700607185639232 -190.22887562694777 -7.802744638679745
11.660032279895201 -190.27775398378813 -7.77315295563689
11.157029101931801 -190.36202356533036 -7.846669306224982
11.035474578361445 -190.418557971471 -7.859439526147712
10.898716233437938 -190.35853074515617 -7.820114174956045
10.854904714383657 -190.43445996645343 -7.817297872358996
10.765769605604406 -190.44070770941505 -7.807002290784332
