ply
format ascii 1.0
element vertex 826
property float x
property float y
property float z
end_header
-52.415868164592666 -51.5012480612918 -2.9350942623481844
-52.38796339818434 -51.369667479517574 -2.9400974157451936
-52.3485118766468 -51.295207832896935 -2.9475674820844073
-52.30379303859295 -51.16678111655075 -2.9548929693030868
-52.28459229337714 -51.118105680407396 -2.9578835651503876
-52.23648953025974 -50.89658004245951 -2.9614229379023262
-52.15836954509033 -50.586674293363316 -2.9637327982432957
-52.163734912720734 -50.483477045648094 -2.956368505800644
-52.159793828315436 -50.42631208838562 -2.953465701410341
-52.13348243036732 -50.24179631461337 -2.945774296944171
-51.79756634190703 -48.76177423543675 -2.972383641121401
-51.78036273666836 -48.6537397594307 -2.958990490712037
-51.742375839889995 -48.589826755659224 -2.9549885876230664
-51.72938262472078 -48.453163309544095 -2.9355610352927606
-51.71650644619595 -48.36521714286535 -2.923334738626552
-51.67451992380827 -48.26593520406841 -2.913078237349638
-51.51911481502387 -47.215567893729876 -2.911069387622023
-51.39909113886555 -46.68599862556161 -3.0095780932128715
-51.37499702679089 -46.615447405670835 -3.000707198548075
-52.52482803138187 -51.78779917724697 -2.9110812159738746
-52.49946708760847 -51.56103164236651 -2.9174826881367415
-52.45325562523926 -51.47265737173087 -2.926999996371102
-52.45010836891319 -51.415338196980656 -2.927253991854789
-51.764877302727434 -47.92853610230111 -2.9995695877674304
-51.682707518533725 -47.68234900737264 -2.970610072841936
-51.523374969152975 -46.72130448978825 -3.0071213534975865
-51.5311946244614 -46.68264900252699 -3.001061783475465
-51.482850388250576 -46.51013589452156 -2.9789578563430523
-51.477657501158 -46.39066122569759 -2.961740517189194
-51.16454458762506 -44.83577176439702 -2.967825605467967
-51.06701976477495 -44.57536617276809 -2.9370199191170245
-51.03545790361278 -44.4988894297005 -2.927930762868034
-51.03842565361492 -44.429316890903756 -2.9190118675946555
-52.79935228226019 -52.609427601459615 -3.0012699476451847
-52.817148165086884 -52.493718698554105 -3.0016570869542223
-52.816592423175 -52.44109200772546 -3.0030940464602534
-51.924273144258464 -48.08685384015599 -3.005148260864078
-51.86924665775593 -48.03438820081888 -3.003745731115516
-51.55404900777604 -46.313673127218685 -2.9460258470724754
-51.50357051161166 -46.26556762222436 -2.9418162277821347
-51.23694841992062 -44.94401650075029 -2.9796808726256456
-51.230334582494436 -44.90567616087429 -2.9750471756236405
-51.2471559240268 -44.81712440744697 -2.9635206549407753
-51.179146122116805 -44.583567999675445 -2.9356613676761145
-51.1617776432994 -44.442018228844304 -2.918100536687434
-52.95149150700788 -52.60359811499663 -2.9763456991992703
-52.85427347649179 -52.491198991867115 -2.995544116763134
-51.973264006765014 -48.10718011896744 -3.002491599728403
-51.8702145554044 -47.53829494951043 -2.9290095984103366
-51.823152251907146 -47.45972668843079 -2.921502506844896
-51.28780720528706 -44.6761705914876 -2.9448437263913054
-51.25054488512138 -44.59151187580289 -2.9350499723056345
-51.23618605261189 -44.4797836130405 -2.9212619627382677
-52.94331128824598 -52.10122459738366 -2.987601473041158
-52.83255300411424 -51.58600124626751 -3.0071969188541896
-51.879312090326025 -46.792970697551674 -2.994117519109877
-51.81892526253766 -46.60759822159475 -2.972050231788462
-51.71622066891539 -46.34462368828953 -2.9409160160234005
-53.06195580869796 -52.34619755217262 -2.963826732706801
-53.099349381473104 -52.26361224547729 -2.9588268664539674
-53.01995757611914 -52.17763121506877 -2.973555245745489
-53.005714008627756 -52.077782908899174 -2.9770847798069617
-52.94964833147661 -51.983081796804214 -2.9874613533453105
-52.79297371432267 -50.819122539374206 -2.9940078682166282
-52.006253509596355 -46.947767878544155 -3.0066424727257957
-51.95346521638863 -46.844845577789705 -2.9962382414940913
-51.92764957873994 -46.77860841710951 -2.988839961756335
-51.91375159803831 -46.68198042871295 -2.976296446436084
-51.91551150322843 -46.59318304886007 -2.9637047172989455
-51.897299117387114 -46.48906240014352 -2.9501934946337136
-51.86356235530734 -46.35545027469104 -2.9333455841438143
-53.27746147773234 -52.95841979050167 -2.91158182739934
-53.212255608545036 -52.45826829922844 -2.93628107971867
-53.156207344839274 -52.36426414041373 -2.94751983065872
-53.11563494003007 -52.25152231757903 -2.9562216704878264
-52.032793261410376 -46.91974487837278 -3.0009451639116445
-53.86251096078477 -54.526141169140786 -2.975061188622071
-53.80275770178256 -54.51115551096607 -2.982642315616587
-53.74776800390381 -54.073897518839956 -3.0075614922133624
-54.029834131616106 -54.92416829420197 -2.9371458605384744
-53.88566959652889 -54.51377198348891 -2.9729237410967606
-53.87310697661809 -54.394816179790745 -2.979591710894984
-53.858906577285524 -54.2376403844601 -2.9878061208241933
-53.83801810661229 -54.15791128891473 -2.993466842807336
-53.82976083293382 -53.94737252457846 -3.00232312171466
-54.1243966407694 -55.16452214442624 -2.914449060108371
-54.10841054029112 -55.090891106438754 -2.9199980209385172
-54.07156674625043 -54.8788466238523 -2.934637507893039
-54.02117111671143 -54.69405973021415 -2.9491004191822565
-53.98117445681363 -54.509640925281516 -2.961982865296902
-53.99097671759121 -54.40995383287988 -2.9650712571036024
-53.97054913756772 -54.37726794560784 -2.968859936910874
-53.846013547685516 -53.80865408007232 -3.0050491875581096
-58.77817635301713 -66.24503425012175 -2.9857059277617224
-56.38505763960431 -52.08583261904684 -2.953448874166887
-56.855004260192324 -52.804903931705624 -2.9186259603205236
-20.92822620794914 -48.52814041962897 -2.8371538229117546
-20.884270300340788 -48.3400268732467 -2.8271285118181515
-21.179511088623645 -48.64452760460192 -2.8500482682266357
-36.27227791743619 -39.29555583557356 -2.8111070668058824
-36.94576655529699 -39.1541033068287 -2.820114567117707
-37.27856459075049 -40.0166914915472 -2.8771918346258643
-37.267074340746966 -39.39811302734419 -2.8419641769209245
-37.47333713377928 -39.528587562033096 -2.8545058013398643
-38.1639494935243 -39.07609147237797 -2.84571760470284
-38.21991708881004 -38.974154026910675 -2.8412307444886014
-38.128587072617634 -38.53201866283847 -2.8136323987863943
-38.22114328273801 -38.80968602003477 -2.831819827471508
-38.19726924309664 -38.698798014703776 -2.8248748429377275
-38.17022419122994 -38.494328242531246 -2.8124653893630462
-38.55655907609777 -38.87143936756391 -2.8434323341858927
-38.53862953014725 -38.76695079846064 -2.836983998167185
-38.697476486855436 -38.87412779388034 -2.846952273360103
-38.708865527817835 -38.8028600942059 -2.843113048647153
-38.651178483479725 -38.64403299436851 -2.8325736701694595
-38.66971822275245 -38.57774709533727 -2.82918722404964
-38.9161084213463 -38.79998217858389 -2.8478668277938493
-38.9421478141263 -38.74864314966682 -2.8455135589339964
-38.89769154387179 -38.605759457996996 -2.8361965752985485
-39.17580682424856 -38.78881543538999 -2.8533403283189918
-39.1240273645566 -38.63704565203011 -2.8433281468904594
-39.252794191624254 -38.71697230108894 -2.850979354528233
-39.21646456808559 -38.58148818187764 -2.8422660140462073
-39.531272592266156 -38.90914613419301 -2.8686367691226704
-39.65915681929809 -38.99283902573875 -2.8764770376320126
-39.592123525410614 -38.81879079228172 -2.8647994134321713
-39.46306897541421 -38.37852696690811 -2.836182312220048
-39.818217595121524 -39.038864418884 -2.8828425365596413
-39.74908802735281 -38.50248089289709 -2.849989008433683
-39.62979928436215 -37.96700936891314 -2.815974868003022
-40.574018654286036 -37.54283832904315 -2.812055640299489
-44.1031952546651 -51.78115733436063 -2.8796665892757325
-41.20221561669479 -37.891329459929466 -2.846270091964463
-44.19311320039328 -51.95127762207822 -2.8976795842557967
-44.16211412124003 -51.78387726054423 -2.8916044625509727
-41.32078935497732 -37.891279694231 -2.8488024421134686
-42.292316837176614 -37.7835183980087 -2.862655109435984
-42.44424650467372 -37.63751427723569 -2.8569945020752474
-52.39288764796547 -74.15017839596213 -2.8127528394873096
-52.43613808626697 -73.89971921049498 -2.822843887440875
-52.43094781158532 -73.38344034821579 -2.8438168566542172
-52.48772894922067 -73.02125575983189 -2.858359755831009
-52.54942679481621 -72.71651513946803 -2.8705219489406275
-52.59111207768385 -72.5256979289548 -2.87813680749054
-52.61724812477329 -72.25223781156173 -2.8890514364989155
-52.666787337832815 -72.10821209572148 -2.8947069270282597
-52.70605665064923 -71.91715514153978 -2.9022167449381824
-52.7471885732853 -71.74165702425601 -2.909124951814218
-52.82432837849121 -71.74628959066787 -2.9085918521364387
-46.943741255250934 -36.0747593519904 -2.8409810014640566
-46.78865626370548 -35.6138181183877 -2.810371812135371
-47.04904650833033 -36.11413685129064 -2.8449625616602514
-46.97576483326284 -35.89276852207341 -2.830275804807371
-47.17277998827769 -36.34695304863433 -2.8610777743973097
-47.11339025410906 -36.25825062390093 -2.854750000563395
-47.25486583331226 -36.41276646861879 -2.8663145337942275
-47.45941271761672 -36.811752379210866 -2.893775862562599
-47.3935139473707 -36.58259816707155 -2.8787591413103346
-47.33608584462177 -36.4770046586153 -2.8714348361957596
-49.39259523243677 -40.782079703734226 -2.8101374953935103
-51.19703058113506 -49.05395632886333 -2.8718480724144566
-49.64389033679947 -41.330539648212394 -2.8647481834844415
-49.620348043708375 -41.25161667022692 -2.856990695499598
-49.55794097016481 -41.04028161176899 -2.836243529495658
-49.52403233029476 -40.86257585190887 -2.8188875477962068
-49.49762193218976 -40.77584412730414 -2.810356989702268
-51.231947688864686 -49.0590927047196 -2.8652833821660213
-49.80557889472872 -41.708193659698054 -2.9019617553501664
-49.767571223573704 -41.6435674558258 -2.8955489600351596
-49.70232459120103 -41.39063557409339 -2.8708719961039955
-49.611990901990545 -41.03217299273783 -2.835836214336378
-51.54099327878705 -49.78747078533085 -2.9089293462346975
-51.50360569938035 -49.682560100693685 -2.9041468740062237
-51.36506828219234 -49.11368596154841 -2.8462038230980635
-51.40877571171213 -49.049471138259726 -2.825000564585929
-51.25196276211401 -48.279138211834976 -2.83745432370044
-51.03145844459173 -47.486567731270995 -2.8503818078826053
-49.89675685612181 -41.6421005121096 -2.896058121564135
-49.77926779192677 -41.32361754075974 -2.8648873680496925
-51.721500060026266 -50.06894007359923 -2.896749533371886
-51.72366982407009 -50.03373666189931 -2.892572450404087
-51.57850698778726 -49.71685831726748 -2.8906416865335705
-51.57781895530863 -49.61551408685558 -2.8771755244210167
-51.452706964913475 -49.06521885215344 -2.8181776720257012
-51.34971437309648 -48.33264587158083 -2.8321665960911275
-51.31449838136499 -48.23968884081517 -2.819469418747258
-50.01723440028559 -41.71764734474856 -2.9038250132673484
-49.989827184311636 -41.68486478872876 -2.9005865668523945
-49.96965389007615 -41.60100165278043 -2.892445602824883
-52.116142516318526 -51.460026437585846 -2.862636908788769
-51.946264059672984 -50.797365334633284 -2.892702992741103
-51.85910857570856 -50.56660966229253 -2.9027302147544374
-51.877479209787985 -50.42995252120991 -2.8889350909237352
-51.87808668550459 -50.316703634935166 -2.880122237691943
-51.75231890693331 -50.07490391209319 -2.8896545138926544
-51.75700125243998 -50.0146621807377 -2.8822907064683596
-51.7161729148561 -49.69082110621663 -2.854076811263149
-51.657127065393254 -49.4603713368583 -2.836122984768301
-51.665772546092136 -49.35989528754374 -2.818932432141338
-51.60106120590855 -48.94875999730135 -2.898368312379902
-51.53689714372763 -48.87720754522696 -2.898528144766097
-51.56272056689695 -48.83955330296268 -2.887453415967565
-51.5379113679549 -48.68196852215083 -2.8648158287457917
-51.39687467657611 -48.293322186013704 -2.8167136746820702
-51.38361926296704 -47.99072215339247 -2.9047058800207917
-51.315821805928415 -47.82140458456353 -2.882185224833912
-50.58056159808333 -44.16627017557689 -2.892659336774163
-50.40466635946636 -43.53175227164989 -2.811713303856448
-50.08051912095987 -41.6303697431486 -2.8957097260982767
-52.13707507091363 -51.46401439412947 -2.8573988149237084
-52.0586426595574 -50.95550273697294 -2.870093929148147
-51.99927677138105 -50.71286686128368 -2.8752832347490456
-52.02787788560816 -50.669968955275465 -2.865791470130455
-51.964090801938774 -50.53829573475563 -2.8743229625643028
-51.986265797021076 -50.44483582114046 -2.862428325285269
-51.85041816738534 -49.96971455636763 -2.854343335012818
-51.827160027548466 -49.894556301061876 -2.851796933706999
-51.62378795518679 -48.90676145100493 -2.887279759015432
-51.644700001518416 -48.759418713754336 -2.8588757107642424
-51.611864019767765 -48.71161274834028 -2.8566679790585017
-51.55792659221108 -48.57454693763275 -2.842134241560987
-51.55667212053429 -48.48753987689131 -2.8265154932152523
-51.51929127626587 -48.41636173919118 -2.8197417936979545
-51.415363992640394 -47.92213777343412 -2.8882185169592107
-51.38702081838819 -47.80995010163925 -2.871246279953972
-50.546409446925416 -43.609255030080355 -2.821020804111418
-52.30947065256786 -51.554142234457515 -2.8140851717186446
-52.269725240714365 -51.52500746921781 -2.824136604059108
-52.26979387983253 -51.281962719643104 -2.823618816503318
-52.25943364667292 -51.173354066274456 -2.824718070785651
-52.12083260541749 -50.757017088965085 -2.8465321372950996
-52.06789311408737 -50.63257023357393 -2.853594156309337
-52.10115557296235 -50.48630709229577 -2.8361867368031253
-52.110002954211616 -50.44115480881938 -2.8308630938689388
-51.96803438306836 -49.90504804914917 -2.8182060152818957
-51.95928004067233 -49.84275585026164 -2.81333430664042
-51.666154921390415 -48.67686646016952 -2.840807709580159
-51.67269639606045 -48.579285523944314 -2.8226042803864164
-51.64576235460034 -48.48876147614215 -2.8111971295941354
-51.61457090744918 -48.152479562618154 -2.9023181885395903
-51.58763013259059 -48.06650798548537 -2.8912145868025343
-51.571091950250974 -47.99230498226796 -2.8804632112024082
-51.536095776617955 -47.92763094068465 -2.8736080455561233
-51.52456231189666 -47.81861064195427 -2.8554716482370193
-50.81518125508851 -44.25196136159461 -2.9002885731447137
-50.772826863878336 -44.119618863217205 -2.8838846470446953
-50.768281828984684 -44.083790801782904 -2.8793180038923927
-50.74044211071151 -43.91377945316654 -2.8577189628728843
-50.65766035473776 -43.67620449835607 -2.82793402461986
-52.542832787221734 -52.1886086557692 -2.898883508298672
-52.29506145152697 -51.17762180009055 -2.8158016057292903
-52.20225064872843 -50.78378395825909 -2.8270759315581024
-52.15564068227383 -50.32871981927333 -2.811022789521264
-51.7344878161988 -48.282967770319026 -2.9073817106068507
-51.68666414336916 -48.15848036367935 -2.89340591606163
-51.67614305769802 -47.93987639026884 -2.8572653885368657
-51.64558195266961 -47.89826616590731 -2.8540052539696363
-51.571581583541466 -47.732363434577216 -2.8337865830873157
-51.46069657226412 -46.755653411766716 -2.838023665265756
-51.393134412615716 -46.65894192633366 -2.8266880925826445
-51.3709016675885 -46.56879145661157 -2.812597631610784
-51.22560929752374 -45.66900618020669 -2.865798805007508
-50.88740756976032 -44.297972688187095 -2.9049990602363795
-50.86546242238343 -44.289855007180776 -2.9043297283255853
-50.80232757439442 -43.80679867749411 -2.8429801688340337
-50.7680002489863 -43.751520470645005 -2.836297261830304
-50.7749246547746 -43.64741425897883 -2.822692135643912
-50.73978673043284 -43.58617154710635 -2.815194349893738
-52.72659784360722 -52.44487042315285 -2.8528642578834287
-52.61422004284868 -52.23607540421723 -2.8829184583041094
-52.580557887917934 -52.20760077869764 -2.8906471415991053
-52.632232725599245 -52.05082242540598 -2.8842837560691086
-52.54024097038593 -51.80680647911626 -2.9076328528812896
-51.808674756894014 -48.35028976142597 -2.90761320576423
-51.77664800518013 -48.11433889046062 -2.8734501548389915
-51.52170105926869 -46.84548085410522 -2.8483360361404086
-51.52545711990495 -46.777560227981795 -2.8363827313290253
-51.472637777801374 -46.65201812255525 -2.819057298199536
-51.3250490058268 -45.739968165713805 -2.8720401729320377
-51.313930785711364 -45.66347722996795 -2.860829343799562
-51.25131442988456 -45.51576331984257 -2.8409347400580627
-51.01305399919373 -44.20470651676633 -2.8907912842883734
-50.98686106270486 -44.13829887670987 -2.8827558902763286
-52.782340531390346 -52.41579777643278 -2.8427473420616955
-52.75397930836375 -52.203500726584124 -2.855439934622186
-52.71272670097644 -52.108665378355454 -2.8663629041543652
-52.680557380428624 -52.04984361800829 -2.874322609604538
-52.68829837331269 -51.91750063074671 -2.8752231858531836
-52.636604630952604 -51.82507357946274 -2.887250085947392
-52.64553255201826 -51.789411399350385 -2.8857645557917344
-52.647181921708864 -51.65934556496825 -2.886128984611563
-51.66201255060617 -46.944841340142546 -2.8528934589441004
-51.45901571039596 -45.862605586511734 -2.8839934505620435
-51.43867161528819 -45.78103583672304 -2.8726901746524485
-51.40426423984749 -45.663541462087395 -2.8565030933233624
-51.34138976140263 -45.586013531627536 -2.8476313670617253
-51.10736639784024 -44.29253878566656 -2.9002014114836356
-51.058871822650374 -44.218403330219864 -2.891687466691684
-52.87071580830437 -52.48549329942712 -2.8224357573258825
-52.852884722944786 -52.414807384002486 -2.8286160540437253
-52.821929348310675 -52.18511890588897 -2.8420189315617352
-52.810527630405765 -52.09096317739349 -2.84663805688823
-52.736364431507944 -51.79734452939264 -2.866628223750711
-52.72211614302474 -51.64558651340254 -2.8702844353979167
-51.86257703818604 -47.39887367509894 -2.907951431612211
-51.84710842493553 -47.314177082011525 -2.8960322424482583
-51.81099046670227 -47.24919642344544 -2.8891407445365482
-51.8199243328658 -47.10481984100382 -2.864857926198252
-51.785777450941545 -47.02689022506959 -2.8552822063391687
-51.768028145198684 -46.91564238074048 -2.8384403231445803
-51.57940339802246 -45.8959101108912 -2.8826444906746285
-51.55887050803694 -45.85322762587936 -2.877351647619604
-51.52972392983647 -45.66977180138401 -2.851191312475115
-51.215507173822054 -44.376472948494566 -2.908647078871766
-52.950899435867406 -52.21972635327156 -2.8146982257057633
-52.83481448525987 -51.934739766574964 -2.844438732445796
-52.815941870330484 -51.801326310872 -2.849854310909085
-52.80317228878112 -51.64001318084852 -2.853092256986522
-51.95603788942482 -47.28353387783549 -2.8803794781569154
-51.86749893559117 -47.177953996303955 -2.872195026580763
-51.86803294148198 -47.09093644629542 -2.8580335685572122
-51.84383320514371 -47.00091617304621 -2.845602367036542
-51.834971087619664 -46.93259055598592 -2.835153174810424
-51.77557951388591 -46.75546154348944 -2.810912118622282
-51.669446576713995 -46.045244993267964 -2.899859072566757
-51.57217418620823 -45.75589398998477 -2.8620097576004957
-53.298300135957334 -52.98884550721072 -2.907113926633629
-53.301209531464416 -52.94917338979352 -2.9080388182319865
-54.09756783004854 -55.883668144463584 -2.876789120401713
-54.08263995949768 -55.817218118745004 -2.88235380020196
-54.10720457347228 -55.76888194147276 -2.882689999070542
-53.676697853156945 -53.681853258923674 -2.817373428271014
-53.65693291129177 -53.49362715498932 -2.8293393086585175
-53.558370797820174 -53.374938080323865 -2.8501376244841268
-53.55331134017048 -53.317101186573744 -2.853385954671458
-53.487934951564185 -52.95174795575752 -2.877457971476954
-54.18179362222901 -55.99757394560819 -2.8611758974538395
-54.13636858909426 -55.627652616017315 -2.8878619425645864
-54.16615925110901 -55.49286010836489 -2.892299901730418
-54.073602352192964 -55.448874420869664 -2.904702935767526
-53.723924382168775 -53.62383058644375 -2.812823820340541
-53.698175621663026 -53.5508179807205 -2.8202508621159983
-53.65243919681858 -53.46821396360414 -2.831176290322899
-53.6292621603637 -53.1667355736757 -2.847064390315454
-53.64207771614359 -53.0637247032318 -2.8485735713695783
-53.60578625962202 -52.98253622087911 -2.8571554179386593
-54.20438039042544 -55.66329455440412 -2.8786097822692382
-54.203140302021104 -55.491848942169504 -2.8883595640889537
-54.21704781404333 -55.418269266368654 -2.890862202774488
-54.19021587808004 -55.31525915159234 -2.8993023071313857
-54.191542287562044 -55.249479490415126 -2.902617278064949
-54.18050789681702 -55.14711607184081 -2.9090993313387115
-53.76293275168884 -53.503857205567186 -2.8121400387744053
-54.344299136324935 -54.95584952674689 -2.899852870494297
-55.94765578270713 -60.343439039478554 -2.8163413277984235
-55.95390583993951 -60.24855919507371 -2.820787927595836
-56.000036705298065 -59.906631584741504 -2.8349249162489136
-56.02456080443423 -59.83975698340555 -2.8366047502878264
-56.03810649469193 -59.76348259916948 -2.839418135042454
-56.11575394186074 -59.38822763898537 -2.8519967582433923
-56.15174654062076 -59.219297664212036 -2.857270414342014
-56.206341702166576 -58.986989021872404 -2.8638022401227516
-56.20074184806769 -58.923671550835394 -2.8669719831377143
-36.774540634355965 -57.416750445364045 -2.7402233496310697
-36.95340299592728 -57.368375107906886 -2.7560181916765534
-37.023009412429104 -57.38173742759792 -2.762206682136294
-36.84701919990395 -56.55030185787879 -2.7430223365112845
-37.18562380400626 -57.34043389888361 -2.776541848684631
-37.13729537106576 -56.85455089543708 -2.7709028681253605
-39.78037834867921 -69.13091934697339 -2.714120272658647
-39.70413727117786 -68.96143658615453 -2.715862470950854
-37.27406659889671 -57.031143617070875 -2.783744457669018
-39.96495183428331 -69.22411345691634 -2.7203146061148873
-40.07815835326154 -69.23219231749168 -2.7256432671756365
-40.19698017790307 -69.2312967614691 -2.7315096402597594
-37.55130537165539 -56.485098400765565 -2.8065596325553264
-40.283186089804595 -69.21516111438893 -2.7363088473983144
-40.3963648055318 -69.22592798790689 -2.7414126513041057
-40.49271968260287 -69.27021640422595 -2.7445069736109637
-40.58870658840213 -69.31361126013401 -2.747593684270682
-40.70998609768398 -69.3811732263693 -2.7509693946050096
-40.82424062194687 -69.46102562143157 -2.7535023799141785
-40.91552080186352 -69.51876825498368 -2.755702680141177
-35.46562664448021 -38.95587908089865 -2.77146383283759
-35.35375005546981 -38.7703935777396 -2.75821689850477
-35.75699701080172 -38.978249527531304 -2.780170321288465
-36.08612237030318 -38.70797837847883 -2.773311256126136
-36.60302089096322 -38.97140539917564 -2.801193135892891
-38.90211861176375 -37.705445684255466 -2.7840294013182056
-39.088849042838696 -37.67374202478264 -2.7864818923586387
-39.450794909032375 -37.60793201004972 -2.7908977762895306
-39.454731957504386 -36.68847840491018 -2.7370338129286607
-39.743301582883646 -37.54845488088124 -2.794011000157045
-39.744580020268394 -37.454392422835596 -2.7885162078292174
-39.82282477344228 -37.46773429157563 -2.791050729126751
-39.88904292820121 -37.26616899652079 -2.7806706479631425
-40.06866370575541 -37.44311764748877 -2.7950711703116715
-40.224788542767165 -37.585460459372186 -2.8069066960584284
-40.28144009826162 -37.15737300682194 -2.782898048371207
-40.98932948022808 -36.95746626708709 -2.7862793741789638
-52.088764197921996 -74.32634095304493 -2.8057167926615754
-52.2895105208098 -74.55383807897034 -2.7964093926495894
-52.31933901429701 -74.21505294790134 -2.8101564579667953
-45.86441686579272 -34.206754504155796 -2.709841071192098
-46.06910860711917 -34.38537953833174 -2.7240085847556212
-46.00575663792804 -34.336303198011166 -2.720002275622054
-46.19345133180097 -34.655726561353625 -2.74251021573481
-46.35926419631138 -34.8040407198214 -2.754169345145492
-46.2864247240021 -34.68899798608702 -2.7459833812803924
-46.480694189283284 -34.86469722970996 -2.759749540856319
-46.383354331587945 -34.553163216515685 -2.7391432805731806
-46.65343950629314 -35.372334602123715 -2.7935153832471027
-46.56139677254123 -35.05974359774781 -2.772932233507757
-46.70047553200212 -35.318496792211334 -2.7909133728659157
-46.82955266078933 -35.4967639895975 -2.803790806315323
-53.080721738213946 -63.82616056212468 -2.728016752961932
-53.51381325066803 -63.805561482215936 -2.7169690674079154
-53.61402327494489 -63.667794014710125 -2.7232668274877447
-53.616313224113824 -63.54438967684443 -2.7316253341379566
-53.669399101751644 -63.55095859023036 -2.7294487771354627
-53.711445114809 -63.46583570837535 -2.7338293036991104
-53.794332405678254 -63.41621913220345 -2.7343864153238004
-49.00313611348199 -40.107579652731516 -2.7415094354471243
-53.90003170577155 -63.48083425247687 -2.7264198955063232
-49.131545180738804 -39.86097743627703 -2.7190377260433216
-54.01381952207389 -63.49550618161862 -2.721437874381751
-49.36490276841028 -40.693717382533364 -2.801415982516036
-49.27464054972892 -40.01175069290329 -2.734908975198233
-49.205707146958474 -39.90540690085125 -2.724017198176896
-54.08752319983269 -63.36322993377305 -2.7275875543580854
-54.114234391782254 -63.2539799933759 -2.733840670881664
-49.4536033756364 -40.692649457941116 -2.802002916694918
-49.306656204106204 -40.07998542956036 -2.7417508161222495
-49.34974341141141 -39.9993576538171 -2.7343614287167184
-54.128035212672316 -63.16894906615995 -2.738927210173666
-51.08355143261048 -48.249636874901014 -2.7234957014499126
-51.04314504857055 -47.994296183769904 -2.8099937868287697
-51.0588928655165 -47.919272306980304 -2.791446954036926
-54.29400738516104 -63.41752934129055 -2.7163534647205534
-54.26778985903152 -63.24517085057988 -2.7286441211938883
-51.259697688199076 -48.526070525375665 -2.752086844238047
-51.074813303963644 -47.653131076884364 -2.730364759508774
-54.40133258639914 -63.41829315805346 -2.712209391535164
-51.21546720091607 -48.006812942148116 -2.7871202961393773
-51.27180272237528 -47.93166454675761 -2.7627853053905294
-51.67667905825735 -49.30879941984634 -2.8084415341932387
-51.364691800053244 -48.23397292143409 -2.8102747621901756
-51.3657420642966 -48.0891925246886 -2.780980960534228
-51.37920131036925 -48.03916112654696 -2.768653551120151
-51.36051373431912 -47.913525402203604 -2.7455375234696535
-50.45039752861573 -43.491991293767995 -2.8066573333734333
-50.4532180992234 -43.44821316242288 -2.8007859736937863
-50.413676521640454 -43.286116607102024 -2.780056462279813
-50.33904594007889 -42.890770481005134 -2.7301344878424083
-50.31407795390841 -42.87484965097414 -2.72825714624539
-50.30716359700931 -42.775733657494484 -2.7154297272431105
-51.68761218241515 -49.28404636110808 -2.8020091110040903
-51.57384815228852 -48.38368477955038 -2.8043165032807673
-51.53163251001858 -48.279380970619016 -2.791664006729162
-51.523639309447184 -48.24130259810209 -2.785649286263002
-51.45569487121575 -47.861111212608435 -2.7200425886633557
-51.409307352288316 -47.8361374827133 -2.7218999335337664
-50.5362164696013 -43.50956375508139 -2.8078021224403846
-50.53487029824912 -43.351115756706136 -2.787376455096264
-50.46459705430104 -43.197847505369324 -2.768142912583973
-50.43813038962981 -43.08050046100999 -2.7530454117748397
-50.422366664012834 -42.997031589866154 -2.741919721142598
-50.415111302369255 -42.88875530939078 -2.7281914662270337
-50.42174756271141 -42.78583236429574 -2.7159196705329833
-52.32953384025909 -51.572127805388355 -2.8089565787035644
-51.61660601466215 -48.286229823264584 -2.7786708416917683
-51.50614267631456 -47.90249593321769 -2.720793777042473
-50.64833442395502 -43.473171802614026 -2.802073122442845
-50.61459737780805 -43.398783106450104 -2.79288286398156
-50.60818751661671 -43.28762441110618 -2.7777830690067327
-52.46079898543223 -51.73300052700326 -2.774559576727912
-52.45259955128372 -51.70858368190543 -2.7769551356884192
-52.42700142993436 -51.46605812373264 -2.7851885979385864
-52.34360381582279 -51.2243242342953 -2.804338329906395
-52.298611479406325 -50.838027920662064 -2.8049329071820206
-52.15810918144918 -50.30904338786525 -2.8088587665122278
-51.99033563943218 -49.80892121947981 -2.8018252476135697
-51.64530282362809 -47.64005419331621 -2.807586225836405
-51.35505293124908 -46.529302666835314 -2.8068437070407946
-52.64588745163067 -52.04427876904334 -2.721657950959108
-52.55216356907666 -51.845942892226056 -2.7499019068626174
-52.512477117086185 -51.77522155831363 -2.76110675898176
-52.516789798651004 -51.66250569387885 -2.761710752738731
-52.49539717978805 -51.452919286275595 -2.768084935018032
-52.47973404132691 -51.39714986228992 -2.7718477490828906
-52.39517123363532 -51.258820747739264 -2.791838848853488
-52.26281931037874 -50.336934827615295 -2.7845746258806776
-51.65616327513151 -47.58628735709089 -2.7963475163292815
-51.68361613158895 -47.40088859263142 -2.7585326619001442
-51.66172434519879 -47.330750920655895 -2.7479623803589432
-51.670393090398996 -47.286785711260585 -2.738608546627082
-51.57939794128556 -47.179394243566264 -2.7286901012262694
-51.446420643537046 -46.34790559195323 -2.767627181703542
-51.18779282586188 -44.95561083169676 -2.755965743966957
-51.16314368354652 -44.904268311147376 -2.7488106354374677
-51.122173871317955 -44.79629631574035 -2.7332187599914355
-51.12817403520987 -44.711725319304655 -2.719572831848931
-52.66732122522315 -52.06738492732361 -2.715723028156674
-52.677951869511226 -51.95525781779186 -2.7165296024655774
-51.707073418534044 -47.35307478146815 -2.746707519020778
-51.712127964904965 -47.17949718903807 -2.7132198105722756
-51.55917425220254 -46.625501732195794 -2.8073478065061757
-51.27305002909271 -45.0083311656148 -2.760849044574379
-52.945332222003096 -52.57921788520877 -2.8037993667519543
-51.67108911095248 -46.41486967145045 -2.761579032742906
-51.56899672117339 -46.134417829506994 -2.7202795947843947
-51.30945809227737 -44.831803598668515 -2.731627878573222
-51.28437398343388 -44.804538562933416 -2.728342218740168
-53.07110549846093 -52.829521012994384 -2.7677040770775516
-52.98667079929749 -52.24907531086805 -2.806609156253872
-52.66079413398666 -50.8637574536802 -2.714026757247704
-51.80192066382656 -46.70422601810775 -2.79993006301481
-51.782557663511554 -46.618146802150825 -2.787054958427176
-53.141769165231416 -52.849213619136975 -2.752881639683774
-53.13261614636655 -52.767162711255175 -2.7585162531903307
-53.27574377290807 -53.004889459130595 -2.718944070697826
-53.26983460630559 -52.84041048011535 -2.728112237444301
-53.28637655705262 -52.750565709328285 -2.7287792621291085
-53.34821164120768 -52.7960157261668 -2.714566372843067
-53.8503360177738 -54.45320151673766 -2.7473225579130975
-53.77852428881448 -54.229962002799674 -2.7717821780421295
-53.74175564569922 -53.97564638197196 -2.7920153773052707
-53.71830705642177 -53.8739554178335 -2.8011117510264087
-53.69052339278799 -53.79630853335235 -2.809459740003053
-53.89431183614249 -54.428897657210186 -2.742427559334613
-53.874129185615466 -54.346976573549895 -2.750491588904235
-53.85710999898649 -54.229613537976924 -2.7601081538983205
-53.83255080620435 -54.147385337423735 -2.7685990328867205
-53.82670654113188 -54.091502901871884 -2.772680996455832
-53.76447735303702 -53.93927949996082 -2.790561230324701
-53.802725813479015 -53.85072647188214 -2.789369928306969
-53.72463409610256 -53.79259642474185 -2.804395652184152
-53.75809318087133 -53.61887648698567 -2.80770424572108
-53.99100400278997 -54.59388745359851 -2.717765762087021
-53.94981830652267 -54.397443685698434 -2.7362149195134986
-55.76834099741448 -61.43242936191214 -2.768709149041131
-55.807285584911696 -61.29120491823718 -2.774329795755745
-55.833070932297595 -61.17252032309899 -2.779359823923053
-55.824256289578365 -61.08334247598933 -2.784721258659561
-55.83929299857506 -61.0285227751844 -2.786811309613248
-55.057089546710245 -56.95694293600109 -2.712425010326756
-55.875523738991845 -60.8543428894232 -2.7940435164518997
-55.895535089168135 -60.771437090398926 -2.797251839322951
-55.924475887771365 -60.701399962224045 -2.799210081196411
-55.071202536573374 -56.90546125988042 -2.714206172988653
-55.93983434001966 -60.64984040872903 -2.800995228491206
-55.918868472770036 -60.55070412381678 -2.807421598117865
-55.937735770944506 -60.46967436617078 -2.810469749734896
-55.126276311938156 -56.61941155326783 -2.725796951634635
-56.30020202226258 -61.51464877537046 -2.7338333585287895
-55.29096809597319 -55.72924795990875 -2.7552209453755836
-55.34469965485192 -55.50026496768967 -2.7595364715527007
-55.423641844516496 -55.20869351478427 -2.762455615254485
-55.40980281124172 -55.096771893169624 -2.7684678453167173
-55.43471215979057 -55.04630595552302 -2.7673676889513787
-55.458718619713046 -54.928517825741345 -2.76874118816694
-55.47263090426793 -54.822561918077135 -2.770711817059227
-55.49381555989844 -54.73930035523065 -2.7708378164513787
-55.502956802973706 -54.664184801797425 -2.772115728827419
-55.52927822008667 -54.597570812707175 -2.7708640498983437
-55.545954438645836 -54.479804779426445 -2.772187558765948
-55.55600980722507 -54.4086413835309 -2.7728706279160313
-55.64605774192902 -54.08353407884965 -2.7691030656966897
-55.638480370311306 -54.018996605325455 -2.771408612300349
-55.66120315222217 -53.87932219188567 -2.771060366198487
-55.730330569654555 -53.442767572163895 -2.7677276780382414
-55.75159480800038 -53.36547359823298 -2.765528965444311
-55.76397929758227 -53.27005246327586 -2.7645150552695648
-55.8190453512143 -53.1064553617415 -2.757712902247603
-55.82813389854492 -52.99677219314995 -2.7566445132649235
-55.86119799744846 -52.84059778169649 -2.7519223720104335
-9.243767148867256 -52.095309750212635 -2.6475037665105896
-35.70637322825027 -62.832760840061795 -2.6135657575728137
-35.69795073600123 -60.256513376479134 -2.64058766691968
-35.486220670951376 -59.268192464530586 -2.6271674377111514
-37.43932317123954 -67.95199733783454 -2.6201739132542476
-35.9395047288485 -60.562458330299386 -2.6582113837743115
-35.46053900228535 -57.46394017429531 -2.6224364160480818
-37.59860622176062 -67.57462634898667 -2.6402798205564415
-35.97882406416356 -59.58105649366989 -2.6680054884494036
-35.940495619666486 -59.51202927563885 -2.665096189430347
-35.47253788122017 -57.12064622971792 -2.621404058089735
-37.790747349478885 -67.93153169683164 -2.641798069773751
-37.732476649761345 -67.89264047684736 -2.639408179440764
-37.86062578773093 -67.94921028661183 -2.6454042524281878
-38.00083090577081 -67.99096342216131 -2.6524512737304233
-37.96763693294654 -67.90732145871446 -2.6529516901289805
-38.08027158230649 -67.9971824554511 -2.656946187178873
-38.181933680065264 -67.96061169839147 -2.6639061737538423
-38.27533388427159 -67.93736490053382 -2.6700328714421815
-38.41022642353401 -67.9823966896598 -2.6764675548225347
-38.34634739093732 -67.95404216628043 -2.6736067089725406
-38.53528899231056 -68.04368691336795 -2.681765634597121
-38.47424890200436 -68.01061633918555 -2.679253830863594
-32.40711922309045 -38.19005343341051 -2.649165629845385
-38.68864217420979 -68.48396842191283 -2.6769311359702677
-38.65383117122912 -68.11622994322651 -2.6862744557703833
-38.59946623078673 -68.07144309929627 -2.6845348799108875
-38.75927601332267 -68.21237967208923 -2.689244730086905
-38.71136995435075 -68.15572994918186 -2.688269557439897
-38.90286468329897 -68.38528717130905 -2.6918173370278113
-38.85598122154149 -68.32540360751234 -2.691124352788983
-39.024083409716255 -68.51765466413413 -2.694311803237663
-38.952218203903605 -68.43933639698088 -2.6928685560910584
-39.16071385073443 -68.63853505191574 -2.6978784515105767
-39.11131323235524 -68.57875263300043 -2.6970880726627353
-39.31257233170742 -68.80471953634466 -2.7006057143321662
-39.259827464665 -68.75297979724866 -2.699510378859564
-39.211076768768265 -68.69409709755173 -2.698769724785501
-39.420392652176716 -68.89953635933185 -2.7032058776577292
-39.37055650978415 -68.84533943682655 -2.7023834181078015
-39.569845246289276 -69.08043234508507 -2.7050755465789686
-39.521096662166485 -69.01651431389608 -2.7046243941944965
-39.46665298047393 -68.96278512884936 -2.703591943353427
-39.70452509898859 -69.12121219063104 -2.7106248259082557
-34.224735748918796 -37.65005691738524 -2.666569663724344
-38.35152706474762 -36.436866264558006 -2.6973915521364145
-38.75421302371786 -36.3797044475672 -2.7031988325151763
-38.844163440374146 -36.29543897516299 -2.7002867054585993
-50.52104381147616 -77.70271727006954 -2.660883041597594
-50.623381135526465 -77.80310251742048 -2.6573532352233293
-51.002671470746684 -77.8507538356354 -2.6575731224273684
-51.183752091610145 -77.7851356641269 -2.6611790944423968
-52.718368624619785 -77.83649933326737 -2.662463056683638
-44.92655688501863 -32.921295107078095 -2.616047725617075
-45.0073223343486 -32.84835138818774 -2.6129048826756924
-45.27282484466887 -33.56984141454363 -2.6613715633089656
-45.071512588221374 -32.844152762292225 -2.6137057504409853
-45.35778657729106 -33.523754770823885 -2.659931953782256
-45.45636270144541 -33.56083171703185 -2.6637947082645717
-45.59643330455341 -33.664207955183976 -2.6723673290883356
-45.52981124168827 -33.63507716148959 -2.66951018354418
-45.74949699254125 -33.857324342008404 -2.686628055618155
-45.657016341146694 -33.65804888138783 -2.672944706494487
-45.892431559527466 -33.99630348983115 -2.6973983206481904
-53.309579469575986 -65.19942215290492 -2.6254976731564983
-53.32663379436936 -65.0842023533412 -2.633205190276437
-53.39707147848766 -65.1276996309463 -2.6282985743609
-53.322815742076614 -64.75033578252403 -2.656779321111427
-53.56065539112377 -64.95207835569242 -2.6361924930646925
-53.531164849955175 -64.63719389412972 -2.65895552866809
-53.59107999098347 -64.5780129149124 -2.661358791869598
-53.59972579818156 -64.31501091467143 -2.6792976828820616
-53.48968624664859 -64.16254148849443 -2.693060951214739
-53.65798100448673 -64.32279930043387 -2.676997522248875
-53.58838680820038 -63.86652598580448 -2.7104749267918224
-53.73657174058302 -64.11256794624336 -2.6890329019492665
-48.70996237959163 -38.96212758737868 -2.627523581085746
-48.922110210382925 -39.34905223453586 -2.6673785839638713
-48.888857795900655 -39.17066814136277 -2.649782293310593
-48.832337543979754 -39.035524418302195 -2.6360743316260296
-48.77190475082148 -38.97822924007859 -2.6298246345506993
-49.10242178917609 -39.669996628857106 -2.7003117937721695
-48.975829290083915 -39.43484000105859 -2.676259781916802
-50.96499779346571 -47.47416642300786 -2.7042094111151282
-51.23791538795033 -48.246776430869645 -2.6944404732270657
-51.10902456492406 -47.9314851159673 -2.643089465395348
-51.1058668959821 -47.91545468018201 -2.639721907385156
-51.10090116754834 -47.79984090811201 -2.6120791710163607
-51.016892263915146 -47.50071773838228 -2.7035654806721876
-49.99317051123216 -42.161151637518664 -2.6367655283740787
-49.952707167372104 -42.12719253043606 -2.632404768381738
-51.37492560162268 -48.31839518376106 -2.68446979544542
-51.307101146209604 -48.22024409081405 -2.675466786459276
-51.301584358874564 -48.154273734948184 -2.6614893859951474
-50.094100663444564 -42.20015133490915 -2.6415841242434546
-50.08580791211769 -42.06966794770591 -2.6245681147401125
-54.52522399015467 -63.50982355379001 -2.7014265151958967
-51.391864064033356 -48.29537132082261 -2.6761228608259087
-51.38889896130409 -48.22816852292864 -2.6617773329602668
-51.32499263630149 -47.685107987923864 -2.702179322345234
-51.22409709038129 -47.4550047177019 -2.665559714711578
-50.2438455177983 -42.51652350584535 -2.6821332445287225
-50.1883991321618 -42.18971928110929 -2.639857217166985
-50.1521352037932 -42.13632495138525 -2.633046490240964
-54.66842129879508 -63.63816556925151 -2.6874559915413094
-51.598914904200285 -48.48365853158398 -2.6750094047943174
-51.582001730733936 -48.43489723487206 -2.6684061477932612
-51.573162594150375 -48.296379471485224 -2.640950669024544
-51.5472775211968 -48.22903723279745 -2.6314828215104313
-51.38116590777916 -47.34161996521859 -2.6186988321883615
-50.71187129105484 -44.200541194210665 -2.650172589381464
-50.31884847040875 -42.307247370578835 -2.6545221843964057
-50.26000348907976 -42.218083640172246 -2.643229593063685
-50.239477301996665 -42.09053302160314 -2.62672996852983
-51.62443584985097 -48.46140861867478 -2.6652515958231073
-51.630774948485644 -48.251644358680664 -2.6199591437864176
-51.59399423771325 -48.22735049206235 -2.6219945505837567
-51.52035644497903 -47.84997677295202 -2.7077623923593386
-51.4906223203614 -47.67227255490583 -2.675058212481123
-51.49016567809262 -47.59697468024575 -2.6590626099984833
-51.029517123098145 -45.49325277488087 -2.637987923694876
-51.06288442093439 -45.37852617988607 -2.614370156961318
-50.86327585448724 -44.3761943566511 -2.674472478834133
-50.80182588489939 -44.2684408401125 -2.6587688407142096
-50.75475162271336 -44.186068061852524 -2.6466724731029907
-50.73843110231862 -44.011524255886705 -2.618630832548564
-50.43980209455972 -42.60200175731674 -2.690610807901558
-50.38937502390197 -42.19865143046855 -2.6399878951062785
-54.92046248164865 -63.928163340029755 -2.6586297099553113
-54.90203519729411 -63.661452742396975 -2.6765077799233414
-51.55079202844962 -47.567794974950814 -2.6438704913623257
-51.53728606484962 -47.514890344464646 -2.6345167395209157
-51.46414940155953 -46.8442378043397 -2.6752825909809577
-51.32480810852661 -46.504943891246995 -2.6199127172977175
-51.109997085602686 -45.37519309272248 -2.6110768977033967
-51.017951070553394 -44.61535511627328 -2.708059325257216
-50.947223286373216 -44.2221943041801 -2.647038833324208
-55.051608199785626 -64.31677961859535 -2.628295404751599
-54.97149808480198 -63.91634212501277 -2.6573236177449253
-54.972342699954446 -63.6339344754882 -2.675348639802108
-51.57409015806886 -47.03153554204993 -2.700446593513119
-51.58520685828106 -46.96481093181507 -2.686071458230047
-51.52424666873328 -46.785409300983915 -2.6570618566147024
-51.51074388311611 -46.68391870495135 -2.6380216481442664
-51.32616355378167 -45.6027182355806 -2.6405982711360423
-51.25560772336581 -45.49674071055142 -2.6252756703185876
-51.046326030504524 -44.29670115565833 -2.655950654395326
-51.0037527344616 -44.231906930491704 -2.646863474598309
-50.949967308214404 -44.07778078635301 -2.623583415761888
-52.70827787678439 -52.12034397240573 -2.7040307304279176
-51.71872312891452 -47.12245139138389 -2.7015191528102287
-51.684048227409015 -46.995164306537745 -2.680906345867179
-51.6784629678331 -46.96102946441186 -2.6748768356522064
-51.63432906907892 -46.838142015070154 -2.6556161659729383
-51.6168488365487 -46.789806000984775 -2.647961837639656
-51.48393727073652 -45.83293545699713 -2.6722506942640054
-51.455831915509215 -45.763178428784954 -2.6615085174828055
-51.43320866982317 -45.64513023944464 -2.641413946387643
-51.37435028308407 -45.602592384532265 -2.637454006935976
-51.33816826953171 -45.45277581695683 -2.6119609311091034
-51.13069602614255 -44.585784496369 -2.6994181977572014
-51.16661896073307 -44.44439885585549 -2.675579640878593
-51.151647527310246 -44.38873499751339 -2.6672080716413324
-51.0894300436134 -44.318250296595345 -2.658006820532554
-52.776814297491406 -52.044318205316436 -2.6900093833264798
-51.58350025300743 -45.918411244901016 -2.680550974178227
-51.53931675074684 -45.857026503007724 -2.672680775621828
-51.51716969033732 -45.66153201863049 -2.6386923764226102
-51.62854460526233 -45.99349709404376 -2.6906536376620096
-51.62046879344064 -45.934150438354735 -2.680639962625942
-53.363469510664835 -53.06749960988679 -2.698630139295311
-52.90230362089637 -50.902852427880646 -2.6542555916797976
-53.558980714454954 -53.56211816801534 -2.6321787911422536
-53.505654220597954 -53.430045276625464 -2.6506081163353135
-53.49045320440327 -53.31304390014411 -2.6605471579056745
-53.44431982218594 -53.13748277317971 -2.67924510711603
-53.396316932479614 -53.01976483813864 -2.6946829830644665
-53.406215014708735 -52.840467190248354 -2.7011331779598486
-53.61762048074967 -53.64270476795466 -2.6158962728855437
-53.6256585860877 -53.59954288525743 -2.6172217064275998
-53.57504375924531 -53.37456044020902 -2.64075368190713
-53.53340640879941 -53.23527397568409 -2.6567131638114883
-53.54458630927556 -53.11071300097018 -2.661154521513282
-54.041462050323446 -55.10587528917672 -2.675140973589071
-53.984219176625295 -55.06049434711553 -2.6864340723966116
-53.99659228107512 -54.81432969110066 -2.7022188222563637
-53.994298255561105 -54.73888489571869 -2.70768644802107
-53.65418978965444 -53.34104591355265 -2.627549839981203
-53.71276199376211 -53.30148100226608 -2.6184624713983258
-54.156126526063545 -55.10383188916365 -2.6592804197508464
-54.15466236924411 -55.00938315857119 -2.6662021866139556
-54.04367763154672 -54.688676557203046 -2.703929003738378
-54.19091124924594 -55.036948748436004 -2.6591411614904663
-54.93309251792809 -57.58402892380161 -2.6832683355937337
-54.95139163808005 -57.50792661387239 -2.6867381627440716
-54.970447434849746 -57.43232867481863 -2.6900498632012355
-54.98069962664433 -57.37359397163415 -2.6930015429356926
-55.000162412528844 -57.27997333915982 -2.6973191945667185
-55.014974745725276 -57.20288485824142 -2.7009242536712117
-55.02035119294089 -57.16339889622107 -2.702953633629975
-55.03562435890453 -57.06748227161253 -2.7075893530651536
-56.378522580259464 -51.75965067520548 -2.6626292168955685
-56.44439859239942 -51.29307830181381 -2.6385883433294515
-9.734098817508801 -50.32378674225789 -2.5830192765799005
-10.093296649790453 -49.39599880944457 -2.5517569057957425
-10.033132785522398 -48.856382827040484 -2.5253449064824425
-10.312031046600694 -49.6710770325064 -2.570819444669735
-10.344474859780604 -49.53203864519746 -2.5655088885187993
-10.523884189104471 -49.815990575312476 -2.5837780627372484
-13.012903089230036 -48.63180785816636 -2.6045102453113316
-13.000834648976038 -48.506843556659454 -2.598387264525188
-34.37150483887602 -61.94516550585246 -2.51833416435169
-34.430958998384156 -61.82052645305745 -2.524281205263257
-34.202581320240064 -61.134736616551045 -2.5103552902751085
-34.198031079834465 -60.984483072062716 -2.510824889676447
-34.659851772446935 -62.688580673627065 -2.533913150536147
-34.53199887890536 -62.13646316052455 -2.529577694235617
-34.49256768794143 -62.087620832779706 -2.5268793627427035
-34.49198365516008 -61.53426493647997 -2.531615102090142
-34.506981359717585 -61.44531880092941 -2.533552421877121
-34.18169708013998 -59.18873496204216 -2.513503036507368
-34.8244850925849 -61.97746930919601 -2.554743551264906
-35.040324521280844 -62.442335380626496 -2.5668934103453966
-35.27040616733274 -63.02935677061866 -2.577273703327551
-35.15536350104594 -62.46521532567527 -2.5756773183241686
-35.00628775897583 -62.06617071094284 -2.5684009311470493
-35.30922084841532 -62.61522437169228 -2.585840424787956
-35.338012818918315 -62.67115621872239 -2.5873732728809538
-34.863648536143785 -60.08634710893884 -2.571295338958801
-34.639371560467296 -59.08528773930117 -2.5537194485273558
-34.31102744387694 -57.62666695835354 -2.5187784147975396
-34.33952802562821 -57.552176605766775 -2.520831849682196
-35.38672599527659 -62.465234066453476 -2.593833727037571
-34.87083438880978 -59.53580737550689 -2.5735236088361066
-34.85560506452764 -59.47849777303951 -2.5723214389913127
-34.79992691690266 -59.116258704448164 -2.5678013225695606
-34.73242024600579 -59.09317577243819 -2.561875559306017
-35.59024435395542 -62.61059277129403 -2.6077493267964518
-34.98719132022695 -59.729520404172014 -2.5830671082396313
-34.92641956773782 -59.56694565930453 -2.578270386991962
-34.45005858568334 -57.02795533547586 -2.526508565331347
-36.930556544263524 -68.8854727864281 -2.5633635771036483
-35.413107571382284 -61.26774633230023 -2.60912084145511
-35.39541361528599 -61.2070535404866 -2.608254127822619
-34.83911671800595 -58.33098718062146 -2.5701529972609194
-34.79776831239101 -58.17133682894915 -2.5659011886496703
-34.71118566525854 -57.907927182793955 -2.556936993231344
-34.67321787587339 -57.750807407963016 -2.552622544329104
-34.543881664034956 -56.9293026613572 -2.534244495453777
-35.36245744996776 -60.721027574642434 -2.609524433182193
