ply
format ascii 1.0
element vertex 837
property float x
property float y
property float z
end_header
65.5727549285108 -151.187938951165 -2.4480784611606485
62.42312024218423 -153.1771311454429 -2.5460658531921982
62.45901557863785 -153.12336045261299 -2.5327762341628546
64.06069369943383 -152.07014450841785 -2.4934609018585228
64.10689998461058 -152.00891808204162 -2.476960832614918
64.1870512679452 -151.97098029687194 -2.438256502614569
64.55368377960319 -151.71097607234836 -2.4423357897089364
64.61036185046038 -151.67024265799247 -2.4405771611871474
64.69210589139735 -151.6112757544964 -2.450270679122193
65.35176883055777 -151.2275668885768 -2.40117464637754
62.363460440314554 -153.09475632340107 -2.534435599839222
62.43150877460177 -153.0686249969533 -2.5220878619396943
62.453691658740134 -153.02374510304128 -2.5078893039858037
63.919016640929684 -151.99162343621018 -2.500128318110627
63.98857354247457 -152.0069105682955 -2.5028964730279726
64.05136334364023 -151.96066745012013 -2.471929211667173
64.48562190402876 -151.66642808859717 -2.46252043073476
64.54877476685591 -151.61747913216615 -2.4407898321646417
64.65366941294143 -151.56417865040294 -2.4465859349087613
65.46919192533875 -150.92173403211433 -2.3937053484708617
65.51572600344247 -150.90386968907023 -2.3961087867924467
65.6371422170499 -150.81205595082383 -2.3769790257416243
66.05577238645286 -150.51630302782107 -2.4108654428955756
62.30271599152158 -153.01801850235256 -2.5311973723202943
62.34933479195882 -152.99191762644165 -2.527473387715558
63.865965116673244 -151.97123778766075 -2.4430005203464993
63.93542559610906 -151.88999103022476 -2.483299057605512
63.97804280476086 -151.8614547376503 -2.465936580987587
64.10720442841881 -151.80656845316767 -2.424569821337377
64.14921819841315 -151.74114331920612 -2.427330081953156
64.52342320868266 -151.50149600831682 -2.445977303500125
64.53765105693346 -151.4473750739615 -2.4430553300063282
65.45104824575934 -150.91168678779923 -2.388910835180466
65.49083071534231 -150.8792049175508 -2.3865007566447147
65.56165397170192 -150.7297102885557 -2.3782625335997465
65.65144348625635 -150.71866195375858 -2.378641371569622
65.90985285599578 -150.5286072350679 -2.388852119024695
65.99204505271872 -150.44100549635536 -2.381909063079948
62.28393628602699 -152.96106343543104 -2.539722628255693
62.306140140812104 -152.94411474502334 -2.5382706013589726
63.800390031996315 -151.8875425468646 -2.483537232521303
63.88321743216903 -151.83112645334995 -2.494079038027685
64.04779865945733 -151.64528737953208 -2.4664361126415746
64.05443791061212 -151.64217960472482 -2.4720763833129866
64.48589758920161 -151.44614819988718 -2.4543264853102595
64.52030100689673 -151.4209926007752 -2.4554147657699557
64.62216694043012 -151.2822875609989 -2.404056067689297
64.69518154742788 -151.24273316514746 -2.4076257502608587
64.74964267270833 -151.20878349647876 -2.4164828956019075
65.50584754883018 -150.75379053084737 -2.3774433789970852
65.99829669098008 -150.42495371194565 -2.3917175524406096
66.00226871492701 -150.42220036462246 -2.3807711070861304
62.00079313018169 -152.96645028557762 -2.5398663580010155
62.09754318036661 -152.94312238045126 -2.544826821613004
63.670518175467336 -151.818513309413 -2.499385962986105
63.73895125010248 -151.78306248834798 -2.4969736811361396
63.814431036494014 -151.75438733561518 -2.482679974276277
63.90466895961372 -151.6889455179841 -2.437227803253401
63.994629451245586 -151.6659193803607 -2.4588156640326275
64.09260496336614 -151.6064437553269 -2.4723591209173823
64.18097919314732 -151.52010764712543 -2.460141971858355
64.21209097238905 -151.48283961389552 -2.4563157433091267
64.30928878397322 -151.39008612572064 -2.4707797217309673
64.3562006480392 -151.3735505715607 -2.4750472659102307
64.89821123719744 -150.95441756106806 -2.392094386446212
64.9428762565136 -150.93331439669052 -2.392812194414703
64.99818324209184 -150.88501236358334 -2.4015398177996685
63.62570572466352 -151.7438189972763 -2.511306328491405
63.677365830803666 -151.70760315008292 -2.506523747161377
63.761028593509565 -151.6683061107916 -2.4973924406543326
63.83893337680878 -151.63769493434958 -2.465714479870182
63.915909697593186 -151.54038210867498 -2.476178159384761
63.99317757030405 -151.50482736819572 -2.459859055496148
64.07178083843851 -151.49475377514653 -2.4544271781643343
64.87465304489587 -150.91136318465215 -2.389228126754257
64.88853855064812 -150.87340022615152 -2.3910431689284453
63.60164047839516 -151.61495014074768 -2.5037554947342695
63.688408356177874 -151.58056863316122 -2.4951996380274393
63.75683845362416 -151.52792590135675 -2.500338122632252
63.87412772603444 -151.48723886862393 -2.471834393133494
63.94291567374991 -151.45935168629828 -2.469562831313162
64.25304440713501 -151.2364325061014 -2.4702336257697532
64.26934976331204 -151.20284689920587 -2.463582394256127
63.56626178591623 -151.55546586031306 -2.503964514119653
63.66518983115318 -151.48639015779088 -2.4960527164446837
63.72139306331442 -151.45255316522784 -2.491301686224407
63.801027691990036 -151.39838581091158 -2.483520350235712
63.832193892360245 -151.32751403787285 -2.4515606246431276
63.51614671020647 -151.44725073553462 -2.4806349794959264
63.57945117676881 -151.42910308030645 -2.478393954010844
63.677485582781756 -151.37118993832527 -2.499388751458176
63.758213383004744 -151.31203345059816 -2.4971757949195483
63.82565951296385 -151.29288648352608 -2.4668626576632757
63.92866092252114 -151.13356783558433 -2.4644297978620218
63.93942837552253 -151.11297180562815 -2.4711098898113475
64.19550308611178 -150.99034525373392 -2.4380743808544367
64.20857967483185 -150.96602931924187 -2.440152055261324
63.46040692245819 -151.38043157540443 -2.4906524856454615
63.53860443823478 -151.32451680059722 -2.48495786919459
63.62304546438196 -151.2914908507543 -2.474343788737743
63.66410256039736 -151.1976066195083 -2.484055924715804
63.864355782681585 -151.06526842858128 -2.47113478219318
63.91992173760467 -151.05036335257486 -2.4646749188691732
64.19058129025638 -150.86939378890287 -2.432775591274541
63.421626696914466 -151.29345099035265 -2.503475745961341
63.45833193028945 -151.25905004312335 -2.504020736674822
63.577516666852645 -151.18916293540562 -2.505051340752852
63.63464423792018 -151.1399972128242 -2.4781511713867586
63.8314086892929 -151.0468317825405 -2.480266428881883
62.137275220083545 -152.0133558107106 -2.5381084972600303
62.770726730246885 -151.56490441384975 -2.5130126817464977
62.85392286744202 -151.5356677141267 -2.506883384015961
62.91891048606031 -151.50367438256492 -2.5001415402831757
62.947021504838304 -151.44097159447412 -2.5156504695287825
63.33112931397473 -151.17238509754384 -2.5108080865589786
63.42474902629521 -151.21212577847177 -2.5078190993716474
63.52397005150198 -151.13412105634947 -2.5038868374602368
63.574307241961115 -151.06284543018523 -2.4619836790124077
62.08226908320391 -151.9297687465312 -2.5344171371161806
62.79848916693288 -151.52915424119496 -2.5061741045131236
62.85993579470765 -151.43262963025512 -2.5094037494559176
62.96182008114336 -151.35411013526192 -2.507460856576545
62.97799553751704 -151.2961228927291 -2.497660730920823
63.135537590808475 -151.24749263293842 -2.448513994618558
63.162928424728065 -151.20915018971777 -2.469740394211268
63.30616759523524 -151.1141369306167 -2.4983915387321627
63.317606519175044 -151.09488797111513 -2.481008145788017
63.45748755993667 -151.047149478074 -2.480166220853695
63.520720161413735 -151.00004431124236 -2.4737918856870107
61.97793873590826 -151.90321178756304 -2.538015419582747
62.97356515575205 -151.2324500993526 -2.4906637327516448
63.17187570264379 -151.10771677355265 -2.4716931726311664
63.21035391288162 -151.02866321532844 -2.4810515823753025
63.25374962233971 -150.98980816688604 -2.482585115201257
64.69768210713994 -150.04200833672633 -2.3820763921091537
63.191654746043234 -150.99898597297167 -2.4929740688566486
63.25942580478807 -150.96563334904548 -2.487825478625415
63.66323121552592 -150.60896990589205 -2.4583088523796777
64.76518167995903 -149.9135766274932 -2.386648144236042
61.69741517967074 -151.82493485468524 -2.5280670369592464
61.73770788457245 -151.7960893848964 -2.52045314022299
61.91714889561371 -151.67784777773005 -2.5289867330821605
62.37789219779958 -151.36180028490955 -2.4696098636002892
62.39709297625095 -151.32601752373765 -2.4708133357764615
62.868309282373666 -151.02090314250313 -2.5105068409254545
63.39175631626765 -150.7230112892891 -2.4949548983435803
63.40125169690442 -150.67525791785937 -2.505659213535271
63.479769693654866 -150.6133185359461 -2.4994430925653006
63.61608522368802 -150.5621419460695 -2.480246739104888
63.649975266978515 -150.51818454637342 -2.4437336061794293
61.62722634469608 -151.83100671481435 -2.4588173723694284
61.66908331621574 -151.80092301825115 -2.481283155098909
61.72571828262327 -151.7043280581826 -2.514927905924158
61.81523207509058 -151.65206278109832 -2.5200836964764832
62.321845260042146 -151.33260540254588 -2.490112289419878
62.40746242007438 -151.28531915925788 -2.493329130328595
63.47484381746192 -150.57943278858116 -2.5033508233873745
63.60194115487879 -150.4844761296607 -2.4415569304908766
63.6033780266146 -150.45478560299782 -2.4472908631959625
61.69854537572313 -151.6418979116936 -2.4895516847028545
61.76179447080914 -151.5969000073493 -2.520393577596131
61.87909179158407 -151.49963192785373 -2.532511710228181
61.73321816995014 -151.5209215514252 -2.534053609281503
62.66818927598334 -150.66472258859164 -2.4744265865222426
62.67083095495164 -150.60510278488502 -2.480163975883569
62.704598509547004 -150.53358362108824 -2.4999369840860046
62.67384713698962 -150.48299072264086 -2.483339751532394
62.52125003047236 -150.41098691027688 -2.4599933098149087
62.66966988713927 -150.4035152070836 -2.5079344501122454
63.3805211722449 -149.85292109325005 -2.496432819023619
64.677795029465 -148.9435601002744 -2.396394633868244
62.51896380696201 -150.33815372500547 -2.478155403374036
62.522723718845725 -150.2974809398243 -2.4991225574536857
61.63664295641156 -150.78641104126345 -2.456750997368915
61.66242788657347 -150.79100927916792 -2.444027880870613
62.516230406896945 -150.26414185747154 -2.51410797035772
63.32898511918562 -149.6497249360029 -2.494972879694392
64.016865102745 -149.14914413766405 -2.3854267969203535
61.55686799860369 -150.74130775810946 -2.483522815778111
61.63889666148779 -150.67634515087818 -2.444230802897296
61.6843503312757 -150.6150035065518 -2.519491330601286
63.19455654230485 -149.61026239163243 -2.4942411227023746
63.30962792503188 -149.5769921976048 -2.4950888726206193
64.01061713485686 -149.03466851048617 -2.396707120889813
61.40106728540503 -150.6742773806989 -2.489939519439437
61.52415736075778 -150.68912910354607 -2.519453105337576
61.666566665478335 -150.5914235517828 -2.5177918982251724
63.39444800156995 -149.35429109521615 -2.435190423088168
63.46781764491837 -149.29771176447798 -2.4325430384102935
64.0190141618801 -148.91700541510323 -2.405176203875975
64.15316975031426 -148.86335957838597 -2.381346293252445
64.26297168884452 -148.7137464713731 -2.3861804418452084
63.32691666178374 -149.26311002201336 -2.448919908793107
63.40627035984744 -149.23409136654277 -2.4489735991105555
63.487640194198065 -149.1553995887774 -2.452041168878587
63.992529495752834 -148.84189617400912 -2.4076772777046016
64.26994173529984 -148.65889083455917 -2.384512715257597
64.32220726802144 -148.6213500739412 -2.38554342988879
63.28843330684402 -149.20532292691277 -2.4537762786943094
63.343153877755846 -149.20204059402965 -2.447131992323402
63.49951077779021 -149.01614385828088 -2.4734560862640778
63.963043179098584 -148.7511995464673 -2.4150852552363227
63.982514607408405 -148.66609209998163 -2.414602110373875
63.24221775297863 -149.12217067683233 -2.4828393127942263
63.29459237279901 -149.04171172390377 -2.486274791168015
63.48408675524989 -148.9335254161413 -2.4643435768986515
63.86445199217124 -148.68322074358622 -2.4213050592303174
63.94461024279691 -148.6133294659303 -2.414656087895385
63.2670052397257 -148.99915177768054 -2.477613758781957
63.52858178816215 -148.7863943132606 -2.464874174623551
63.53512491804152 -148.75728939902658 -2.4663049932298016
63.82513547169526 -148.53361282030457 -2.431904653373021
63.91066317008128 -148.54923250733438 -2.430932071012722
63.98789288824446 -148.5230675758993 -2.4319659725429714
63.52959875407669 -148.68596056448987 -2.470840374387654
63.57604341861031 -148.6110410618236 -2.4395398784081457
63.89711865495888 -148.4514598427497 -2.4468121195313475
63.91593875240645 -148.39612537429494 -2.441878273451179
63.54632910347069 -148.56967877751975 -2.446651789276305
63.54408959115291 -148.44841990278994 -2.458141759834522
63.55363633815083 -148.411189793351 -2.4563620976173737
63.56440144917189 -148.24611523806223 -2.4539630848310363
63.026650797741766 -148.16031389481842 -2.484364299709202
63.00380436954812 -148.06000647334724 -2.4736262889898764
63.03965930514551 -148.0450646124719 -2.483507117684289
63.18843382173527 -147.96984355279596 -2.4297000108728337
63.21842778540941 -147.86807367883227 -2.4306243740252294
63.27374887020698 -147.82703944688475 -2.439724576558559
60.37297570995481 -149.68069908148829 -2.47455601201051
60.41289703004144 -149.69790696895714 -2.468431147011607
62.038649425901994 -148.56019836385622 -2.45229659509957
62.0637813246704 -148.56525441620752 -2.449173849725803
62.71770692166086 -148.07465922046336 -2.4552876072757224
62.81680418373794 -148.0119759977101 -2.4702967232923347
62.95260183566155 -147.97003011340874 -2.4630212420643476
62.95074803504578 -147.91211937512236 -2.444486770285596
63.19607207779074 -147.80500093681468 -2.4393575185198397
63.26159430568611 -147.7469501125977 -2.445867931238163
60.36452823510137 -149.6117691332736 -2.466939547106225
62.01915898437058 -148.4530419155398 -2.450621173075023
62.717857320079986 -148.0104120181457 -2.4549456316561553
62.80291190601971 -147.9784692812835 -2.4846935582110548
62.86306244036403 -147.8995081595542 -2.4640912447063354
62.929896693330974 -147.83361435798244 -2.456507218075848
63.26519718516201 -147.69107326082892 -2.424653710661034
63.28388228011489 -147.6350764399576 -2.4382453497841072
60.26853463067925 -149.61133104890973 -2.4936695469805636
60.33431700133018 -149.5040562385629 -2.4902455486820037
62.219976841886364 -148.26151310072083 -2.4375289780472333
62.739026194750686 -147.91909431809165 -2.473196024331651
62.80883940579843 -147.86845748074404 -2.464037341765235
62.89422777469592 -147.80987332901677 -2.4630412899649152
63.17032839296915 -147.59082989922254 -2.4461014280773314
63.207488410018414 -147.54119882865024 -2.448637488861645
60.104782466190755 -149.50808071533808 -2.4775322762297827
60.25495691691534 -149.44254610379403 -2.4803705106304754
62.21112858892778 -148.15158983884396 -2.4514561610823513
62.69605012667873 -147.7850593141856 -2.449831657043622
62.75001428245355 -147.6903560757932 -2.4379580823058964
63.29409247622743 -147.42363032335027 -2.431122360246895
63.32386486589517 -147.2995056168536 -2.4399822632702763
60.06607077577689 -149.4881962004742 -2.5047931495106766
60.23863351992266 -149.3273221964587 -2.5141217909215046
62.2366420094765 -147.9893463145738 -2.450085573160571
62.7089225637672 -147.6374961898401 -2.447785581977694
62.91145291116313 -147.53794231345506 -2.4774799710178956
63.216865047293545 -147.32261470632199 -2.456284388053648
63.26000870826377 -147.2257224088096 -2.426727463423294
64.11918541018963 -156.5432754641626 -2.439147307989816
63.71111590712986 -156.66010815699556 -2.4287186061723927
63.73471447384099 -156.62960640406175 -2.4310253347271997
63.67970384620289 -156.57303737312776 -2.4342031875121326
63.83366287853037 -156.42402688192078 -2.408121610308343
63.959533964348644 -156.35901237395458 -2.421090643822488
64.0147497616789 -156.34484380591607 -2.4271506521503996
63.61908476631343 -156.506758724836 -2.456909716784845
63.65726642453674 -156.4704376435659 -2.437513370646601
63.760883855732786 -156.37911847771716 -2.3984999744524798
63.8314097774153 -156.3310844537028 -2.397015421268109
63.923010963558774 -156.3105431962976 -2.4172800670003736
64.0085507503888 -156.2522837154755 -2.415479498742826
63.627195881930234 -156.41061922906098 -2.433684398914768
63.681781621189806 -156.33571568620184 -2.405392987387098
63.75883606021711 -156.28584654527512 -2.3957232080404713
63.85550704062917 -156.2200056987974 -2.393688318536415
63.932488410424135 -156.20972577738087 -2.4055740352757837
63.561718953304286 -156.2697356589887 -2.446616038628882
63.82945714268209 -156.1307417578096 -2.373247790166791
63.546069181894424 -156.20033376451096 -2.42818388760777
63.7262898830448 -156.0725198618258 -2.3760584494216994
66.17690118067156 -153.02432003876754 -2.2997877064957235
66.30092531476781 -152.91483385043148 -2.2892605019228016
66.13895363945858 -152.9876716718902 -2.301036436956052
66.20894402477384 -152.89307683779808 -2.298238154254349
66.24578175542064 -152.8878148280391 -2.3103599118986304
66.02865549598728 -152.8740982816566 -2.314318080040157
66.11962372732991 -152.8446941227419 -2.3178809132181644
66.01846522701733 -152.81686986094792 -2.3132275694472093
65.8444507560793 -152.76401240570542 -2.307332284841221
65.14107237614627 -153.12859341729532 -2.3916899981784474
65.73015506853986 -152.70351641053017 -2.34174925668509
65.79578025570211 -152.7087694399538 -2.3476132983025653
65.035348305286 -153.11603843215593 -2.373244215450165
65.09365106775157 -153.10970087681343 -2.389323629580363
65.59733170913627 -152.6684509805514 -2.3319824786592327
65.66040268616962 -152.68137738094006 -2.340904776927934
64.93485173118917 -153.09483173020575 -2.3764698518834777
64.67675971841321 -153.0467362334587 -2.4013334945178415
65.5561641728369 -152.4821061944567 -2.386882528588657
65.65121772239401 -152.40779491692524 -2.359776050733666
65.68765886019938 -152.39762290927723 -2.337509545344423
65.47473244850909 -152.4560086833336 -2.379901017566091
65.58446234641788 -152.360984042253 -2.3445240332346877
65.67955875584974 -152.23358977996043 -2.372151271354571
65.97361438245774 -152.05183116304175 -2.351030753715295
66.0409702605649 -152.04785405826837 -2.3521338521484667
65.50784010012153 -152.2648835339923 -2.3693010462171484
65.58662957866972 -152.2450743952149 -2.3672733642815196
65.6741868225204 -152.1400055573506 -2.38236051535843
65.76493629166902 -152.07529811180055 -2.3737195927769763
65.84420059327518 -152.06876144888213 -2.369089677347466
65.9022214425399 -152.04137041479618 -2.357915667786078
65.48648943736501 -152.17632728540013 -2.37285113393384
65.53548031414059 -152.13541116817123 -2.366334776388619
65.62115472733993 -152.081696260529 -2.375323452482033
65.41396554439905 -152.13265469047352 -2.3573095667504873
65.52959494248755 -152.07235303714873 -2.3750272221727764
65.0564600800001 -152.18895971273682 -2.3968805261134425
64.22791270453764 -152.6270686719084 -2.4098828410237343
64.46807836757968 -152.33607202180997 -2.3985674050482886
64.45106827589201 -152.3160916727511 -2.4006712325012556
64.44533228642639 -152.13829840560544 -2.394537788369502
66.01201386348548 -151.03985208340174 -2.3558058183309565
66.06168096493379 -151.01434974879078 -2.360207784635134
65.90705774142643 -151.01554381683266 -2.345687236539727
65.99532395632615 -150.9949061772004 -2.358473209641887
65.2299156983674 -151.27534945091512 -2.343182815117007
65.27533919745326 -151.2522168722326 -2.339406962986324
65.35074101694795 -151.19814377802882 -2.31952767389913
67.08633078243257 -149.9452449353624 -2.266898363651744
67.13956703211198 -149.90304171799866 -2.264180970588343
64.0279645963377 -151.98322438854072 -2.3852999390092986
65.6381165500627 -150.82212036799336 -2.3748009248232136
65.66996302292407 -150.79355772899754 -2.3738576452901805
66.81185177331155 -150.06312072020455 -2.2764180676554937
66.89846961662585 -150.00421572949566 -2.273009422583833
66.93347421843654 -150.00015878998457 -2.273335606309404
65.16486937734038 -151.0063266915297 -2.3449735380512378
65.24759099447904 -150.96651203876232 -2.3603353554886493
65.315151318678 -150.9359384433634 -2.362240025372383
65.42039965625497 -150.88904773108194 -2.3667505277556815
65.50857816730277 -150.83041870078873 -2.365276237880554
65.56108902862276 -150.7868527227581 -2.362896093028283
65.63449799748227 -150.74392024415403 -2.371524267651762
65.12486026970815 -150.97177772364893 -2.3477398078621223
65.23069160219418 -150.92362193488015 -2.368026604948406
65.50676868898665 -150.76330458459978 -2.3753843722030332
63.93252283801899 -151.6849502334906 -2.4066049237542524
64.04300299858598 -151.53752738190653 -2.3763675611540918
64.91781981773825 -150.9796474419827 -2.3657706983816107
64.96395214650829 -150.95718149132193 -2.3620438322834425
65.03005911304446 -150.92012465649182 -2.3468360781658477
65.42316952560955 -150.5852237413741 -2.328648043578883
65.54821076238458 -150.4953181319052 -2.336075597116053
65.76528991179568 -150.35599725668436 -2.315715375114957
63.94026818691846 -151.5017117857731 -2.3298038974517574
63.99331579776953 -151.50477395858252 -2.3569659066125093
64.02912146044419 -151.4345031364039 -2.3728505568530216
64.86920929121312 -150.91177223714553 -2.3842647813746556
64.85375964376466 -150.8549149254169 -2.3760094021582963
65.34352572291773 -150.57372623895435 -2.344083734303438
65.42645858404356 -150.54490780877984 -2.350127597592439
65.48045563304568 -150.46210177439065 -2.3473732592964427
65.68155358222178 -150.3900479048745 -2.324314190460055
65.79042668973004 -150.31113666649173 -2.3306331410219654
65.78604631310486 -150.22871112501676 -2.3147812094303446
65.90274627311986 -150.17736578488913 -2.3379390301927967
65.95330342827684 -150.13084812456606 -2.334572894566988
63.867091374865 -151.48314214210092 -2.3298908481545473
63.99700377453303 -151.4318532482467 -2.403633751062278
65.5128258578811 -150.31171512390736 -2.2962164302534167
65.57907027439742 -150.29756471162077 -2.294818334454185
65.69151922082331 -150.23288375629915 -2.310449843278595
65.80324351363112 -150.1801334897562 -2.316439973978931
65.87547027198475 -150.128775814581 -2.3177193028126615
65.94481227893216 -150.04984924538232 -2.3289656362590874
63.84082983631424 -151.37764059891822 -2.354173418312011
63.85908793409163 -151.36153117788402 -2.344120952264385
65.55199872475103 -150.22677782683743 -2.3118252979459655
65.62245934010619 -150.1307028388165 -2.3222683433115496
65.6689188517708 -150.08974886224973 -2.313440216067407
64.578434625956 -150.3354953063329 -2.3628245101308876
64.60484489717264 -150.30601672630684 -2.3697015003639788
64.55901876223453 -150.29673277100466 -2.3521811823528274
64.59715161270921 -150.2410824600639 -2.3645475525439705
64.63852988232284 -150.1647172757343 -2.3777029970315544
64.58353282591374 -150.1652394649163 -2.334174418686093
64.64609291407515 -150.11641141149158 -2.3643526355832067
64.69183110186638 -150.02406604564726 -2.370503736483982
64.56001468818187 -150.0006924944915 -2.299108147005156
64.66202021803137 -149.94743198332253 -2.326401821608619
64.72506720218755 -149.90523881155883 -2.355518008127802
64.55872873500392 -149.9545471089125 -2.305149914015072
64.57148565552009 -149.904669773986 -2.3114988886594974
64.69812942355021 -149.84065273084076 -2.325387144491744
64.74560619819155 -149.8016995183865 -2.339884865447172
61.59949556552887 -151.83620158681947 -2.4002337379829526
61.66058216799254 -151.78083491642664 -2.383685775428645
61.692632208108826 -151.73935893823415 -2.4166661093348987
64.48879892131566 -149.8572249086907 -2.3266137270432967
64.53911434314719 -149.77897682995254 -2.334038699705974
64.59521361512536 -149.7463850685542 -2.339224281789346
64.64644943386799 -149.67218499775194 -2.3452528952669693
61.68400671658105 -151.61841780638142 -2.374506607888973
64.3339438923021 -149.8283784401745 -2.2917780687954763
64.483735830811 -149.65656565359893 -2.302496111361383
64.53677790434422 -149.65790365398718 -2.3353177469822666
64.3431377862853 -149.6424599680645 -2.3263276823668178
64.4440642102022 -149.64609892055577 -2.31703898418536
64.50679391354277 -149.56052847784375 -2.327080982569308
64.57532637809666 -149.46625317315133 -2.3382396022591747
64.64836914376471 -149.48351586987715 -2.370224157804601
64.32857944974371 -149.59509177328445 -2.3260500732757925
64.38559071526431 -149.54781158061922 -2.3329683890436446
64.4124732029447 -149.51303854413564 -2.336669440408793
64.50965787936974 -149.45122173164563 -2.3347280869517935
64.5876612837723 -149.36773545443722 -2.3473277610782413
62.67682236537155 -150.5972944333189 -2.3873564665982316
64.42483631178537 -149.43672031919442 -2.352291005819151
64.48622837005735 -149.3407080547837 -2.3490326983497596
64.5751299551152 -149.28241742732115 -2.3630536830005244
64.61362604599191 -149.2670827797688 -2.3601992998962427
64.40891761957636 -149.3257580141077 -2.356275574240549
64.67981926549712 -149.1099472222066 -2.372190781353469
64.3846365252352 -149.19727759524181 -2.345089907290948
64.41304380469448 -149.11745627281357 -2.34406070571413
64.03855573073683 -149.267559921551 -2.3579950625722215
64.27836286850909 -149.10123622183184 -2.3341364780168217
64.39462764283999 -149.022855161734 -2.345388219187538
64.42076008524955 -148.99674690678128 -2.3542662441902187
61.70750204913306 -150.79283568899416 -2.427255005461433
64.03462308430306 -149.19941773993014 -2.357327290002145
64.0630779840466 -149.13943413728813 -2.3684716060375055
64.13859096765808 -149.06825226719982 -2.3689203747993792
64.27350921680846 -149.05825994450797 -2.3388761107351175
64.33557230743692 -148.96541548962102 -2.3380643478242487
61.66960360608578 -150.69126360018726 -2.422817425228151
64.04563317371438 -149.07004912600172 -2.3742509478563516
64.13426566952512 -149.01332242065024 -2.3692805831357493
64.18725998327675 -148.95908599954956 -2.370178139173284
64.27191232143818 -148.87956709375953 -2.363574903105209
64.18408735384968 -148.87307803924134 -2.3739423148915946
64.2671048385699 -148.80266935547786 -2.3722285854105696
64.30673929755116 -148.7808151733745 -2.3691964397970526
64.23022270784828 -148.4147178034614 -2.3242981386594024
64.32427561305894 -148.3632045433361 -2.3181608392280806
64.34367889230873 -148.29844724607543 -2.309213838978646
64.24224210446124 -148.3043666105681 -2.3126297112384573
64.32894991678901 -148.2822125570795 -2.3415469397419857
64.3869364406121 -148.17115929277338 -2.2846018711237717
64.22809257491727 -148.2244475742502 -2.3001017490994813
64.2547599501517 -148.16883385281454 -2.31345081090978
64.36072394337415 -148.05609982035293 -2.363334968400376
64.40706023924405 -148.10130975094728 -2.2988376255854313
64.21734787578488 -148.04167663940427 -2.344268962568636
64.21209844719974 -147.97031286762345 -2.3332239471215535
60.16211885147711 -149.48393910280012 -2.3586840743131425
60.082978075798884 -149.42932844280318 -2.3605933452965426
60.12130012293071 -149.42984380639965 -2.357667520697324
64.30768470394433 -156.34575837821816 -2.299409066014842
64.30870291573497 -156.2925387481301 -2.294600873547787
64.33148306539623 -156.22449807486825 -2.2893345885683214
64.29636211344273 -156.14703197994493 -2.2808344060857473
64.27119030939235 -156.02125798016078 -2.26833982591016
66.17668356036431 -152.98410604356962 -2.259115473022642
66.22652949589593 -152.98877596095937 -2.2650773630269465
66.28271674907027 -152.93582440315652 -2.2759431337940703
66.64987722715648 -152.65051389719156 -2.2762280540284516
66.18634748370158 -152.9414611658357 -2.266217716734181
66.53451908350351 -152.63146493675717 -2.275806286677031
66.39983502430366 -152.5954360947331 -2.274932724303274
66.25563002011457 -152.57045534216564 -2.2685606803485405
65.96533066658212 -152.5539777602423 -2.2635117859160423
66.03701658352375 -152.53564471643955 -2.2494362444200164
65.88769391308033 -152.5027678781433 -2.2392021396773476
66.03680226240455 -152.41211164991054 -2.218050892913631
65.78643206227099 -152.42562597865447 -2.217982265252061
65.82722779664155 -152.4237468736162 -2.2113543698526326
65.71023175347693 -152.34467215427128 -2.2658003309081516
65.77096695895334 -152.32110888731404 -2.2249565702093586
65.82975935614584 -152.26857280904775 -2.229080389363164
65.57859597557204 -152.33880569011308 -2.291930810196078
65.6550362682992 -152.3158011570428 -2.267241165199574
65.73690571396862 -152.28363414422867 -2.229975413134827
67.10435292573881 -149.9499181976492 -2.2180450598569
67.1627981903437 -149.91795523311694 -2.2016275318300713
67.22599481952128 -149.8970747592158 -2.184894997739266
67.32992259272439 -149.87334333543575 -2.160695916320241
67.19874686052765 -149.84181286598815 -2.173714474627877
67.27732069217345 -149.7786234285802 -2.183295200566694
63.93169079646063 -151.48501885794786 -2.304539273780545
63.867983082857926 -151.462176012688 -2.299301200849391
63.969024069365226 -151.42543212363876 -2.289160012742566
63.99916924123747 -151.39698788416646 -2.2831885524220734
61.57102864662187 -151.84550720665084 -2.2836648478894497
61.648271606455445 -151.78346848429177 -2.296405615764886
61.694796822182646 -151.70490866882398 -2.2561603654371254
61.669679083750665 -151.63896217241813 -2.2922971518317894
64.32129443017587 -149.8657587445121 -2.279970411882279
64.37827552288596 -148.16779187336832 -2.24347546815509
64.26604770960199 -148.1659616517718 -2.2638880679274678
64.34992916195564 -148.12200581753257 -2.2322871257276895
64.41921629014197 -148.0930204095001 -2.265444876803748
64.32173447901887 -148.03664391625213 -2.224015806580958
64.3293284399533 -147.9819191920164 -2.208980510313246
64.28098080368592 -147.95753434628475 -2.1974338972324583
64.30621152739853 -147.91891518559672 -2.204758525957281
65.7965768216784 -152.29733147529114 -2.1843017193900565
67.39827602050005 -149.85041488974707 -2.095460067306327
67.4507182194432 -149.8204207710324 -2.0732160930475114
67.22229768109932 -149.93065166903918 -2.113781046175288
67.29441449827287 -149.8920940651385 -2.142106189818228
67.37440068308823 -149.7454578730806 -2.094531194643471
61.462182097825355 -151.89701747567628 -2.2187001190080475
61.58549342206746 -151.8238869121418 -2.217264698969087
61.62880284693832 -151.7756558311258 -2.196154856666861
61.688077523532165 -151.70746457128433 -2.223315629454552
61.65171755521598 -151.65263921541376 -2.2043559862920845
64.42234443452966 -148.01528622767256 -2.0665649090804337
61.61435284572245 -151.78868563707704 -2.1418421574064666
61.63644333421941 -151.67896666050632 -2.0619612568227463
61.6514643796539 -151.67093567795462 -2.099904258080613
61.61948380319856 -151.59939994150045 -2.1013072737843763
64.39400179927918 -148.1294074952939 -2.0088225872358736
64.38670333643611 -148.04125225359346 -1.978656009769685
64.41783051681503 -147.98056407230976 -1.9838212197693919
64.44763177283129 -147.9394814633248 -1.9802357279596559
64.27110295143451 -147.8686802150797 -1.9839687309161105
61.6371081031151 -151.7351730055977 -2.0012507124538996
61.630013615457116 -151.70082127307163 -1.983214975234529
61.630231497970314 -151.64538725354592 -1.995468327376356
61.611726516035546 -151.61719683628462 -2.0289550543787267
64.34923521356697 -148.26505657704115 -1.9351707427526101
64.38207207426099 -148.1768437124142 -1.9287603885922895
64.38866475024128 -148.13302731319547 -1.9045038501295568
64.42679120254073 -148.0278271093837 -1.9035482729465345
64.46226924483092 -148.00793987732604 -1.8792924987206723
64.44140488537595 -147.94558793916437 -1.8714900002156736
64.28021253045756 -147.80309504699284 -1.8747693755079915
61.60436923676285 -151.8225217610163 -1.8604161911718256
61.628213389219596 -151.79018105181547 -1.884199301463539
61.611070702594674 -151.7058325272952 -1.9062550129742188
61.6389631602362 -151.68323429060717 -1.9348505236132427
64.2889173349195 -147.76635380310964 -1.8385878320637106
67.73089798973277 -149.56964292000026 -1.681791113031546
61.602435608510255 -151.8247260879575 -1.8348085092616526
61.62275090899225 -151.77885497848962 -1.7883819214260794
61.61110149872061 -151.7307894081917 -1.8073624165857054
61.604536587831674 -151.85995451325317 -1.6588596406933531
61.61407952729273 -151.77253679960882 -1.704049451606812
67.67682979314033 -149.5156802548644 -1.4431309893144695
61.606560848932524 -151.76943492465776 -1.6405137793163613
64.28525818469106 -147.97092649171356 -1.4870439018217891
64.29379115723209 -147.9265622605427 -1.4826147425397207
67.46128831670411 -149.98488971839112 -1.3552173948468988
67.49793629526425 -149.96743371922076 -1.364956192352552
67.5788203411072 -149.92767988078418 -1.369353150944216
67.80102374931515 -149.44110348910533 -1.3976489611770204
67.694829466171 -149.47095605963344 -1.3927320026753396
67.7957518046098 -149.41153362511457 -1.3670472026396476
64.29379148440752 -148.00365247091312 -1.4445905311032448
64.3025113663525 -147.959161038357 -1.43964837803949
64.33235887203459 -147.71754533362753 -1.4098969573992448
64.32354132403218 -147.67997719874162 -1.4549594264534211
64.34676326576223 -147.64235103952922 -1.4015875833232385
67.4632382457487 -150.02729755867588 -1.244458505105075
67.57165389790573 -149.95970133490906 -1.2742142044020242
67.59923978340385 -149.94933063477936 -1.3147728859076229
67.39141215717677 -150.0348375752696 -1.3329445034902272
67.4607011636404 -150.00578349498772 -1.32198550967599
67.52553823338754 -149.9745909513609 -1.2901348200321288
67.35186466766135 -149.63426838965785 -1.3200780502016758
67.39632959598103 -149.606722382357 -1.299342285072374
67.51020441340765 -149.53827131746522 -1.3112905901314287
67.59135070731541 -149.4893242548742 -1.3145380981786605
67.68381440459842 -149.41460864483864 -1.2973683781125904
67.77280177138616 -149.397885719762 -1.301115560417597
67.81261655300713 -149.37461789761747 -1.319381807429353
67.04234414294756 -149.74340781791184 -1.2779461454426335
67.24073065107065 -149.6853385670886 -1.3259839893216592
67.3257793333048 -149.61577103949398 -1.28859044290853
67.4118899160545 -149.52798301829475 -1.2532551779605892
67.4455128366274 -149.54176030634042 -1.2698015667714189
64.95486396886828 -148.66623785952794 -1.3199919075187014
64.9996913328326 -148.5396018659804 -1.3335957064978443
65.0380184045299 -148.46303950680388 -1.300088635921012
64.32987102353194 -147.9047361984753 -1.274462934994831
64.35165316186186 -147.77016535551746 -1.2700916021233657
64.36505004747107 -147.67635228094713 -1.2725211078233116
67.47028369364668 -150.03957997038512 -1.225852970655017
67.51748935313275 -150.01530873625686 -1.2036187376432939
67.62948279344458 -149.94626905121658 -1.2322772959620294
67.73098228472317 -149.91254292548484 -1.192438522974076
67.83826608077368 -149.87629636896008 -1.1454429083591453
67.45886295306366 -149.49817325281757 -1.231392692742014
67.56117037256347 -149.46071919125774 -1.2240275725133838
67.7036743639251 -149.3625829667127 -1.1798482437204774
65.00414885138191 -148.58551597897656 -1.2516676265529325
65.05467507303035 -148.47744618815105 -1.2176566469067682
65.09186564528157 -148.40055476541934 -1.1888428792435635
65.10836118965562 -148.335567290136 -1.2200225675845193
65.15483631868702 -148.21848153123113 -1.2139061387620456
64.34361044225712 -147.93429934813693 -1.2186834342357913
64.34424901751291 -147.89493165974096 -1.2349667198790206
67.8502273444562 -149.86800485802226 -1.1124808115489668
67.62215474048965 -149.3579629944984 -1.1082941198436898
67.76618735450909 -149.26601880432779 -1.0660527942189129
65.09413586957236 -148.433906617895 -1.067397829810027
65.17217181353223 -148.25989298446348 -1.1181045419379694
65.19377780033012 -148.22137256175495 -1.065017493551645
65.42890924501351 -148.0962573937065 -1.1053186813699105
65.4448473272358 -148.05512796588118 -1.113002192908442
65.5122575358745 -147.9665981716148 -1.0817637669213243
65.24316331974931 -147.93229584341424 -1.142234406279857
64.37028873964987 -147.84922926680153 -1.1317731001882554
64.37992390432518 -147.71392875812808 -1.0994072498834608
64.3939651025147 -147.61883418990035 -1.0979474636485111
65.37066086209519 -149.46731108104552 -0.9671476479420723
65.2367299836101 -148.13319059454005 -1.0308559028608124
65.3060601510955 -147.94186768913917 -0.9709687657246795
64.34683336991513 -147.91656823326795 -1.0605043237453868
64.3766621050621 -147.81917699431662 -1.010886044826676
64.3803713371275 -147.77713456413989 -1.0172721154884683
64.3921433249295 -147.6446406411318 -1.0371467613662024
64.39626641685626 -147.5983644526577 -1.0440536308205743
67.3663759069989 -150.05344707666902 -0.9063640339692178
67.43385149965991 -150.00310567821379 -0.8726208331273841
67.47987436356514 -149.97518714328854 -0.8859602808234661
65.4341912574527 -149.3628351823032 -0.8765665803778158
65.43239019326892 -149.3093468813005 -0.8656236919367697
64.38459086414085 -147.7958864465167 -0.9440919213252327
64.3903399246504 -147.7319096255949 -0.9526324935233749
67.46813345919776 -149.97566816611806 -0.8163108010906717
67.48993600718782 -149.9658823424463 -0.7903609467914414
65.45921980636014 -149.29273978005466 -0.859988256608917
67.49768922533761 -149.87062384225416 -0.6989267727916404
67.52389241260113 -149.8546017412858 -0.6587644292975969
67.63869089641116 -149.79206162021083 -0.5973246073370662
67.57577017726038 -149.7921527269487 -0.6161961959366777
67.62167939130661 -149.7836264678556 -0.5924263417535891
67.34306024201447 -149.83365742723365 -0.592593501010175
67.38537357552023 -149.8093175805328 -0.5662529825764921
67.86784547472402 -149.52414508883638 -0.44712735545518734
67.43285152851772 -149.78139771802785 -0.5256792921704718
67.5153034606008 -149.73454763071317 -0.48481321908501096
64.42858853717358 -147.79600003052244 -0.5088818982229473
64.45516828529264 -147.64045526687522 -0.4801327160461111
64.46923605178524 -147.50519164670746 -0.4819678799020466
68.17495079773005 -149.35046915145153 -0.33161142905299656
64.49015227090327 -147.51556447904636 -0.36468705532781054
64.48619518431363 -147.44969357313803 -0.4495321409174682
64.92819621046446 -147.67374965433947 -0.3113675739355801
64.50649911865962 -147.41716062551714 -0.3467210693625542
64.52362124074396 -147.31412182004118 -0.3278927735577437
71.90267306479973 -168.13125899678417 -2.167267464187499
71.40656691966461 -169.61993544433804 -2.231727926181049
71.59997858857571 -168.83577476299752 -2.1991083414964283
71.62741481775656 -168.6187315655031 -2.190680138428578
71.69695144096188 -168.60924248198972 -2.189048675715195
71.81287678396623 -168.16048659688653 -2.1701642025923884
71.70332664467594 -168.0882839062841 -2.1702255173665046
71.52916920494316 -168.56622824671143 -2.1912209129722937
71.60376286967278 -168.0332104801996 -2.1702076167570556
71.4813050303138 -168.06723623076144 -2.1741297026572837
71.22469798403932 -168.2439849901432 -2.1864200311084496
70.96553849215064 -169.15854039446506 -2.2252749456263574
71.11140973514073 -168.30135607538068 -2.1910053232230657
71.15133390374501 -168.24093533510379 -2.1877062365063824
70.78364134855947 -169.2226508186902 -2.2315117310060057
70.98104590904452 -168.45521906901158 -2.19925797528162
71.02089451569445 -168.39776338557905 -2.196516174420197
70.40226746040723 -167.8149430887774 -2.189210859827152
70.3965358714097 -167.6605340226878 -2.1839833593667684
70.20495215074428 -167.67545183655258 -2.188649602738086
69.94902888452783 -167.9662470676293 -2.205075515342528
70.18009839044679 -166.57397135850687 -2.1493908711980616
69.76421544615594 -166.85704152108616 -2.1692606279387943
69.37500096841259 -167.50666856055588 -2.201672953160373
69.49779059572985 -167.07892854524658 -2.1834448385198635
71.74459593550782 -158.25200856297545 -2.2020502103792476
71.73655985993544 -158.11770950249095 -2.1955291855356083
71.78703163600672 -157.9352346243166 -2.187541660001733
71.8133371371382 -157.90909003807562 -2.1867565318588613
71.83113762823184 -157.77219168055828 -2.180610806863494
71.94222559311665 -157.28540916234078 -2.1602942943315546
72.02126343333863 -157.10545401690857 -2.1537775278980713
72.02805741227343 -157.0120448923369 -2.1498769282632875
72.10480035318476 -156.64371164239134 -2.1357561638269806
71.573766547101 -158.33304940643202 -2.204094936957884
71.58514043767022 -158.25252762902753 -2.2001260438114922
71.69073902261773 -158.1285456485894 -2.195345966342075
71.69366477705142 -157.91770538330354 -2.18539614749546
71.77934268387902 -157.8022601760884 -2.1812516937803332
71.79507153084504 -157.52412488847983 -2.1686272413619045
71.83110710861409 -157.42366067066155 -2.164704964579137
71.83899058383628 -157.3661041778864 -2.1622243086216097
71.89400240865498 -157.29784667062572 -2.1601037499357103
71.92432252581305 -157.21477464163235 -2.1569110237389046
72.03569646519821 -156.81899019469753 -2.1418325401661016
72.04831348143628 -156.7487038630343 -2.1391136578316505
71.40681526832458 -158.7993249501431 -2.2265230514471686
71.40080894968102 -158.7008574937359 -2.221249641194039
71.4183369408243 -158.60011783406472 -2.216118967716292
71.45185540816578 -158.46968924711967 -2.2097069479852633
71.47721676360858 -158.39757429111881 -2.20626959737204
71.53408150229612 -158.37159830210135 -2.2055223093142002
71.56227864586035 -158.1273130670772 -2.1936064294087334
71.67741121952567 -157.78019842341334 -2.1786380814494146
71.67514893416839 -157.6140840514853 -2.1708870204032547
71.72990345711433 -157.5453357113411 -2.16860230783633
71.80269503180142 -157.28463559449833 -2.1579738121940735
71.88227136482008 -156.8386775490477 -2.1399471560568877
71.90240487878889 -156.75240913472516 -2.1366349738430825
71.39151559297896 -158.49257731548315 -2.2102847633241813
71.64240142215776 -157.55281298563733 -2.1676129587878306
71.6097863988793 -157.3348928740641 -2.1571134104058665
69.07755396057041 -166.93288153986586 -2.187899261965085
71.55983305709206 -157.34489860816544 -2.156822749408187
68.4981792592303 -167.77263888377058 -2.2321689034724876
70.66148351003724 -158.90377564428536 -2.2250555760520907
70.96758143765028 -157.54526658081028 -2.1571560554927602
70.98809071867497 -157.4995649807889 -2.1552545300244113
70.060916326547 -152.2714766515067 -2.202900413081937
70.12998744219313 -152.12437193724443 -2.204629364598499
69.89996520198524 -152.6519669454805 -2.2007776521438167
69.26134847907207 -154.4360259801804 -2.2253340661430103
69.35811789069882 -154.14536131811005 -2.2176575725510768
69.95468158248238 -151.9874554497663 -2.192483558038705
69.24364120664647 -154.2252200294917 -2.2148560108230617
69.28385264768491 -154.18226258180243 -2.21518212402316
69.26525271259545 -153.9684901370206 -2.205167852070061
69.58526342203146 -152.70544338536635 -2.1835694048084204
69.86355208239894 -151.8977706589958 -2.186059719162687
69.83693667165973 -151.71088195141482 -2.182562180942826
69.0328073733105 -154.78284719553224 -2.23034773939065
69.18971283304768 -153.9932587982949 -2.202015336155867
69.24151335580946 -153.89319105700793 -2.2008549318871564
69.4470519509401 -153.0747214231541 -2.1848868284054412
69.5675698495092 -152.41016267009866 -2.1764706983421975
69.63762513668942 -152.3885257027869 -2.1801547163322006
69.7912890946601 -151.78592209678922 -2.1806138267949358
69.84443651223725 -151.66344571702882 -2.1825774027867193
69.83209876733632 -151.64110721791207 -2.1816595163916053
68.88582821574587 -154.85335249186798 -2.226534773297353
69.03534878361089 -154.2227407648226 -2.203398934912906
69.12641128016762 -154.02254911159423 -2.1997146244741455
69.12005560134482 -153.75106945474496 -2.188512508937439
69.43962624541281 -152.6417283217456 -2.173666084293456
69.43410573307388 -152.4981420267785 -2.170351124486702
69.54281549910463 -152.2081131078044 -2.1715424829973364
69.08954220738583 -153.8097899788798 -2.189094941331288
69.09172362318449 -153.72332445911564 -2.185891590182611
69.27173505818095 -152.73030312073868 -2.1658489231847566
69.40688376130568 -152.54077426269046 -2.1696177083278307
69.62261960680337 -151.40728895574756 -2.168023949467127
69.66422848311812 -151.36730036814052 -2.1702334926531957
68.56030596918073 -155.2005557210054 -2.2299444801361035
68.62361083095831 -155.07665629128186 -2.225766109398175
68.72590115666267 -154.7959611041631 -2.2152928166690553
68.95068514992289 -153.7973872084255 -2.1808328541437554
69.11236231584557 -153.01413718436464 -2.16380302503184
69.30831246328444 -152.55925175760774 -2.1642177794102744
69.58796050055295 -151.29798266546945 -2.1655789074070686
68.5417855556236 -154.85186389636002 -2.2090518473943472
68.57332625888543 -154.81974562261468 -2.208850631991128
68.93867803906522 -153.47455963421507 -2.1682101936925173
68.99399660407694 -153.06347756325886 -2.1583585695747387
69.17802499396285 -152.5120366525686 -2.1556361330137306
69.5219508520671 -151.24083937869034 -2.1616438099715882
68.34220234537626 -155.26415650406554 -2.223371666848039
68.44103018563585 -155.00918873736526 -2.2129602503552963
68.44216452642681 -154.85147217689655 -2.204025066279894
68.51265413692316 -154.75769340514356 -2.20242205626212
68.89846420737678 -152.9691774918807 -2.1501930839757533
68.95612284406337 -152.9554163316004 -2.1531420810761097
69.01160316479366 -152.83630477003715 -2.1532606114805346
69.13070236057663 -152.3630530353753 -2.150048004788264
69.4086375080523 -151.15692659928612 -2.155024724669349
69.41832748538671 -151.06530924608452 -2.1555533240941767
69.42646127221457 -150.99539356071517 -2.156059146988091
68.30266697341693 -155.07772108359111 -2.2102621586432867
68.40281445201803 -154.85540510792077 -2.2023136842305213
68.42683853647092 -154.64315353510003 -2.1919135800401577
68.59914650881474 -154.12543283088954 -2.1753979244236503
69.07931215634203 -151.94706019691742 -2.1408684954555666
69.32909988125668 -151.1390733305304 -2.1504828570427135
69.3526350748832 -151.07755447901306 -2.151811607075915
69.3618353040555 -150.95153608360317 -2.1524761096217553
69.34627977437124 -150.87368207802524 -2.1517964906138416
68.25608232276457 -154.8290490567107 -2.193521639040226
68.32560919996986 -154.55517438427296 -2.1820730678147666
68.76355244137633 -152.8958389290668 -2.140376443342525
69.29167453543417 -150.9211892910917 -2.1485932358850146
69.31020179694875 -150.82560050201698 -2.149938039650438
69.28315366444896 -150.71791539597626 -2.1489159842181538
68.18602528111714 -154.7953120893977 -2.188169726503893
68.31294328612647 -154.17427046018386 -2.1623212374629306
68.34644538973889 -154.14483931277536 -2.1627228336999744
68.55644794177284 -153.15428270180377 -2.1358191775628126
68.64173776150719 -153.07895812543296 -2.138445687255791
68.66034166736142 -152.90504349332537 -2.13464851734637
69.14851778787911 -150.82009751423948 -2.140916063526009
69.22623307355873 -150.6874486220575 -2.1459314639907277
69.20447918497818 -150.61267018106847 -2.1452127666684384
67.87149800230833 -155.67037148023294 -2.228991123983483
69.0939827713474 -150.7999990255067 -2.1379613075314046
69.13385158553974 -150.55308477156862 -2.1417716207808692
68.12886511679761 -154.17898139197786 -2.152751586504854
68.16032920602703 -153.90497447226676 -2.1417250627863367
68.33359159642437 -153.52863114164848 -2.1359334362176283
69.06591167719002 -150.52764813996404 -2.1382611047731155
69.0454505874843 -150.48821483030724 -2.1374955837979575
67.93771570634473 -154.37085287266288 -2.152441799795408
67.96212165171897 -154.26351048133478 -2.148169234073117
68.05213109587662 -154.03385295827337 -2.1417582954522794
69.00387885003448 -150.455488108984 -2.135546386252212
69.00123712014287 -150.35411312214023 -2.1364755933354918
69.00836122470777 -150.24875906374672 -2.1381126468406886
67.89138759802259 -154.27378043964492 -2.1450157636334914
68.95716459252289 -150.13978132485028 -2.136859436963037
67.82954105456436 -154.19181174552045 -2.1376517170385676
68.89013415300496 -150.08386579290334 -2.1341476737650877
68.87456119744022 -149.9974970796505 -2.1347058827645333
66.49787218809148 -158.768887369167 -2.2064340873197055
67.69963918310947 -154.25234848851395 -2.134017356537381
68.8408919007499 -149.87120254179345 -2.13514784033816
68.81332358123147 -149.8108789754801 -2.134856009951657
