ply
format ascii 1.0
element vertex 841
property float x
property float y
property float z
end_header
41.74976390544448 -215.30012175639195 -5.030440420494066
41.798699796793144 -215.26092366156408 -5.02674656216351
41.86987653396692 -214.70392354864393 -5.086685634553821
41.989286014857186 -214.46830433409755 -5.065180122317007
42.24178527691137 -213.27086615907766 -5.077531066529138
42.2794676768483 -213.03247642400802 -5.061729654052837
42.338657791831615 -212.81980853903798 -5.051984507713796
42.381982653835856 -212.48811708856354 -5.036426221010526
42.43186223382122 -212.37338460137624 -5.035216744766479
42.37958325908861 -212.30309722478353 -5.027606249210668
42.49713777736282 -211.82812828130514 -5.021607477791472
42.530607059717575 -211.70892398510802 -5.021598751078093
42.61592167074306 -211.49288379493848 -5.024414555034189
40.58289184994988 -220.40374253824533 -5.089196212313008
40.857777864995576 -219.36180190910275 -5.030775282908162
41.37954336593776 -216.52400078753786 -5.017023696880168
41.4821061187129 -216.3916660482025 -5.0032605798149845
41.66920956143765 -215.41645130808962 -5.042354973692693
41.800719371810686 -214.6944882842033 -5.082815537933436
41.92600939985147 -214.31593332172451 -5.045863827212775
42.07418183941371 -213.28833441478616 -5.064482971199445
42.0692289422242 -213.27763347686394 -5.06294757067089
42.203732893363934 -212.95674102589277 -5.0494573356344175
42.23495915525651 -212.80464784923907 -5.041707022369571
42.2954672038372 -212.65590774553183 -5.037925246065417
42.26874476989358 -212.5254052462055 -5.0284578253301735
42.25891242636506 -212.45313755408233 -5.024108264336897
42.26508659121215 -212.34504700212818 -5.019586803360364
42.32291047133937 -212.26861675333012 -5.021384814116835
42.399355305201915 -211.84476703825322 -5.0141289572325345
42.431079385666095 -211.70749620222244 -5.013740729852627
40.48129187260222 -220.4215824685474 -5.092859203317064
40.5863035520834 -219.9906438438658 -5.069112266424735
41.27962856522163 -216.69664262940523 -5.034134623956541
41.289186145518485 -216.68401674468504 -5.0327138384423495
41.38432033737956 -216.42748447537792 -5.008732997679374
41.31388690747955 -216.3736363051248 -5.005866983938993
41.35365417169259 -216.28409350041238 -4.997332096675207
41.49325318006006 -215.7997893301807 -5.083539214655349
41.645959376467985 -214.99048847711 -4.99769848440442
41.77647459889101 -214.59089831166656 -5.069829078951748
42.01436586501639 -213.156721960145 -5.047963125303609
42.13656209783044 -212.71581784510622 -5.027608097480628
42.14963968124385 -212.66106662229976 -5.025596382650082
42.186296260513835 -212.5269388438926 -5.021518510695117
42.24806328475571 -212.3426902632145 -5.018135699013314
42.2351300812769 -212.2449513912815 -5.012976985369986
42.22871395926367 -212.18054435737645 -5.010156770956778
42.31657995338746 -212.04974161942323 -5.012968544081913
42.30833847604231 -211.94294136562033 -5.009303545570089
42.28401328481674 -211.88957879861275 -5.005938883078339
37.91119742789644 -231.7699471899993 -5.043824275976579
40.425376398337 -220.4136507303461 -5.094027525563868
40.66196678978207 -219.3330272361143 -5.0351051981840405
40.62720068990422 -219.28601690331482 -5.0337801399253115
41.221680479465064 -216.62890579220647 -5.0296929438528855
41.184837175831106 -216.53921312500916 -5.023079182297534
41.24531453929901 -216.42145122801531 -5.011537487740875
41.26187919924294 -216.34545873033088 -5.00463888019832
41.45235153057318 -215.31711344111324 -5.0308596235025815
41.54636534020014 -214.84322383892317 -5.09082940732752
41.647233860631076 -214.53932594453764 -5.058532377909481
41.61297750676653 -214.50746459623394 -5.053367394792012
41.92138907402154 -213.30409801696555 -5.052319861865603
41.98668822892013 -212.92131628612222 -5.027698075579022
42.07946255559768 -212.6275240771176 -5.017572417892322
42.12442768832174 -212.30832339655035 -5.00623155149701
42.13833801101594 -212.20870428747315 -5.0035945921301135
42.167238787314034 -212.12402075022584 -5.003106286239074
42.17611727781735 -212.0493529062425 -5.001494746030775
42.18598197263401 -211.8876748211939 -4.998195026848748
42.217408740321716 -211.84576862263464 -4.99972224521287
40.29010673214637 -220.23238111138673 -5.089000056780317
41.18660318001895 -216.40763270409383 -5.011743871506091
41.37222420932922 -215.4318177174134 -5.043024553564724
41.39155918560309 -215.2736712159273 -5.026081112039614
41.485060412855084 -214.8302542703296 -5.0870594242742735
41.46199749339156 -214.7683595293312 -5.078565086105065
41.57585144696421 -214.55664352613877 -5.057540089779329
41.5578659865367 -214.49861085059513 -5.050065018850586
41.663998055517254 -214.03868021031207 -5.0047189630717135
41.73904783426198 -213.46342046365382 -5.050967419852484
41.78651818361145 -213.31891538618032 -5.0419789449100305
41.86710423789122 -212.87423962578262 -5.013877036719916
41.92573923988091 -212.82527211313365 -5.015909962304437
41.90892444228903 -212.6789887513024 -5.0054348938855755
41.96155892996862 -212.6327028063331 -5.007449506857027
42.09798705030878 -212.14842327646681 -4.998200484973647
42.35053172467233 -210.7210221611001 -5.006823985752333
41.08214164551121 -216.26556691652303 -5.0023332296651715
41.38980124922131 -214.78436434996854 -5.077983665287699
41.44718694500391 -214.51898784672898 -5.04798672815558
41.48004056893504 -214.10291636990615 -5.002773332675096
41.79014192402168 -212.8482662609737 -5.005413438671089
41.809615973200934 -212.77097216561873 -5.034363081043055
41.844451284377506 -212.67684125613118 -4.999800020908134
41.84491647080847 -212.45706257474671 -5.088956276710771
41.94535762715869 -212.20736806273808 -5.0931254894921745
41.95418909614072 -212.13053728358742 -5.092357895340458
40.11088264470097 -220.23592080277396 -5.094088426577841
41.36735448639834 -214.49993861645396 -5.042584455254272
41.65553945710989 -213.01561045877045 -5.035476435272691
41.67608659122628 -212.93103456503107 -5.0934985266141215
41.7169914480756 -212.8692771023421 -5.094403221034717
41.69889873465123 -212.7405395179432 -5.084465190197637
41.75042460384352 -212.6499383832067 -5.085933115894522
41.81778706187743 -212.42327527471932 -5.0844536552762944
38.274612263331065 -228.44562738203322 -4.9927157524961245
38.2253510292961 -228.37687606815302 -4.992725500726106
41.114422556597326 -215.0320593962007 -4.999222319074547
41.38364448879109 -214.06151010447124 -5.084093013459671
41.35472905788434 -214.03884055198415 -5.079153565747395
41.55122607659023 -212.98027180968882 -5.0815883609931864
41.57401273770972 -212.92422425700752 -5.080407733891332
41.64499647783234 -212.70443433430142 -5.075884154238434
41.67550429390802 -212.68295921253173 -5.078383942722126
41.856177730991966 -211.40954513490013 -5.082445931744394
38.167929204307626 -228.4397409498321 -4.994886682815049
40.219481865622036 -218.94791728611256 -5.0290233329611835
40.67744611344866 -216.79716785202461 -5.055090509379656
40.644088479699256 -216.6834881411719 -5.046434781489476
40.80156550095127 -215.86476488764643 -5.0928690813978275
40.967892739145086 -215.35597657245697 -5.034504549829879
41.148427953308286 -214.37450392514586 -5.019070402364754
41.52257793544094 -212.47829803857286 -5.050982621150176
41.53058772728492 -212.44981709062662 -5.051063948855982
37.92182701227945 -228.88454186198447 -5.005792510344947
39.962287862972936 -219.36695084817256 -5.056185714124239
40.57686324516455 -216.70250618134656 -5.04921522199753
40.82155784404195 -215.51112138934565 -5.052378437149121
41.04339749209512 -214.57142457327026 -5.039280329357932
41.032023251168404 -214.40715506543697 -5.018577813348502
41.066206245137 -214.36247044694488 -5.029895713933719
41.094768321756774 -214.215242368121 -5.082084643967883
41.09943681938081 -214.1804448849376 -5.077780676704326
41.102331665659186 -213.95983577110974 -5.049878719541666
41.17351194260863 -213.84053806058424 -5.041269811194659
41.143994449301935 -213.79035574902787 -5.033144713426937
41.22646713665152 -213.6517818345871 -5.024835653414177
41.26995161725257 -213.36167221701868 -5.00065489196028
41.50715074300371 -212.4727869310497 -5.049043998043832
41.604682314880286 -211.59982116608307 -5.053972088913798
41.951640688849054 -210.1969321889529 -4.999059679295877
41.99614549787862 -210.13393193687656 -5.003196714756354
39.8990404474072 -219.32203403230164 -5.055738222349163
40.02871827225453 -218.9388505973985 -5.033774969028865
40.48799288510382 -216.68184075287454 -5.049174068409012
40.718897838247436 -215.47229678779897 -5.048404271424534
40.706275366599264 -215.3909121757731 -5.0391496368058775
40.796451131300394 -215.19106771021083 -5.016313241899265
40.87775617053406 -214.5917961313059 -5.036368049918685
40.894638276973915 -214.49894075815777 -5.025071949420621
40.95609302441225 -214.30246037247903 -5.084493531272002
40.94510399707039 -214.27138666872364 -5.079359331118366
41.06117755680314 -214.10875019902736 -5.065598384004777
41.04154459089077 -214.02945641190453 -5.053939884894067
41.04832697059818 -213.95040635901526 -5.04453348081673
41.08926272150072 -213.8570098010755 -5.036470879415907
41.088420245988914 -213.7252610927964 -5.021296951222541
41.11649911891387 -213.6245312261206 -5.012775764119695
41.11707273164108 -213.55844828406077 -5.006030672874537
41.14681360606545 -213.44939827895288 -4.997889941738026
41.21462477553671 -213.11323836598476 -5.050218069943404
41.25432007615901 -213.07180300804674 -5.051761667435318
41.217534910443426 -212.9631319640625 -5.0389183836479
41.37756250772851 -212.4010417711553 -5.0314859221721075
41.421519709760744 -212.0868097312353 -5.031497829980897
41.508933312681826 -211.95416492423567 -5.0407344358073365
41.4810309788872 -211.89186271879208 -5.0378912881978115
41.50480199837322 -211.75715424682073 -5.04156138101532
41.53882467096441 -211.73387137292286 -5.045348282453697
41.51432271045444 -211.55076530360583 -5.046158742783365
41.53263139520588 -211.48137421207622 -5.049556671834436
41.88782263819579 -210.1054124724428 -4.999313653165021
41.90500977118946 -210.00593369375608 -5.003557348407952
39.72511822246673 -219.4536847000312 -5.066662250527005
39.801061003281035 -219.33502987850477 -5.058974775558769
40.25641274799287 -217.07868373406058 -5.086227067043065
40.62902012926206 -215.4095979443874 -5.041691002600147
40.68388799727336 -215.33268865371048 -5.032585780257671
40.70328564689283 -214.9782152679161 -5.08344812256747
40.77654474752213 -214.67299008193655 -5.043980736452038
40.830765839678406 -214.59124628633364 -5.0348623617097745
40.83652745148562 -214.5137880794672 -5.025081791308495
40.90124928937408 -214.25114327692776 -5.073618552012325
40.9277474479422 -214.1422728523363 -5.060447134095951
40.976817560793414 -213.98670115496043 -5.043611914749307
40.91859869973845 -213.86069529371247 -5.096362366430518
40.97362846350333 -213.8179842203048 -5.066567893115409
40.98409259727663 -213.72605661754756 -5.070034347509448
41.00963926946226 -213.6332827033661 -5.041001053703731
41.00024304067467 -213.53665226529122 -5.065271227245458
41.06019814709912 -213.31231879212913 -5.049611977755106
41.06275663898828 -213.2375164321497 -5.04265229276218
41.1273852624882 -213.14081926875159 -5.041787873073169
41.14731065201716 -213.04281143322657 -5.036201588262952
41.20515293006864 -212.941653771973 -5.035985691144476
41.35829061100091 -212.16985439321033 -5.025048736256476
41.359672230196765 -212.03279675792405 -5.024532299952188
41.37860358383298 -211.96765734575703 -5.02668666862783
41.378705986102375 -211.88660661533243 -5.027174595985964
41.4305767785281 -211.76985244081027 -5.03381977743567
41.4725108210596 -211.6410055772354 -5.040167599155263
41.47331468505143 -211.55832637928137 -5.042048309709479
41.46907462175937 -211.4869896357011 -5.043472122530574
41.9079418799037 -209.50822499151735 -5.0235098904630675
40.20243335534815 -217.1041817409328 -5.089403371766301
40.6172415128494 -215.07002998346476 -5.094565354042756
40.64559458190719 -214.93549711682485 -5.076291840710591
40.66893119295454 -214.77767343029745 -5.055168063040908
40.715065138084164 -214.67550889078598 -5.042613646887475
40.71486377262468 -214.59727619249728 -5.032161910343794
40.71573829375145 -214.47764028886738 -5.055633170847906
40.73274928231009 -214.3648210746136 -5.079234165132282
40.91979188583648 -213.75589109911147 -5.082453166785292
40.94241946614122 -213.6876844953844 -5.076367890426184
40.9341467269646 -213.59519437575355 -5.052475517843913
40.94135681147399 -213.51555341787486 -5.055968616877669
40.93016006582079 -213.40507627110097 -5.0427978273255105
40.984523518670436 -213.32208594013213 -5.0412559017851075
41.00063241768279 -213.20874120620556 -5.049365895942618
41.05798492123869 -213.16405052614377 -5.035318564188331
41.040125397491884 -213.00267487565424 -5.073267845224024
41.103199474724505 -212.7845788284662 -5.013617890097285
41.09432355538617 -212.7176105229139 -5.0823879547113515
41.07905364374426 -212.63264188165948 -5.00351349913231
41.10092305658011 -212.56651561544479 -5.07794444589227
41.16805808830137 -212.20775903100898 -5.084150587796564
41.30297098799862 -211.92986034050307 -5.0188968306985355
41.29368869117912 -211.79865474684286 -5.019529535109901
41.3390310373004 -211.79874447304226 -5.024120085317143
41.345709344710265 -211.67829726902266 -5.026946665488226
41.34923085948044 -211.5362683709472 -5.030877588709879
41.36635102276731 -211.44073857523733 -5.0354172828196475
41.40966768270951 -211.3991104650084 -5.040646760785365
41.72726753790853 -209.674405921723 -5.0102924086075875
41.760892511386146 -209.49692970930388 -5.019341825716381
39.59312328974408 -219.50564819029498 -5.072560159031517
40.43520781474451 -215.3914994581876 -5.040856712346926
40.40945793410822 -215.37515543410967 -5.039125775195077
40.55212447382596 -214.80933443103464 -5.056859894985197
40.56484329988251 -214.74988616207895 -5.048931658357531
40.56504789258897 -214.67124075245692 -5.0381614325162145
40.61119186445763 -214.55717283742229 -5.023979037613468
40.63768814924374 -214.44643898635672 -5.086112399384213
40.66504758101554 -214.37551279892054 -5.076790003758495
40.66275292479825 -214.29410188294773 -5.064453772554481
40.81730377569307 -213.58215914293012 -5.048951287840641
40.89161673341156 -213.4602550518709 -5.043930179551044
40.87883274605297 -213.38935260241757 -5.0349480109558025
40.86644426805862 -213.28174649430275 -5.08386446708009
40.88964820848254 -213.2033745651603 -5.059363776383492
40.97762200660478 -213.03562290506017 -5.083165263283066
41.029599375504134 -212.67513609225787 -5.022991420346201
41.04826839040992 -212.62475981766536 -5.0613014568968415
41.05717969469581 -212.2965386540216 -5.067778306960327
41.17346519884085 -211.98779060109882 -5.088136587968305
41.17127288542993 -211.88523335509652 -5.090693666416154
41.17527741071814 -211.7985574080047 -5.094179072995983
41.16793190984077 -211.73540438827894 -5.095812302997903
41.20990433909044 -211.5798408527169 -5.016702385396905
41.2578453975369 -211.5257666539261 -5.022862366515864
41.24913695353633 -211.42596812493179 -5.02555192161058
41.31620933530756 -211.35992520906186 -5.033860416047318
41.332404706351625 -211.2390308450138 -5.040151850585966
41.3382503628939 -211.15869302694261 -5.044208308047833
41.42027139000925 -210.77680011190765 -5.070261254735732
41.68086398495469 -209.52906381926914 -5.015527238924016
40.20342039180046 -215.85989014199816 -5.0954557483309575
40.295178535205025 -215.50511316457016 -5.054686297228285
40.333610870364396 -215.4135525819737 -5.0441823352335176
40.36910038230645 -215.3604349192252 -5.03774385560138
40.52907608484275 -214.69694929098551 -5.0407752189839865
40.52729294735613 -214.4674103245604 -5.046769918385027
40.59507444980871 -213.99313702205 -5.0820781664710735
40.748711642496055 -213.50720415443257 -5.095352268809126
40.768240151811156 -213.39470839894122 -5.08486804922821
40.81162622738026 -213.3078753351867 -5.082304819006099
40.826357679149865 -213.17086697137535 -5.007388172070122
40.92843620164756 -212.7679894309934 -5.058524974915123
40.90918931615654 -212.69520832099565 -5.052431325050299
40.933318764661735 -212.59728904831232 -5.052956785849351
40.974818530439826 -212.160019493974 -5.057202902152636
41.0837694141133 -212.01869934550888 -5.075202580878983
41.118670748638294 -211.90465605084793 -5.08307064021045
41.12228588265046 -211.791097728149 -5.059419510073283
41.138931529880054 -211.71866210042174 -5.092892321521918
41.145679617020534 -211.60218022968988 -5.010155553272775
41.172680309003894 -211.49847883155905 -5.0161546326348185
41.18672965639964 -211.38561398017563 -5.021842715553181
41.188493753189235 -211.29331083222485 -5.026002413712088
41.56304980147672 -209.6505505164394 -5.006399654933929
41.57849297732226 -209.54319462730746 -5.012003125124635
41.5855222343401 -209.48328377338862 -5.015087921940866
40.19247598800322 -215.5480259542067 -5.059850309223839
40.218383071029066 -215.5122098754353 -5.05569861448707
40.36351869553347 -214.6320187506499 -5.02823596075097
40.48027429051687 -214.141519057178 -5.0957642553817815
40.649719585817145 -213.43099703438418 -5.041526062973148
40.78393734704004 -212.72355068705096 -5.096775359483551
40.79391670933225 -212.6558449200684 -5.0543644420954195
40.82689156543792 -212.57329254648744 -5.045252842963499
40.82770482395747 -212.45993580106617 -5.034482819889131
41.02653037423498 -211.65096449149738 -5.0826039605379485
41.01453926399983 -211.57252756367998 -5.085665629836299
41.05262188960148 -211.46759834596867 -5.073788050223162
41.08525030906698 -211.370896953419 -5.014135501198363
41.11297778638507 -211.26522924960457 -5.021384427194248
41.11924728740313 -211.1902401239555 -5.025690415631981
41.16114054724912 -211.07689482932793 -5.0348664148587225
41.177062759401295 -211.0080867381401 -5.039893730107613
41.18279681999301 -210.7780494906763 -5.05389147235101
41.26381626683676 -210.51934471029273 -5.075514755105309
41.44501012208805 -209.6142927742477 -5.005049828296564
41.43655166764126 -209.54383462014377 -5.008372376489491
39.79129988248154 -216.76345993490852 -5.06973506102464
40.35756081951467 -214.555747734258 -5.089507225467397
40.33831579127081 -214.54333583623344 -5.08665123945746
40.39678868858697 -214.3257015095002 -5.054063966346403
40.51143822750625 -213.40071615486463 -5.045774282534725
40.6037594738027 -213.3413136505113 -5.05322179987741
40.731159904754 -212.61844544191436 -5.057537797958947
40.740172777456294 -212.53695678098296 -5.056342812846582
40.737727983787735 -212.45021683442894 -5.021143445187533
40.86050104375193 -211.84640259902147 -5.052524746743821
40.97769662793026 -211.53593335364363 -5.083751530060091
41.0325923970389 -211.36270758362332 -5.010341924253576
41.05625864456906 -211.27271118694892 -5.016636037723498
41.04747839460772 -211.18211905853835 -5.020844030072004
41.04342817126081 -211.07629519577787 -5.026632100616109
41.06615020814969 -210.95865231914976 -5.035128981675749
41.067999510698996 -210.89981973595462 -5.0388138359877095
41.15944104948306 -210.58270943605416 -5.065019459784256
41.19303986741998 -210.48887479988085 -5.0733624726603415
41.22003192183389 -210.42968644356526 -5.0789776974216965
41.357563463030935 -209.6833031251574 -4.999458591793336
41.36151402109412 -209.5658162782843 -5.005588365758502
39.75715271312654 -216.7636721976664 -5.0704586885777045
40.26667836794659 -214.07824380353452 -5.06621964997534
40.492829863630746 -213.36738374353837 -5.065618101496642
40.622093203292465 -212.63547163322758 -5.063841227284247
40.63787439808741 -212.5253817007634 -5.028914513715657
40.66380100229173 -212.44497936676888 -5.032861902921749
40.72131949682805 -212.30238002026078 -5.05202782550957
40.831443082298165 -211.81353045599192 -5.050665934490315
40.939519939628006 -211.14648423089326 -5.015348152223459
40.97895426492269 -211.0595438805639 -5.0231831109886045
40.99068469034018 -210.6563822834429 -5.050160351444247
41.083156124114 -210.46389152081713 -5.068990197623984
41.14192347963161 -210.39980375884974 -5.076781631645071
41.317164651538704 -209.54144364089612 -5.0059261776597594
41.34191543275571 -209.36970249116317 -5.015618811941095
41.35341453811033 -209.29548685986725 -5.019863757681316
41.36930871464844 -209.1698946547053 -5.027114641912018
41.34930495272845 -209.10823586889884 -5.030271274010588
41.36323639515913 -209.00609642360507 -5.036287026392413
41.480196583394765 -208.66722315645458 -5.057334160155153
40.235509958521845 -214.12530986715157 -5.072157579934387
40.5200580627726 -212.5784477254859 -5.062473793368542
40.55389846637764 -212.4994183637619 -5.050854265956323
40.57343954453059 -212.38340435876262 -5.056347391959143
40.56054780731284 -212.30957972428823 -5.056296624850399
40.857615356557325 -210.78958713315075 -5.033380476449655
40.92255545823236 -210.73958066196045 -5.040523593484642
40.99328471161528 -210.5339739356202 -5.059103920666741
39.64730899236126 -216.3314985398063 -5.03704804870046
40.15615046271115 -213.98436266042876 -5.067179183206154
40.235868412223006 -213.31615994165327 -5.082151984629308
40.40592692998575 -212.52204388240958 -5.075861216135269
40.45400593572608 -212.47724372806175 -5.058091702225919
40.472127285386165 -212.38017897279576 -5.058916192400392
40.496548827312594 -212.33104510435723 -5.04465555337008
40.535618078646756 -211.88454423913643 -5.078729356247066
40.55037071006447 -211.76167867123166 -5.057054558747117
40.827795285665474 -210.72408426756326 -5.036554959839056
40.85723392866998 -210.66062857364048 -5.042764324981202
40.93576790919389 -210.32676693424003 -5.07216386223548
40.93707189387823 -210.23617625997088 -5.079452993863499
40.939212247612915 -210.0383570470439 -5.095867129109465
41.144040602635464 -209.08492980951354 -5.0293032702591685
39.01262276340029 -218.75462634660656 -5.050828357958703
39.57697566451147 -216.18540918874598 -5.02642319907666
39.7488343697765 -215.1288084134356 -5.093695475586747
40.378221532206446 -212.38011601282008 -5.0757255563050485
40.51718923824046 -211.76171130078558 -5.070269198467445
40.63854751171406 -211.0196940966221 -5.095083340226198
40.67928285159279 -210.7918303354918 -5.024091491439644
40.68509034874518 -210.66204089487877 -5.034540006734797
40.97889926262578 -209.4267751314908 -5.0074265451984505
41.07745293799942 -209.03060989150646 -5.032116365676203
41.09433436475154 -208.94535856344487 -5.03744362922622
41.10991894669164 -208.8084973825328 -5.045990340335669
40.06111807139016 -213.46722298715596 -5.068812807643528
40.06112451090296 -213.24919308346108 -5.033544539600489
40.291922444380546 -212.2427725110686 -5.068439957809601
40.33299423662707 -212.12869923960167 -5.058312220167693
40.34443034258705 -212.0641235486836 -5.094518643653197
40.322663764914815 -211.96474784477903 -5.042448199993359
40.37768750714195 -211.84890485708382 -5.060829896947899
40.39917406573667 -211.76946012092233 -5.071671414709558
40.41706264020272 -211.61169568414326 -5.0211608271202275
40.5526857444103 -210.9398508276775 -5.051573352103785
40.5944732569972 -210.84743825175292 -5.0158745392444715
40.60556101995603 -210.74528516383577 -5.024458458669935
40.61745682162 -210.64101132398918 -5.033416809116995
41.00640543244223 -208.82051270682427 -5.044981294303733
41.0641768900968 -208.63731924340937 -5.056694035328174
41.097479319092926 -208.39869110759918 -5.072016230861422
38.75086505881012 -219.2059505370353 -5.078587780659855
40.0074109697253 -213.24005725386166 -5.020148159226327
40.16465162356554 -212.3105871996203 -5.039234939603366
40.23982079462842 -212.205090912861 -5.027888025204862
40.28774595138088 -211.78321323948083 -5.05677666452798
40.29621240209897 -211.7063957361202 -5.001958709454721
40.31587092579279 -211.67185386914613 -5.006746237439433
40.49895456764118 -210.85504363522244 -5.011141675696443
40.514835168059484 -210.76449284224825 -5.019219813111625
40.53384040890583 -210.7010868047372 -5.025212976013078
40.843246177520285 -209.01313710828953 -5.032642569698826
40.895430822978746 -208.81807815279097 -5.045181870067032
39.42775217897151 -215.34898020511832 -5.044093652045787
39.42799274260766 -215.13372842084928 -5.095608585721879
40.094678957699706 -212.09062431252454 -5.0507759328026935
40.17194477852275 -212.0137343516912 -5.072255879054006
40.17164923548921 -211.89877637919636 -5.087361911259451
40.17502498821206 -211.6974754247329 -5.054298510961628
40.260024948456305 -211.5320237595754 -5.083537848428054
40.38338565775082 -210.8406005551809 -5.023069051873275
40.41215608364666 -210.7045082306612 -5.020749108134415
40.431863861839005 -210.6217803220532 -5.028615095411875
40.65701338098635 -209.33063136047025 -5.012406946894914
40.779272646697535 -209.00942885563353 -5.033012490310286
40.803482986738814 -208.9156790078029 -5.039082850091793
40.88946022280916 -208.45700783199297 -5.06900258757553
39.27598348337535 -215.4643156848906 -5.060399948364019
40.04698883589275 -211.8898226809074 -5.017407400806322
40.063207423034264 -211.78774086336685 -5.088993279005791
40.15086565633227 -211.57997871645463 -5.066872219666211
40.27976828978854 -210.9171480800004 -5.084103432128944
40.26390156811888 -210.79606683486477 -5.037794263349438
40.31125049053088 -210.73201110520165 -5.015407277705931
40.34461780025274 -210.6578799694564 -5.022945267959419
40.59889042457911 -209.3117586815133 -5.013858746761219
40.65779341371245 -209.07521231379613 -5.0292658294887795
40.66945173126099 -208.9668145617635 -5.036371946732733
40.806772059090655 -208.4378815395538 -5.070893005933787
40.857102617072115 -208.3545005427234 -5.0761216338590005
41.605427143048395 -204.5393836855343 -5.020982262847128
39.15179845860949 -215.73354209963705 -5.094821604609517
39.13414113034152 -215.66428287536272 -5.087003729664272
39.15513224628775 -215.57021424635312 -5.075418864353971
39.205151135460326 -215.36360234922626 -5.049932761216062
40.1434597527476 -210.83675308647844 -5.001870711679949
40.21221586381653 -210.79535665352665 -5.036318686324311
40.20674872907034 -210.7096609446984 -5.015083530252113
40.24238063775756 -210.59700737321782 -5.026260061618235
40.6119754665343 -209.03233387381223 -5.032399970215925
40.70465449005423 -208.4261521565117 -5.072746343431409
35.844786385334004 -230.48852893647066 -5.062933566860625
39.1105768337219 -215.5734463582147 -5.076810118089623
39.11790768040953 -215.1799930959983 -5.030098239111015
39.29925133956468 -214.4664191677622 -5.048294950370703
40.1008835375353 -210.96111907168378 -5.071160787399373
40.09079810044813 -210.84333802901068 -5.042792890837856
40.088488688051434 -210.80950268078416 -5.046753301767967
40.356123270364655 -209.36168738882304 -5.012554601479552
40.38818830256598 -209.22911074150218 -5.021279624523575
40.595159420919884 -208.38899080543837 -5.076837861218064
40.62332189121438 -208.356186230192 -5.078671450649996
35.781873472323824 -230.5011972016734 -5.063836467935276
38.69785005192873 -216.7596573018558 -5.094634982954376
38.743531509685 -216.68596686419025 -5.087402386252933
38.81727625557939 -216.07625646146835 -5.034925232230029
39.00375735640188 -215.54682518292304 -5.076208383761253
39.00407025234917 -215.4487770845709 -5.064600856617052
38.97841394813554 -215.33596081196316 -5.051887426864019
39.057224572106605 -215.21410864367346 -5.0355352763134675
39.038081183895336 -215.0926280103434 -5.0959777668922115
39.187949854794105 -214.50457869168739 -5.056557168054865
39.95080716433315 -210.7506140262873 -5.065384530234734
40.344484256744316 -209.18707411286601 -5.024819069120582
40.54641413576798 -208.37332256815182 -5.078680380946097
41.14266847863845 -205.35925983725141 -5.003923660792355
41.201086819768015 -205.21202650798028 -5.0076530576399545
35.665779057123416 -230.45248280318955 -5.064766456782583
35.73134585251339 -230.434639996959 -5.063767525394855
38.65460544601312 -216.55854703614833 -5.079070325800176
38.75939187020975 -215.98269408794908 -5.028594038930072
38.79845482229563 -215.92651704195737 -5.022926256150489
38.84737734991681 -215.53737788334212 -5.079225497010075
38.90149138223456 -215.35268967024953 -5.055877150786808
38.943320582573385 -215.25598744988747 -5.043329506039714
38.936523634681016 -215.01601262833483 -5.086942772766041
39.01338865597243 -214.90613280644854 -5.067908554831783
39.12070954881092 -214.53554676978294 -5.063536661461162
39.941044126989276 -210.71808540195684 -5.011100058630223
40.18697429700539 -209.23563009460523 -5.024132373335332
41.090955318465724 -205.30689995384517 -5.007647004391603
41.0437386643781 -205.2672646230544 -5.010707793704222
38.64446985028938 -215.97306690683482 -5.030709823300903
38.704030234746156 -215.86032068699274 -5.019837810931244
38.69786589558388 -215.78972541443096 -5.014128432495701
38.75282847095319 -215.41529363937053 -5.067545639650207
38.86581481343557 -215.28608880292015 -5.049004020221033
38.871351856404566 -215.1330304845803 -5.030731429836938
38.921825718045966 -214.98932751606998 -5.0359896225915435
39.07250113098194 -214.3495510398505 -5.078376375481177
39.98829257938158 -209.87623905104314 -5.097913569001998
40.0750656983541 -209.3623732798773 -5.017407985453998
40.152837486813894 -209.23169437506385 -5.025107493757411
40.93143057347146 -205.27120897185304 -5.01449587034528
40.985213237698694 -205.28012051413748 -5.0122673156116875
40.98221988343461 -205.1785314604099 -5.016262388725677
38.57556061792328 -216.1010423211135 -5.043133136585859
38.545872769268506 -215.9827634547879 -5.034085204872282
38.6091337790465 -215.8692006351783 -5.023002582972708
38.57429845861633 -215.78858102350773 -5.017248650498713
38.61327768487072 -215.576398656522 -5.090866322703795
38.65094181478043 -215.46003584503356 -5.075954982717061
38.89518915393052 -214.351501784415 -5.035105886038348
38.90316321285351 -214.32974460495052 -5.055186929224018
38.942765821617556 -214.07084809124316 -5.059370613533442
38.94248739162404 -214.03962688772032 -5.051187186116529
40.06197865523478 -209.12586786398543 -5.0349044454074425
40.86966292862557 -205.29161067207417 -5.015900806070628
40.88781079604264 -205.13445056414724 -5.02140111286893
38.47957434279169 -216.14295582417034 -5.049130915013864
38.45860292664659 -215.94611887596295 -5.033355629541621
38.509012425701684 -215.84522730766557 -5.02365280548596
38.503292490900066 -215.79432466545865 -5.019600603922974
38.63124180608821 -215.26158009030348 -5.053263901630002
38.64974507642127 -215.1661374635498 -5.041426654553668
38.69794209311675 -214.89341418199436 -5.007775216473616
38.72735894808444 -214.81510069751934 -5.063274456256264
38.778621638487834 -214.54154961107068 -5.075896600991535
35.304423707111894 -230.36580679048276 -5.068284528031075
38.407513819507884 -216.00211488065122 -5.039351383615433
38.376302722917764 -215.91354700547095 -5.032888046884111
38.358871238965214 -215.80220789875108 -5.024154092403008
38.431978223038 -215.751241894911 -5.017913156942218
38.42058551107985 -215.67380353206605 -5.011809430613712
38.471630599162296 -215.5459908287611 -5.092109607541201
38.488063004102216 -215.47341764011168 -5.08300098182225
38.55097058860383 -214.95517097157256 -5.092029602812585
39.99591347086853 -208.5369460032687 -5.080247442620269
35.23442566827172 -230.39555854299604 -5.069743558316449
38.29962452529979 -215.99475411960367 -5.04167584913092
38.252878916567326 -215.8810240579753 -5.033600231649613
38.34449217690601 -215.77587236378204 -5.022370253735829
38.337436616940934 -215.63157931449356 -5.010615415895403
38.406525274261014 -215.50492059586603 -5.089622214004666
38.391138396506584 -215.44145169976534 -5.082772211973463
38.382921581169995 -215.32644650396324 -5.069690051478482
38.45863267557859 -214.94284657052165 -5.094568757116517
39.805741732197575 -208.76031271675225 -5.070071507920368
35.07979339047858 -230.24783544328602 -5.069332084179568
38.08755347382977 -216.0955249845956 -5.055929106830986
38.16943340180097 -215.98785760768428 -5.044739320592573
38.28180119583736 -215.56967284258684 -5.007070997097225
38.26590110080252 -215.46764772423577 -5.044359119834654
38.316560692441435 -215.42883195421678 -5.084112087153757
38.412417122600885 -214.909508529022 -5.091900897413054
38.46429203070224 -214.76718100913212 -5.001498854100614
35.00975194754525 -230.28286890566056 -5.0708176588070835
35.84630208416991 -226.50856096096035 -5.006216864046301
37.945656646374964 -216.30477798699073 -5.077236339275598
38.047777530256816 -216.14554242709434 -5.061187555966404
38.05955495229233 -216.07186667414015 -5.054812099248918
38.108065120285005 -215.99335025488728 -5.046953030725594
38.10739416321481 -215.65634633148568 -5.019178366737279
38.19085354938337 -215.4828580303907 -5.048657864622408
38.18167386153705 -215.3725933601791 -5.083015615564815
38.15880872291476 -215.29761899085938 -5.075306505564899
38.252039376114006 -214.84835641059607 -5.091632362732165
34.90159284316287 -230.21386594263117 -5.071053285556588
35.77217897973792 -226.30736676291934 -5.00417517648794
37.929577454781295 -216.31406079998305 -5.078502111604533
37.93704025577276 -215.9841770605823 -5.051095999654621
38.033044375669824 -215.65716296186048 -5.021413127710808
38.067561974051294 -215.52838015056702 -5.009797844590427
38.05907485073202 -215.47348508383033 -5.005566865957508
38.089722049010035 -215.3294876998203 -5.081923805340652
38.122615717597135 -215.27225735289724 -5.073967583439313
38.23233077868829 -214.6511922945329 -5.0640293434677135
38.24387475763196 -214.5640770720149 -5.0506764703524265
38.39266630832585 -213.93356673426027 -5.0769163410043925
38.39448810094733 -213.8816196267457 -5.0650173320103775
40.242969556027596 -205.26399862337271 -5.042421400310391
37.56976478122527 -217.11308923064726 -5.001182643685409
37.80486632807379 -216.40699456628414 -5.089731709807498
37.82377339852432 -216.32051741412093 -5.082104126751068
37.83473186803491 -215.88501255482979 -5.04597641551225
37.910579966772865 -215.81309929323152 -5.0378203386202385
37.921491407796395 -215.5194185704726 -5.013427714348041
37.955448880854505 -215.3457493688764 -5.089766792992479
38.071354111646606 -214.88899432648964 -5.0326424567811205
38.07359853303844 -214.82267513920803 -5.025067251893675
38.11216420681839 -214.7720943303711 -5.089154872381147
38.168281585265646 -214.60618163800802 -5.061613752287221
38.20577059007054 -214.55806147181082 -5.0522620677921966
38.155878792482746 -214.42133349049493 -5.096906097807478
38.19035704394649 -214.3499129409401 -5.081615537753955
38.27097234014877 -214.1355925371515 -5.063271948959814
38.221741133852845 -214.08038131505998 -5.033378627762858
38.28558525467312 -213.92784924206651 -5.091048300421147
38.325926720199455 -213.87499582569563 -5.062677551993149
38.815717694441254 -211.53754642748626 -5.073178293409816
38.84062254685927 -211.41439769951978 -5.093059750571221
38.88264341463531 -211.25760919665373 -5.053121512178826
40.04775414996366 -205.50730820116775 -5.041417247261273
40.15737572696702 -205.29410348068376 -5.045229711158784
35.52839175671566 -226.29323164110446 -5.006539743585922
37.56835562113825 -217.07214196017247 -4.999141258250216
37.66943073351887 -216.3062162135359 -5.085498290937898
37.805839470493375 -215.8775780831204 -5.046257068619003
37.83748051785558 -215.82329526966993 -5.04083492497714
37.90175051660562 -215.286752996423 -5.085554971211966
37.979738776786796 -214.9234321437936 -5.0409440401811425
37.99821674762975 -214.75186318196845 -5.0938532945481665
38.087544073167095 -214.418945408094 -5.064899576459918
38.114182989965066 -214.31431050710233 -5.076951134455663
38.12150701809905 -214.25084000129874 -5.0713912377115635
38.14404702443758 -214.09482545427636 -5.043581724134397
38.13428316649603 -214.04827992369266 -5.068059147120818
38.70692289335077 -211.4976939565477 -5.0741292550781685
39.88619029237755 -205.79397123632026 -5.037469382947313
39.977327228546784 -205.52754603525844 -5.044072278144522
40.24581602218186 -204.3479473697748 -5.080241736933753
37.59187366095499 -216.29642408452688 -5.087026786714164
37.731087413210155 -215.38649152841796 -5.008481746789851
37.79437742958104 -215.3200721554446 -5.094433982458113
37.880621410096985 -215.07427689524422 -5.062684861583384
37.88007351502083 -214.9770280682827 -5.051866901447912
37.92857058418327 -214.91153694814648 -5.0421144080224405
37.93855626937459 -214.5997971720262 -5.076803626289846
37.941652413146784 -214.53802148479048 -5.000321482300997
38.01424878517432 -214.41082105119892 -5.045117217576945
38.013127820933725 -214.28023783898772 -5.0539354437008015
38.02661829242845 -214.21726284733668 -5.017979877339989
38.059702624576154 -214.13872329865316 -5.041467054425146
38.10377197315968 -214.02813198525806 -5.03719068711676
38.08014669149977 -213.75151894068298 -5.089032796098561
38.54744252815253 -211.93614023462527 -5.086405586676019
38.60960603682665 -211.5898394792445 -5.062178476941086
39.852493756519124 -205.6295466718117 -5.046034329018537
37.4589109985564 -216.35560885041895 -5.095903326370646
37.47384642520684 -216.25141623537934 -5.086927835394305
37.50371382666365 -216.0017288209405 -5.065641996153431
37.50701844380636 -215.96977667411556 -5.062973817020145
37.66209844546515 -215.54191205144767 -5.023305099447984
37.781294356823295 -214.6584611144588 -5.096792333516149
37.93231006154547 -214.2872468690385 -5.075432032889584
37.88541188476875 -214.23076611925273 -5.031422223177268
37.9163551673408 -214.1171017644228 -5.014121947403595
38.06592009533134 -213.7282823480737 -5.064756227394413
39.69295183458215 -205.72103114561295 -5.050450579311593
34.399818925728 -230.1819848450116 -5.075896868444314
37.44243238598234 -216.17410220061305 -5.081591166040811
37.69821584564205 -214.91567397776845 -5.054588058937681
39.6248895397839 -205.77282331787424 -5.051829732076049
34.28229672755886 -230.26165950765753 -5.078149752500435
37.60402450895166 -214.5997475127464 -5.026181110940649
37.68883038525661 -214.25865811908503 -5.052081632536124
38.640739293207574 -209.91645562835092 -5.048841322755178
39.507579044011926 -205.84296331359326 -5.055278401834993
34.189917022285336 -230.2482504309431 -5.078743852910664
37.19398505363175 -216.18106751547555 -5.090109528824597
37.52956200990234 -214.8050710633966 -5.052184405840384
37.5662901768398 -214.40778714786606 -5.057026486688413
37.71966189519305 -213.97640905732047 -5.07445235177613
37.70315395650247 -213.88564044774225 -5.005939371136098
38.56333529735882 -209.98112240244188 -5.0505767886000505
39.384484654074754 -205.8726115621949 -5.060997443733132
39.433929477319104 -205.86616369368045 -5.058532143061092
37.494707488407975 -214.28418860234743 -5.072874743695115
37.52545793325089 -214.24999909652715 -5.065886613447914
39.29952838867241 -205.8564508749352 -5.066673462984515
39.20057189159732 -205.86719465104545 -5.072140896933172
37.356948274029705 -213.81848071063948 -5.03393165638883
37.38329693288082 -213.75263270744733 -5.038605579519687
37.387790260828226 -213.71578038239375 -5.020241501395368
39.103619042167495 -205.83734705527093 -5.079378566568613
36.85505288838968 -215.99607285888453 -5.086591086006581
37.30781293149486 -213.86529948658045 -5.043922531782822
37.33695544815679 -213.73286726502542 -5.064435799094511
37.36628140758338 -213.71110924879378 -5.022080932538505
39.015995502165225 -205.7222728341477 -5.089817172250586
37.20815528349681 -213.70700419019772 -5.038653896964895
37.246924119892014 -213.62388543155254 -5.04802678422898
37.25637043197842 -213.54138363173735 -5.053072920403057
38.95223574662269 -205.65921197700322 -5.096556280764197
37.201316557936295 -213.50770421861534 -5.055426108931404
36.585094239128715 -215.21172470705994 -5.034930156966175
36.570466367104146 -215.16567588401176 -5.031958295304264
37.72589801077741 -209.26792826962168 -5.046474640482562
36.25350550449498 -209.61189701831486 -5.018249319621081
32.34828823905261 -225.54529680056666 -5.007436500042157
32.260595521004426 -225.45006603654366 -5.005480950945549
32.17131950864505 -225.40553544015432 -5.004570108856347
32.13463974752494 -225.37133251456314 -5.003730738524408
32.06301805974782 -225.3976177503197 -5.004236056598447
31.969680090434665 -225.41239942254023 -5.004290954125337
37.69052813297806 -192.2244133039306 -5.022747911534547
36.08038530254525 -199.36282133934583 -5.091542148741432
37.56062003667918 -192.42002676041417 -5.030152336040321
37.11687527735093 -193.0162376227306 -5.056051838857612
37.037891282003066 -192.90762650130733 -5.062964285888206
37.35536872271169 -191.62557058237684 -5.050087183084852
36.947907771346834 -192.70580842703654 -5.070216440547274
36.70255516702868 -193.55902192838474 -5.082352681629121
28.894702158882065 -229.78483887891824 -5.084455490929689
33.094675204957454 -209.79354688465065 -5.0863698490659575
33.14391918183496 -209.68860030846582 -5.0790283861766055
36.621173399693134 -193.4441546370191 -5.088486319102346
36.71955931597932 -193.1379426909846 -5.083500371331047
36.86030629753225 -192.5261744045735 -5.078294511788518
28.804895651115842 -229.73126825353546 -5.083149727835643
33.011877186554564 -209.95946693469577 -5.098574440736574
33.02071931622176 -209.8741338668348 -5.09473935701707
33.05695132056918 -209.79092082285496 -5.089035461112222
33.03702303584283 -209.69597980414588 -5.08705158181237
33.09224207828094 -209.32891325297453 -5.0703554756408264
33.106645322105315 -209.30917720292868 -5.068657559875583
36.43632941909106 -193.84079724335822 -5.099541401755257
36.77730925318197 -192.41257080589276 -5.084445316742669
28.62719214340378 -229.8226336446489 -5.084512172515556
32.98540664864151 -209.53118836352763 -5.084950497004213
33.052133135914616 -209.3470447511734 -5.07382230505252
33.03550043565892 -209.2227715719792 -5.070857227088121
33.05461141775008 -209.19205792150774 -5.0684927645731435
33.21764041257019 -208.360418721924 -5.030749643805741
32.91820865446714 -209.45119573638007 -5.08701100701021
33.13444049141011 -208.37608825863356 -5.036925603566367
33.17093547716264 -208.25840228455945 -5.030972068462409
36.486876811958 -192.9251082884813 -5.102414031142645
33.11043273061414 -208.14329713927464 -5.031745546691675
33.12739341812921 -208.0708542409057 -5.028526598248178
33.094495455331554 -207.97585839352064 -5.028063026041969
32.95868036275681 -208.28990370174617 -5.046458259499966
33.07968986116291 -207.90955129178363 -5.027214492588088
33.047167461484506 -207.84585764776145 -5.027602431367352
32.66249711138882 -209.260591434795 -5.098814165757757
32.70322303112545 -208.89351916041574 -5.083623530594928
32.83429983720249 -208.5569448318843 -5.063310335711232
33.08591705499367 -207.28533868117498 -5.010142982661599
33.10322273807051 -207.24116437462826 -5.007912170554945
32.6362318822432 -208.8964856582738 -5.088453023199411
32.63834601747138 -208.78941616615026 -5.084764003418815
32.722514919421485 -208.24463434876787 -5.061413717349947
32.73386986578449 -208.20271551714882 -5.059336416783864
32.98605101445085 -207.2864805986873 -5.016699779117181
37.94740503872318 -184.14055765656875 -5.065820769824644
32.69465423322446 -208.12194247630555 -5.059590105634153
32.853419003466776 -207.36013795796475 -5.027342411400044
32.8721903847132 -207.31852314544943 -5.024993807900768
37.843978021343084 -184.07673306317838 -5.0723833971911025
32.740532854352466 -207.15740688010362 -5.029455850985317
32.48689893430221 -208.21931395137952 -5.077024865620535
32.50843384315952 -208.15440107077228 -5.073513541224122
32.34200833891819 -208.2582272298339 -5.088398330319572
32.414057824570534 -208.04992787538808 -5.07682603591847
32.25698023074891 -208.28452195656808 -5.095236296183622
32.56258445709294 -205.62166868500518 -5.0039244003890975
32.450131188249195 -205.3930201250628 -5.005813375384281
32.201345631544825 -204.6571485580126 -5.005234211784158
32.202081739866955 -204.5995280291742 -5.003971268340225
32.22780165992839 -204.29099331240167 -5.039991489316762
32.2006480979991 -204.3174463039349 -5.042739656856807
32.086313266655246 -204.39717973969996 -5.00675108607707
31.5518594580426 -205.4169952683728 -5.062648387049393
31.381908697111257 -205.45230381382243 -5.074429502608641
30.25422762661651 -210.39350920970068 -5.003915692817502
31.353293536559967 -205.4760103485304 -5.076896922358454
31.371148156711236 -205.38904456643212 -5.073584264677527
31.441811601972653 -205.00875392437476 -5.059890875146834
29.997508985043048 -210.41846249496075 -5.016455849053767
30.048056854814995 -210.38319697273235 -5.012275459572555
30.065574003105702 -210.25278170369882 -5.004175507978646
29.916984800697026 -210.5310685828113 -5.0263386358855735
29.961716440309466 -210.44253975298054 -5.019381115247658
29.840222930817582 -210.57925674308157 -5.0324139391633125
29.48678703772472 -210.34487229277565 -5.034479371618506
29.21596708989945 -209.83003260756686 -5.017271223993244
28.719804477162715 -210.3611960146011 -5.068774692577215
28.77117394068319 -210.33749643376137 -5.065199840117708
28.628061268029775 -210.39462258005136 -5.074684894790815
28.074190665580687 -209.42254393522822 -5.043898261266174
23.784573697568973 -228.90378486506182 -5.025407468929223
23.80840729242157 -228.76847867634143 -5.022159814491599
23.786472803778583 -228.683094654948 -5.019482311153248
23.752840209507198 -228.60833465228538 -5.017181800877131
23.685163773617262 -228.56978984899212 -5.015218719442514
23.587287410044606 -228.55731029364242 -5.013838090693852
23.40439796775378 -228.6319177164612 -5.013579835861444
24.006263804079076 -216.18116584917314 -5.0983622515829214
24.036163127930664 -216.1195527661683 -5.094452238165056
24.031759472475983 -216.03894234602816 -5.0897572037275
23.986814336952392 -215.967819563453 -5.08599767204803
23.91599370418627 -215.9290550657267 -5.0843655640688405
18.689570606034476 -231.09665095955353 -5.022684079164824
17.761676366167695 -233.99007672357058 -5.093179418835179
17.712862874323733 -233.891915000929 -5.09000588260841
17.622447138512424 -233.83648361460763 -5.087184724695477
17.682379082334297 -233.33923528018465 -5.074107385180434
17.82717463136603 -232.52520858135867 -5.052546625789466
17.817188124496056 -232.27117920653058 -5.045030421348849
17.904592796591317 -232.05779881294478 -5.040121669870132
17.40379436246936 -233.4610734873091 -5.073838424781493
17.50935220426304 -233.16024614925365 -5.066687164304026
18.033578158177388 -230.7828487829804 -5.003804250159857
18.028332092372374 -230.66497010343906 -5.000257130435204
17.975524404146523 -230.58943911254167 -4.9970434321439265
17.214741560702517 -233.22690521996327 -5.064797032091136
17.028559147943525 -233.12202955692376 -5.059272211233956
21.027559933768014 -204.00931656605906 -5.051214662752783
21.000303613262698 -203.92050267168818 -5.047708496841239
20.98753432127081 -203.83907262492605 -5.043897470654669
20.584580756837667 -203.475685180619 -5.041649789852744
20.074462739924204 -203.04302260535707 -5.040265024731591
1.5923237399752708 -212.70414266967498 -5.092631454982011
1.539640647892199 -212.83250891342414 -5.101021419552564
1.0940976126605264 -211.65523600164641 -5.032113236497043
42.00715842990318 -235.15056404214798 -4.980215190571811
42.270498292806494 -234.28937934150557 -4.96029277175557
42.13616612465431 -233.88267613888038 -4.958932471651035
42.05652635344467 -233.84574325814353 -4.961143737447417
41.56006824087403 -234.62954026647245 -4.98721573187545
41.36063872370827 -234.17083255828004 -4.98712030114686
41.48179158097815 -232.77196626650252 -4.9647188191427
41.41129683719251 -232.75421276081778 -4.9665000873450085
41.29968835668411 -232.96229922454094 -4.972673321280372
41.80918466103962 -230.40657294810345 -4.922268952382038
41.744349111187844 -230.39029068983464 -4.924038380567492
41.904231940332345 -229.53977942011963 -4.907215868840655
41.81526455197723 -229.51923263646572 -4.909829735983627
41.728366461863885 -229.51215820603696 -4.912540636892028
41.862563673268674 -228.8141720886856 -4.8985208091026395
40.82715863307696 -231.67799033996673 -4.969817689173207
40.758026783621894 -231.64214755892968 -4.971224243499865
44.06122192279398 -216.1676339465176 -4.930324031155335
44.07371863836458 -216.12907898261457 -4.927012904440907
