ply
format ascii 1.0
element vertex 836
property float x
property float y
property float z
end_header
36.98873692540266 -215.04591402366822 -5.248079418698828
28.842615566584062 -229.3645611199876 -5.265298921695023
28.70014167520284 -229.2286098347617 -5.282093395657514
28.578509917399696 -229.22068324603066 -5.296630047477602
33.860110355382204 -195.2416761077012 -5.232800936471362
33.89880538133072 -195.18017884626744 -5.231446779763049
33.80229944694936 -195.05704405543338 -5.2393771359335375
33.34644642031856 -196.5305660333596 -5.249899988332571
33.4349699412407 -196.262532852057 -5.246349426263374
33.49155011921578 -196.17683261884568 -5.243579541747512
33.53010553110827 -195.9796282389092 -5.243165261104142
33.53023886605362 -195.8934565742132 -5.244088264223649
33.50748817531905 -195.78417284177422 -5.246869927061496
33.738278760270504 -194.99358449934317 -5.244433405384184
34.133421395272855 -192.66191704812928 -5.28020654537076
32.89113872614022 -198.46615612957314 -5.278464284401834
32.92089912317586 -198.42313342186938 -5.276224499558143
33.33741773770687 -196.47371230235328 -5.250817723802432
33.35839856589033 -196.18291880051552 -5.251939719904363
33.38401573031947 -196.0529685434053 -5.251494092314734
33.39144355678969 -195.98654244899566 -5.251793748995266
34.008095488391255 -192.73366030230306 -5.285245702234064
29.30880748194855 -210.41674567660613 -5.238389421591534
32.71049180600664 -193.91191646758875 -5.328292342097282
32.799364114921985 -193.643691288655 -5.329693224226201
29.209391566554913 -210.2847696504826 -5.250292140948932
29.00940215484208 -210.25648191491229 -5.273619852354512
28.979587159683916 -209.9001538641588 -5.277880077692384
29.2278382206136 -208.84489990109094 -5.251302473001838
28.859233552159516 -210.16995212879712 -5.29134558807499
28.877299084532645 -209.99577484260433 -5.2896318610422615
28.981607621114588 -209.67582556679235 -5.278058908681575
29.114461662487486 -208.87278872229038 -5.264364601129216
29.154688361036676 -208.80232191067472 -5.259903319361915
28.703093593574362 -210.30449048717355 -5.3094398834968315
28.75934679250869 -210.02434178514585 -5.303377895615135
29.040203869599278 -208.8238294583215 -5.273121911307231
29.342198902871935 -207.08928683339624 -5.242612157021975
29.400600150530433 -206.94553914711176 -5.236343753423795
29.397461087476607 -206.78519158648504 -5.237170898246569
28.637639368875142 -210.2959494684244 -5.3170759689564715
28.690845108411025 -210.00051211740086 -5.31139078670785
28.91951529639749 -208.7100628135971 -5.287365933647846
29.309192437150937 -207.14951057607868 -5.246238677270256
29.230714902465827 -207.07514390680203 -5.255412075422613
29.14877720493895 -207.3348294813712 -5.264145306980252
29.16342695784254 -207.03899240663193 -5.263237154289212
29.04510591780862 -207.18384369283197 -5.276428016309419
29.120038915458085 -207.0789750124125 -5.268090677026745
28.992609647661016 -207.18622767767073 -5.282487980541271
33.188829693986015 -186.60822659021483 -5.248353357938468
33.20749848016959 -186.5494903904024 -5.248808227414342
33.209974064584365 -186.35650895595452 -5.256407765081237
33.20144965474283 -185.97010819302326 -5.2731175155471215
32.627053024855755 -186.89355963122324 -5.2916341343015265
31.19466582371333 -190.7269856685639 -5.284822034319847
30.365290910067536 -194.28254675627377 -5.249976634399174
31.10016993240998 -190.73413271219388 -5.2935166246162195
30.326582666580677 -194.21065375337744 -5.255440199830812
30.31120422359557 -194.11190907317453 -5.259409114171067
30.354824316489747 -193.92986280366816 -5.2600728533850685
31.026851006940657 -190.52691197039226 -5.307453911621616
30.26325583791407 -193.99916543090737 -5.266841018017402
30.887272522759062 -190.77170098613774 -5.312285222547306
30.771883579989087 -190.72640572228048 -5.32470537248537
30.846828766740717 -190.55878796178052 -5.323384555866722
30.76595445377845 -190.65430019119714 -5.327749134960414
29.581947011997165 -190.62044145943884 -5.2421120078734775
28.563163968311898 -195.36352298925325 -5.235492731010762
28.554247761798205 -195.2753634073055 -5.239562009038616
28.56816871421251 -195.19983689108835 -5.240264836001374
29.28288397491375 -190.53334668308418 -5.28194257544974
28.999452988571928 -190.53052884847705 -5.317993001957565
29.005742755634607 -190.4440050347345 -5.318979263117075
29.012768613271316 -190.3020624336343 -5.320971748042871
28.96898914799734 -190.4119765158746 -5.324271508478167
28.961961431529474 -190.35974161158933 -5.326265140906562
28.317651637734684 -189.89237122523159 -5.240950497399866
28.334250808370015 -189.84358394845583 -5.238219911041336
24.261981770194566 -208.9733965632252 -5.280839921048879
24.17928961991899 -208.9274198739425 -5.292431177743155
24.095136628202713 -208.91300129717555 -5.303037960484204
27.961365010810756 -190.01088376989694 -5.2958866852469955
27.960163507669677 -189.98067756932804 -5.295917872643897
23.988160037202146 -208.98849458963397 -5.31311409082064
24.04243175256953 -208.92986173304098 -5.308819466637866
27.917243717959543 -189.9286841704616 -5.302191745919554
27.883145224130292 -189.8532069311428 -5.306981691752096
27.92973901386423 -189.74091174143615 -5.299312039540163
27.934790941564614 -189.6539454808011 -5.2980385825685925
27.894649630204814 -189.6104542020155 -5.303788732905427
27.891341858044782 -189.51614240711706 -5.3036390540491
27.929544386922743 -189.40017118611428 -5.297090361716791
27.929068429300933 -189.32298795165119 -5.296576855608432
18.153556897080207 -230.2178410800884 -5.231704169284627
18.03711411456632 -230.12502875869245 -5.24897798235725
17.28425526408805 -232.843539198937 -5.238970019244862
17.90737836551726 -230.11064839720058 -5.264725947618335
17.632649649213363 -230.19763158194323 -5.294028792608762
27.39567060057861 -182.54281540072083 -5.243567198920524
17.498431384940936 -230.20340602367833 -5.309787939761149
27.29848011906671 -182.47046902287244 -5.2539925432379775
27.254872469025326 -182.3348290690562 -5.2562641631484714
27.21556518244794 -182.25447727285137 -5.259342117941424
27.17456964858448 -182.1781245589053 -5.262705558064466
27.17610327578341 -182.0097019374082 -5.2586221176473655
22.725577911927164 -196.90035792968743 -5.308028117180745
22.72659378548135 -196.8112863491104 -5.322640706840565
23.156879414905816 -190.4738645312616 -5.288781441818287
23.164709737032034 -190.40220574317289 -5.273920970523223
23.071373509186355 -190.5351475392204 -5.30054161359437
23.12190307663531 -190.5144430931994 -5.296901736026476
23.164501684266437 -190.35642063154583 -5.264350546376426
23.145170122481776 -190.28290594371435 -5.248904706764694
22.98408963086725 -190.56329951911735 -5.304721654577881
25.959626168809272 -175.9910458438696 -5.263803741390001
22.882689075669226 -190.54443743462068 -5.298740357213209
18.593999827175924 -210.73640477690077 -5.231813396138835
22.818711145674577 -190.49350869724697 -5.2871554094836135
18.475479633949284 -210.89515589158202 -5.233260840043077
18.54115916090307 -210.4998159074609 -5.253788439282609
18.464888486885233 -210.52470564097408 -5.260053000093654
25.810104625199497 -174.76549688121523 -5.25227569965422
18.3930042433416 -210.53183712312676 -5.267139326263235
18.34523308334757 -210.47089888457668 -5.276331279181943
18.23012527096192 -210.608528271473 -5.278897353996436
18.228982235876842 -210.4257850118062 -5.291606871561751
18.360840499265052 -209.88060393685598 -5.3154920095893745
17.925402342885135 -210.89026574452205 -5.2912272775312585
17.578384042719726 -211.636142564339 -5.275986034951112
17.49622393471639 -211.65908846948295 -5.282912678817295
17.688707697844436 -210.7640129710262 -5.324491916880593
17.40394726114236 -211.70359882265302 -5.289454899341905
17.583435605259 -210.85865916669297 -5.3289091593403475
17.428419338397347 -211.0774741476961 -5.329883413993577
19.606588916753893 -198.01401320468509 -5.242322719988654
19.599465591780856 -197.91996173263664 -5.255016253224822
20.853096326653322 -191.8278746475555 -5.289458475922894
20.88308502267315 -191.79647511100848 -5.291095140440018
19.55184981392901 -197.86700145094767 -5.262634334795078
19.504756612174532 -197.8315812923628 -5.267842577333437
20.803270874784243 -191.85324017721823 -5.284792317694596
19.41165982885679 -197.8386718284472 -5.26789278670273
19.459018998455747 -197.8275042404994 -5.268882275086399
20.673641481457377 -191.6645573702452 -5.255819026357914
19.31043377783714 -197.90015591981225 -5.260923129042249
20.621894301614294 -191.6757861263278 -5.250224407168123
20.618602645632674 -191.59127549305765 -5.243699675431589
20.6429854781072 -191.50987977285803 -5.240426271069633
24.790319432356004 -169.81923726176797 -5.25218246089026
24.711561754972983 -169.81621250408696 -5.260959503508653
20.01520135761529 -191.56006166187436 -5.335029887137387
19.907209322532726 -191.62705357940786 -5.328493660130622
19.930912869395137 -191.60027938052164 -5.329314415707065
19.966742319405206 -191.47431705101894 -5.325841749496798
19.839074062429688 -191.64090472518936 -5.322725467623695
19.874604026178282 -191.42466101070752 -5.314660863966155
15.168637476359446 -206.45295371330292 -5.286001705618259
15.261383305858539 -206.22062943180893 -5.300636717950114
15.276845653730511 -206.10471360911052 -5.31016546224646
15.257977937806046 -206.03779560334675 -5.3177089244305
15.08744498555946 -206.18159623978687 -5.316899174493256
14.960146449064654 -206.26276194325754 -5.318709032881463
13.888149085477291 -207.64386866856708 -5.269882065771689
13.598965466515711 -207.773466008028 -5.278854737640837
16.61299432942251 -192.5772016773819 -5.297344811417404
16.475185608145292 -192.52709698524598 -5.2882001823507165
16.145525134889937 -193.66454282417394 -5.249318088497329
16.139874806368972 -193.5504465125231 -5.251833068529081
16.133136333805794 -193.46398115455304 -5.253395037274197
16.071614298598078 -193.51060214774733 -5.248043626955185
16.09060270888532 -193.40798400262753 -5.251720043610142
16.08792108307593 -193.32215182904125 -5.25325975245532
16.073053249156786 -193.2365202230003 -5.253822344455587
16.205097053866822 -192.6373474973474 -5.26940570022272
15.961358802561428 -193.60468668121547 -5.238489140422186
15.976202317384278 -193.17999026218286 -5.248172144134285
16.003590033109138 -193.13652665259644 -5.250821561819804
16.058678253346365 -192.8020187220264 -5.258419543094117
16.14390420232372 -192.7061586093022 -5.264803668270426
12.845341610907326 -208.1895741662429 -5.294656959839632
15.922401890045562 -193.07917238422198 -5.245913180537785
15.955480082995058 -192.99132774010417 -5.2494655037908435
16.035149474835368 -192.72999492455062 -5.257441714966352
16.019670151401748 -192.62781675701154 -5.256866323322586
12.670996025616027 -208.30535565627844 -5.296512339022795
15.761986998390283 -191.9190886345123 -5.23769339803076
16.363575185374366 -185.4452149620567 -5.2407117044251335
17.95680171999475 -171.74203606189084 -5.2470764754126
17.872826444499108 -171.7322343677531 -5.254092240049769
17.7331447097754 -171.54115853610315 -5.2562502344753215
17.58088969167251 -171.57041984134432 -5.2716247258691356
17.603366730398008 -171.3849199633159 -5.259266088334277
14.38850173785465 -186.6177904418799 -5.317997898932941
14.424428756839694 -185.83482022583092 -5.267058873005972
17.440657544095195 -171.3929112150072 -5.274360843045851
14.318158401525375 -186.11892414120948 -5.285315679207527
14.360623439911384 -186.04644050858101 -5.280816124599956
14.049242964414425 -186.99026829097812 -5.335957044512361
14.191191615586321 -186.18906740620974 -5.288663849123335
14.209472560820608 -186.04406578149005 -5.2793588284311905
14.298506625061384 -185.79785224180108 -5.263568640798533
17.289145038478622 -171.18573649115322 -5.27662365577816
13.974831745484018 -186.7508479786542 -5.321008787959145
14.015351197876198 -186.67614099837596 -5.317094066040186
13.962104062714998 -186.59466126191182 -5.311434729363545
14.080307374223553 -186.21888513716357 -5.289538644577816
17.161398983184732 -171.05520189188152 -5.280782167685841
13.798911165357737 -187.06188961376728 -5.336259922863054
13.82385476322189 -186.93296770463917 -5.329390292352218
13.940839588786405 -186.28302588056036 -5.292031540096084
13.84201641925399 -186.3190356041546 -5.293166759662019
13.88046481574413 -186.1923968028269 -5.285768062940162
13.817206692409457 -186.09900880371345 -5.279105610287173
13.58861301129453 -186.21145475313224 -5.283681406934774
16.81498083282146 -170.27075735996883 -5.2686953689364255
13.449581023285257 -186.23045808381121 -5.283176327321778
16.681164321027097 -170.1238590235952 -5.272451637144849
16.51679946279675 -169.90740092685243 -5.275282810356259
15.97504092680645 -169.9044075688576 -5.322723631590063
16.032281048343087 -169.8132788993333 -5.31267459371249
15.980542210690672 -169.42384402591546 -5.296153790918005
16.02050562558654 -169.2821865986882 -5.28482784990673
16.04438946995809 -169.08717613831624 -5.272209902942029
16.11209382738247 -169.01270936522644 -5.262065914392684
12.51002514355028 -185.92977176838355 -5.253052816632234
15.7979985323971 -169.91455551779876 -5.338653537926872
15.838243856392772 -169.78219491993838 -5.327891541650356
11.289524597889242 -186.8084754501408 -5.279052563818238
10.955531817067774 -186.7367184062717 -5.269169532644216
14.447263956646061 -167.12729669676244 -5.304917213841324
14.347310509228786 -167.12964239330762 -5.313759551441027
14.11749870641233 -167.07190358574096 -5.330307233746789
14.194937806282875 -167.00035998029452 -5.319730589444989
13.891080696927716 -166.7769676310212 -5.333667997725296
13.203791192496526 -165.61437538530075 -5.329975315391937
10.532717453959709 -177.37141789748793 -5.325102333478645
8.026632559374281 -189.0653445976379 -5.271741156734024
7.9723250525772755 -189.296523441022 -5.274525343659347
7.988550694068547 -189.20829122514436 -5.273235765427928
8.001580613927555 -189.1181076505282 -5.271760526626246
2.0196460453426077 -217.08021477700487 -5.243069801767781
1.876178342587366 -217.06661963151956 -5.2534824405988765
1.7834758352108828 -216.99859384538937 -5.265067081580299
12.251353346826495 -163.59752049190777 -5.3023686177343565
11.915542512151609 -163.65200790747414 -5.332056971640081
11.7669981141848 -163.58082893071017 -5.339709223913354
2.8216461131454444 -204.42265009246947 -5.2855769341521786
2.7930247952934977 -204.3422726590807 -5.292241407444755
2.7966311895234703 -204.2453204156014 -5.29918018336428
-5.211923692559843 -168.0942156716921 -5.256973270594141
-5.658090034358871 -168.41292342071614 -5.285632373491683
-18.734382919263435 -207.5076786372273 -5.314850559101437
-18.66263725396973 -207.3177646887616 -5.325427058505747
-18.809099881333548 -207.69923827921878 -5.3020030153111
-18.85750791777731 -207.2184267171312 -5.334795151023707
-19.05235467604746 -207.1235491092322 -5.3417015329606174
37.27608195438441 -215.0159032825642 -5.221014445015574
37.65947027805706 -212.74522809173607 -5.132678734463506
37.49289286795178 -213.09070883696486 -5.155217899283242
37.591110619353536 -212.79109675784304 -5.139830323006478
37.4413462998392 -213.16006055755028 -5.16150001647495
37.44196601156543 -212.86357610601604 -5.154576343609855
36.7525906635398 -212.38364885353008 -5.204254602652187
36.73329973484417 -212.20601335284246 -5.201674735146786
36.16884037445596 -209.15747281643917 -5.182644160895864
36.36992009074144 -207.766490392906 -5.137634300849091
35.29066360545677 -201.54301670089484 -5.130736270246849
35.284428970827975 -201.35500102837503 -5.129257874240387
36.02241978138876 -193.66492006310304 -5.1384883948854965
36.057309692795016 -193.56560788824208 -5.139056398724665
36.24928780839336 -192.73630634449268 -5.152628027994267
36.46572263744105 -191.42688185455486 -5.186943865010908
35.789084968545694 -194.2878039404094 -5.136386547169491
35.926770372479496 -193.61993495151344 -5.145154306925667
36.0548633346161 -192.92181493317932 -5.158315813982098
34.44495847493356 -200.07112145381143 -5.1788764598038926
35.88652790088004 -193.37962800188458 -5.154321009662701
35.88281743200902 -193.18231889833152 -5.160597771139665
35.912331922881044 -193.12281024896467 -5.160531157979351
35.973515327850144 -193.06301586916817 -5.158617242472002
35.962351992020665 -192.8645300694588 -5.1657202822565145
36.29703475184814 -191.38740236129286 -5.198427160031246
35.72079633160122 -193.4927930955108 -5.161120617000976
35.81943724360569 -193.2983993566158 -5.160809499304746
35.68032136914041 -193.45311172482099 -5.164416994502538
35.75243321992613 -193.21975904439626 -5.166944365203756
35.7418205012214 -192.9832024878575 -5.174764948045771
35.61191206286288 -193.41196113640976 -5.169861470694667
34.0941010994794 -195.17104819716525 -5.219675398055635
29.731393909997298 -209.6905018384524 -5.191131643186424
29.662694439977315 -209.66831400663537 -5.1991384101936555
29.55706951293435 -209.72856796312124 -5.211192342743538
29.584697421735136 -209.61534334158162 -5.208237400269364
29.58749225383501 -207.1625519972329 -5.214406047082908
29.641647970316562 -206.5783647009019 -5.210017509103174
29.538239808246118 -206.88038136743114 -5.220851150815522
29.571325172021478 -206.82327445974394 -5.217250442309492
29.580992522011602 -206.70002450603914 -5.216528841857117
29.586712921719297 -206.57169374901386 -5.2162674720280515
30.87845782951286 -195.4195540511038 -5.175472608451121
30.75191583379353 -195.47325669991636 -5.186555455623705
30.79839016669515 -195.44045334096862 -5.182683390562601
30.605709170874555 -195.58950972835498 -5.198313790619304
30.66173814426039 -195.463501735223 -5.1953430513852
30.432460026408187 -195.81547818189415 -5.210840144666379
30.47922174211544 -195.7740564829334 -5.207098071217687
30.52304732391849 -195.68089960820387 -5.2045854436570815
30.581248733435885 -195.4815722353677 -5.202796884984431
30.76675409634627 -194.52684763747115 -5.205903467647179
30.57083170817106 -194.97930810416298 -5.214212419028185
30.564028299391364 -194.86738913871574 -5.217310815353102
30.552970454925617 -194.7831191498666 -5.22024289470859
30.562174664847547 -194.64871378338924 -5.222454100415345
30.61563425306288 -194.55934833468737 -5.219487662526136
30.535751132794463 -194.73171391050911 -5.223112618024738
30.531912185408626 -194.69663377702793 -5.224236811371236
30.55396853527092 -194.60114339413812 -5.2244124374451175
30.111228471001468 -191.4814475580581 -5.155755536218765
30.131727647726937 -191.44362137011575 -5.154010940779277
30.059653567073795 -191.53812717875093 -5.161055104796645
30.19503890257101 -190.87015608771986 -5.158680796263448
30.174456548748037 -190.78619906428358 -5.163152719047605
30.293063732971042 -190.4130644302677 -5.1561064729747095
30.31555637608588 -190.36605229069238 -5.154274098380483
30.332169368772846 -190.23413856829706 -5.154970048942897
30.32271526603384 -190.09863221073078 -5.159006214878514
30.326750882703376 -190.03294078896482 -5.159882688575408
30.346228086000686 -189.9304383638392 -5.159540159313534
30.02493880176047 -190.979230235323 -5.177989192273973
30.05445520337377 -190.76642332751766 -5.1788899567726085
30.108972654080198 -190.62784307789352 -5.174904380919851
30.17318098966979 -190.4085963732202 -5.1714333455842185
30.307526066963785 -189.9124811764813 -5.164855953276584
29.940238096126674 -191.15160106379108 -5.184979993243504
29.94945454492647 -191.1052666605692 -5.184831428867773
29.966626473937296 -190.74621634681813 -5.190491052400368
30.13891515592453 -190.22957767386973 -5.179579028051251
31.374324745116546 -184.20420188269958 -5.138252566573665
31.3488812759122 -184.1066715022928 -5.143192868090416
31.33489353200438 -183.99425368475534 -5.146777835602905
27.70592274996322 -201.2968109735941 -5.134620299848865
27.723625018566167 -201.21436725333422 -5.13535059451216
27.769026356729906 -201.1273459446332 -5.1327557820442475
29.902057699782706 -190.76164615638478 -5.1983589729072825
29.938097785470116 -190.66814760858986 -5.195806601294175
31.30149175067082 -183.97629850688907 -5.151375015197294
28.850207878985064 -195.07915336525986 -5.207774108765827
29.75148675203499 -190.7175185847503 -5.218516958462588
28.750946392785124 -195.11002782052228 -5.219608958746309
29.721609233799253 -190.7088881415928 -5.222464107545417
29.68404980818959 -190.61576410247713 -5.229269990338694
29.689708214866574 -190.49053666076367 -5.231184092726723
28.614823943420273 -195.4493933949961 -5.225970766974715
28.581863619736133 -195.41118235143506 -5.231530655795914
28.666619790013925 -195.17622665087717 -5.228317612501999
28.715925748132356 -195.07162624550304 -5.225423167596521
31.839702962272355 -179.05976117770982 -5.15809063523194
31.920794659209985 -179.02369592856928 -5.149374893502838
28.951764022854043 -190.96914515357307 -5.1398829986073595
28.84721630911123 -190.72163930464714 -5.1578734350534905
28.874610541906826 -190.64750036873647 -5.153843894587304
28.89678783939152 -190.53377548444868 -5.150751291021072
28.89913904223677 -190.46005643514346 -5.150628959045929
28.97327215272084 -190.3943122621214 -5.1390866951000955
29.01078179839347 -190.08679393922515 -5.1337961605147555
28.714380723611587 -190.88816460801496 -5.178155974517452
28.73034836670201 -190.8327819787533 -5.175885048773254
28.954710814792485 -189.85921078235947 -5.142542322435609
28.936891558033842 -189.69359604405363 -5.145099063963754
28.82510439214201 -189.74119419350896 -5.162475670842405
28.790374652891078 -189.57419957355083 -5.167448250792879
28.859420145688638 -188.99652167676112 -5.154642560678123
28.407038613477155 -190.00934917788229 -5.227515244835913
28.411884174753553 -189.93868307916117 -5.22659417450338
28.50876986845214 -189.64945278061376 -5.210870422117947
28.507645351237162 -189.57712116070323 -5.210752499444149
18.7390250407086 -230.66939428555108 -5.1460241455915785
17.94133136507663 -233.10122529257023 -5.151727261730143
18.028214367343303 -231.74578087620682 -5.190973329470571
27.899852125789593 -182.3196303902585 -5.1758353768749235
27.787770967896687 -182.4179865677047 -5.192010423079827
27.83884071553795 -182.38393300841278 -5.1849883575001785
27.716671462211433 -182.4543654335748 -5.201741897581877
27.565971510580077 -182.4963324481461 -5.221486164743488
27.63657994894441 -182.4591048803132 -5.211827476970692
27.46735019953127 -182.57150611769205 -5.235390019785276
27.514291898655742 -182.54147844153604 -5.228799113987211
22.725786751666373 -196.88804702040733 -5.159326804382275
22.72359293021641 -196.84187253284875 -5.168561604339661
22.70972606012668 -196.73683712866656 -5.18986004963196
22.66888214798796 -196.67651745041502 -5.20333581855507
22.62968594478069 -196.63266069258526 -5.213352532757483
22.54936149461125 -196.60787583010995 -5.220935940655348
22.424993466640117 -196.61739035773698 -5.22298904545927
22.46056749507682 -196.59676937939636 -5.225851572503939
22.33232248301974 -196.63625270522996 -5.221952576287849
19.20084369163366 -211.1673087282467 -5.137176108551551
19.099970912644856 -211.29007696595897 -5.139444681899927
19.11398890700969 -210.79845918271326 -5.172289395229801
19.01461269360117 -210.7905017790053 -5.183423092618319
18.91545196897778 -210.7779628512271 -5.1948382262356665
18.92453377503662 -210.54216119595802 -5.210330446693448
18.73361902293909 -210.9326184961179 -5.203376555330104
18.681270710594692 -210.87816954525846 -5.21274350141047
26.110505173274404 -174.9570324226301 -5.221978666015254
18.616016701433608 -210.8655544561101 -5.220489363276815
19.565551620998157 -198.12370960929448 -5.228152420932711
20.6369576202157 -191.4539699640198 -5.235245162230363
20.636507405135802 -191.42270287192093 -5.232573656002105
20.579578612365218 -191.35878423930131 -5.220435263942613
16.610599073243517 -198.94224158104922 -5.142577197676737
16.542665739503313 -198.90679759577426 -5.146579915681672
16.45432511837196 -198.86972031050541 -5.150668727733185
16.477967949215664 -198.85307577416822 -5.152608437797947
16.31510385852343 -198.8871417063237 -5.148222469215633
16.15891677771777 -198.93320793995753 -5.142450550209829
23.141606643150205 -158.39384986443505 -5.1666756171774795
15.623337455792138 -194.45308132549036 -5.183507410542249
15.521767099914694 -194.49936634596688 -5.174142454027994
15.54741272974857 -194.41958817951982 -5.180418412692416
15.592430813060064 -194.3505147542206 -5.187119128963639
15.530719112752404 -194.24914311532618 -5.188415815748167
15.56673573114035 -194.08840259183887 -5.197249025565754
15.595307466430313 -194.03951229802323 -5.200933469510012
23.016501996702125 -158.2846720631738 -5.178102472666101
15.405592022688602 -194.71178360547535 -5.154296820736879
15.418268641827096 -194.6130384707773 -5.160975985587554
15.428242357653795 -194.54547057350146 -5.165713722325281
15.452119937448582 -194.30707732384215 -5.180390089152233
15.463185594710568 -194.19463329231215 -5.186562287692649
15.528759969666336 -194.1237651287321 -5.193719450749052
15.524405121565321 -193.93786724828513 -5.199573830151219
15.356254820606148 -194.20797098664917 -5.179187220874365
15.623312625175851 -192.84884128197376 -5.228343705579577
15.391952162679573 -192.89071615376648 -5.212266878275453
14.832674921388769 -194.0381456136182 -5.149600722935214
14.799312187784444 -193.94267528841442 -5.150544869591899
14.789912552442935 -193.89376825678096 -5.151225912682821
15.068209249349549 -192.91770496827237 -5.189688520390186
14.732945571172875 -193.84808688067858 -5.148564182509023
14.650749249396146 -193.82130943737909 -5.143994978491348
16.352032577898445 -185.27454859830627 -5.226578862068937
16.307039071266658 -185.1773506939169 -5.21869167977376
16.05662772892206 -184.65430768021267 -5.175984332836997
16.030749126103746 -184.57017649646477 -5.168958371735966
14.492699427678195 -191.45637455128286 -5.147931645831314
14.39529237337515 -191.54660997458458 -5.142660372280038
14.319365199690715 -191.6062169927955 -5.138497680108942
18.363477124849044 -171.194567183912 -5.179075284143926
18.388975292961977 -171.00708867117413 -5.166252907886219
18.447583367143782 -170.9330687372829 -5.156570861880079
18.473699918105282 -170.72524495274064 -5.142510108750437
18.31430369544301 -171.3059276528807 -5.189934957046392
18.181645587994826 -171.4103587018139 -5.208021347440964
18.205103589621903 -171.2101359938591 -5.194605734836592
17.96792433156635 -171.5130512402217 -5.233265531994745
18.094133792447238 -171.39004488659378 -5.214863527974419
15.223703368191662 -184.49758905803586 -5.167554696619707
17.955912321651294 -171.2015617459856 -5.217106232706353
15.133713840504313 -184.47134154147426 -5.165730451620512
4.542002035103415 -216.07050164143706 -5.16506518458855
4.5004762391420385 -215.9578973062281 -5.177532734145725
4.42818752241439 -215.88172107777402 -5.188970716746024
4.306133515697809 -215.8650574508871 -5.198400112258388
2.505392722680998 -217.73214093509856 -5.155922038136576
2.6189224454832676 -217.2652733302013 -5.188605163753713
2.2464708978288 -217.84971278721451 -5.162707692423343
2.0387825284270384 -217.73563343119378 -5.186031319825611
1.927683753751623 -217.686094809075 -5.197547405533442
1.6147642315571993 -217.85509562325143 -5.203307927189988
1.2949097237845848 -218.02811937398937 -5.209288673477664
9.771980845047361 -174.29743429352843 -5.148197708103854
9.692155523316458 -174.32958433763284 -5.15382802370261
9.260575570605019 -174.96709302568138 -5.214371555700821
9.303165152520682 -174.89486821460483 -5.207943670459635
9.324029370866123 -174.79174657108703 -5.200112675507387
9.375581630442431 -174.0626106970455 -5.148386600627205
5.9966808873343425 -189.50557235584395 -5.218223534489622
5.951092206167189 -189.56326559503992 -5.217223287466227
5.991392765570051 -189.43810019741338 -5.216800888961606
-2.617477150408586 -207.3920062281253 -5.13827483854506
6.25291577513104 -152.7486802408684 -5.223432875615543
5.9702308667263 -152.4992512329106 -5.2322236171908685
-5.4899954069004835 -207.491974041532 -5.167939111089363
-5.489327269079425 -207.3642544670136 -5.177352904885491
-5.583635572691783 -207.2827636734661 -5.18389100819881
-5.749221647591661 -207.23661529115236 -5.1893744220673765
-8.025153787899693 -208.0243221118096 -5.1600347144173035
-7.911699232334211 -207.70540594414518 -5.1808014020922935
-8.004732109404149 -207.6161704964134 -5.1875338729093805
-8.264216458431132 -208.2786664123901 -5.144618880471233
-8.159840019531647 -207.94689951607015 -5.166519270635847
-8.224400820407116 -207.5756604836148 -5.192956119809943
-8.437270407457415 -207.4004539574799 -5.206955300435297
-8.49663718199464 -207.29420755874312 -5.214287837821429
-8.632818324466502 -207.22076034077543 -5.220857538067326
-4.912851985248967 -167.4679280191272 -5.214409144780316
-4.919477393732446 -167.2871511734686 -5.204584617478414
-4.870565417885359 -167.1528055751837 -5.195611849933572
-4.871812052169936 -166.97033428210818 -5.185440484077812
-5.169518840988964 -167.95707984879724 -5.24828172927061
-5.040085497983114 -167.53524426036674 -5.22170830219077
-5.1921249434777685 -167.58296007259844 -5.228363080394108
-5.4294475098290995 -167.55889586174487 -5.2335022566045195
-5.349190880533989 -166.3609577236175 -5.1643383019178835
-5.260937857233582 -166.2538171395143 -5.155801772265281
39.23106266739839 -214.12901517913042 -5.027165142538866
38.38526079157538 -213.21779177809094 -5.080160276614903
38.46299033567456 -213.1807709474318 -5.072769327589241
38.5371973705673 -212.55627976793855 -5.052711320451035
38.343498827437074 -213.30741870300875 -5.08591383211847
38.17149498113007 -213.35713207947995 -5.1019825432532055
38.195730897523944 -213.24146320785837 -5.097133312298836
38.03790099604506 -213.61755164233034 -5.119447996362653
37.41400534821559 -209.28672433676894 -5.080565831139111
36.89974594371006 -207.38317201388148 -5.087424371653176
39.20721007379839 -190.84418095045052 -5.046289964061334
38.392427780495076 -192.53079671630093 -5.032918815617198
38.26891698294122 -192.4387420689891 -5.0432859676905295
38.59020267468709 -190.98699078938412 -5.077136017419796
35.65686284580114 -202.21135182192822 -5.110873694612321
35.654872526501165 -202.0500402954541 -5.109209664213059
35.635359601363746 -201.2625925750744 -5.10296847421824
35.43630016082521 -201.7197836334795 -5.121786596924274
35.44583538896821 -201.36035832079727 -5.1175567733752665
35.46132914443278 -201.2830515680047 -5.115768665902854
35.4976586533137 -201.22070877899884 -5.112626264700273
37.37632088474938 -192.02967429262233 -5.1102889470202895
37.419075344667654 -191.66366494687503 -5.1211314301165896
35.352163315508946 -201.49796296728195 -5.125741807835342
37.41310421680377 -191.57198340280527 -5.124926209173388
37.40345912831005 -191.50606059308092 -5.127866375471342
35.30806380377289 -201.31412880225966 -5.127219507705633
36.705372343517226 -192.7650140252309 -5.124988622351886
36.29274623644306 -193.82441624823775 -5.118076611907735
30.42670030756318 -210.02512286893628 -5.1104880921313685
30.389415449617307 -194.28655187591679 -5.034520663256457
30.358698896807965 -194.25868003545733 -5.039285662737715
30.438237881797335 -193.90819079728055 -5.040272069398684
30.32137549009711 -194.1978221481528 -5.046119207045792
30.304781528960604 -194.09843790819002 -5.051448581379727
30.32164658892693 -194.00652093032227 -5.05218542086817
30.367991748604727 -193.93993100930186 -5.048284132670751
31.96910707575302 -184.5541201357385 -5.058219763635657
30.65294812736347 -190.64259924358797 -5.105302164357335
31.89253490105087 -184.52233492849984 -5.06832362804968
31.740783268374646 -184.5792753063556 -5.086194997098013
31.737845753666846 -184.49247140875514 -5.08803452961359
31.67419109391813 -184.47753861416274 -5.096280270495692
31.62396280796132 -184.44817225218904 -5.103116624371041
31.653049709794907 -184.35288326723912 -5.1010472612152356
31.62798374525589 -184.29063915065336 -5.105329591799735
28.050915691039236 -201.09510476391878 -5.098355393281513
31.467276483371244 -184.33457949456994 -5.124437077319524
31.54745614552448 -184.29681562854643 -5.115287132743385
27.95492426578386 -201.06394737704562 -5.111584771226985
31.421319573256064 -184.2988641903337 -5.130839090225218
31.407888845006823 -184.22303202886337 -5.133901194642539
27.862617213431093 -201.0798335104405 -5.122660652376107
32.2418654666088 -178.65879526600713 -5.116714856164648
32.25672552946033 -178.5100688366642 -5.116582273529374
28.801748357140227 -195.0271681395948 -5.0466929487776415
29.53224532325492 -191.37385094980453 -5.043060666251067
29.53625862578937 -191.33301909363186 -5.0428891573592125
29.592629790165077 -191.15168145616968 -5.0357004882537115
28.571591889556274 -195.49265982442665 -5.06069931408851
28.66610221410086 -195.17393548927544 -5.0614940348585895
28.695208392643927 -195.10546222725014 -5.060140460042332
28.690303275330056 -195.03038960609433 -5.064533264391237
29.461481813771073 -191.45585240103492 -5.053529606010178
29.478575697985143 -191.43090993727628 -5.051090136068342
29.553391331677126 -190.88768268566292 -5.044325816722648
29.57586581794031 -190.7395581885714 -5.041856365914704
29.59330935379575 -190.69864109560746 -5.039329471229137
28.545824064244474 -195.43770308059578 -5.067652138220828
28.54278817307506 -195.37923318897452 -5.071076818069082
28.537008956398914 -195.2740690063349 -5.0772974274473475
28.550032718478832 -195.18877676536889 -5.079443095895014
29.391726073337164 -191.2566721531066 -5.066973578706021
29.436097453410284 -190.82506198195588 -5.0635430936673504
29.492526501892662 -190.82055899509746 -5.054596844767592
29.40453585779951 -190.65012084183067 -5.069722329667188
29.435191733952934 -190.59196792054266 -5.065205136805247
29.281504223742786 -190.64748212473341 -5.089293489617213
29.482761936913214 -189.7502572632902 -5.060256983547929
29.174424865016867 -190.6810160089326 -5.106174689278894
29.04771401404723 -190.3290524241979 -5.127586219684286
29.091595077020767 -190.27077221201245 -5.120805228254568
29.07766951247838 -190.15666944456962 -5.123206179107947
29.11078383801113 -189.9622381505553 -5.118239799156868
29.014567976514623 -190.1296373049017 -5.133160118436107
29.014104526700038 -190.10679628536235 -5.13320630945923
29.06744524411983 -189.94518057229536 -5.125010001718203
29.052872389194377 -189.837019974379 -5.1272779142510965
29.04217858861716 -189.73721480196522 -5.1288674073873555
29.068273056949504 -189.65459779517462 -5.124739395074155
29.092024850130574 -189.59961864646982 -5.121020451978568
27.950747079676756 -177.633827674045 -5.065004029716074
27.87665444111181 -177.59660101131078 -5.073105934998945
27.260078249044312 -175.72803368798822 -5.104458133907519
22.697474591453197 -196.7355760568555 -5.0428777021766
22.656933992406753 -196.69047674332458 -5.054249322468734
22.619841608941353 -196.64174141410643 -5.0661779495163435
19.546745400615904 -211.3888053146677 -5.0843788252002735
19.515802115497827 -211.25239550548963 -5.097347502595198
21.145376440425785 -203.3834786214131 -5.090702389111577
22.54722963680828 -196.60262397728138 -5.076399008929833
21.05817837748843 -203.23095021042744 -5.114709286962207
22.43573801414016 -196.62254789321867 -5.073625951472718
22.438494528006736 -196.60830056148438 -5.076741742349611
26.855286528265953 -175.06563216425434 -5.13711463958363
19.335279234623076 -211.41260277622635 -5.105590190059346
19.334374797189316 -211.1738722638377 -5.1223713444047885
21.01233287609562 -203.20010330439888 -5.122199084913112
22.34205836722077 -196.63864732988893 -5.071097044771507
19.26828273796491 -211.16778427245407 -5.1299459944483585
18.80404129134433 -212.0615411872549 -5.11716755275782
19.644225993158027 -191.7796568183846 -5.1314594575695525
19.664639607503787 -191.7318117691392 -5.1316439512581224
19.719091150200775 -191.56961591590633 -5.129468997738982
19.56684914933799 -191.55916053435402 -5.109388651023561
19.617675288298404 -191.49304313122082 -5.111894800256387
19.48439557318283 -191.63586848702425 -5.1031557271512815
19.492129066353172 -191.58260691697558 -5.101186016437806
16.529521993545462 -199.13146202884806 -5.1203152962725005
16.566354703830278 -199.04043510183044 -5.131025699267688
17.484483960462608 -192.48200938536883 -5.107857319507957
17.519704566906974 -192.3883586917325 -5.110975650215549
17.52588448168883 -192.29346173016748 -5.110821660077965
17.374252348489684 -192.53314689899 -5.09677678311318
17.473278123374158 -192.22702284558056 -5.104692832857729
17.46484347935909 -192.18906378789111 -5.103451947770698
21.2049941756164 -173.91762867609543 -5.060140596909108
21.259687281502384 -173.83761413588218 -5.050024583473045
17.33946096033214 -192.1103905914 -5.089585099690377
20.84950626883684 -173.07883132571922 -5.047318962753064
23.488456077317 -158.32461893533392 -5.126419388721636
20.349639746109514 -173.09333134220847 -5.097503773669704
20.412934422208796 -172.87261451617212 -5.0786563526890705
20.510215212141425 -172.43829661146583 -5.044116608472069
20.26267462474506 -173.02354001233016 -5.1020356873368735
20.43183616848902 -172.41671600574404 -5.050640111760388
20.11468248588083 -172.99768609134122 -5.11496878580678
20.17638790664667 -172.959965279559 -5.1067813620496345
19.940623877092065 -172.85983993243164 -5.123963688347901
20.0099705658275 -172.8383836960504 -5.11600059857912
19.85274808834844 -172.80581545509972 -5.129329090825852
19.611009980715558 -172.41225416361317 -5.130168129090579
19.52502297721694 -172.35654638500523 -5.135276048258211
14.235957317042569 -195.17526950487363 -5.051289686484742
14.270031207751895 -195.0781743738437 -5.059612465878823
19.1110539194596 -171.62814069419503 -5.133358891437832
19.32406814437074 -170.86188863308743 -5.069599435811228
14.12614273426786 -195.233986406794 -5.040296634423877
14.211252830176727 -195.144335174575 -5.051521894350535
14.2115719018012 -195.0348656377008 -5.0588176733836745
19.10627634311001 -171.27518903564274 -5.1138839596617585
19.1189459836299 -170.99028245131942 -5.096486391657081
17.458779106235973 -178.0957418563109 -5.0473949233654345
17.389585177565383 -178.15030503179025 -5.056007167574595
18.817157962185 -170.78471949413 -5.113550495783988
18.719831763868548 -170.71869965947047 -5.118961446089778
18.625589227532775 -170.67281903692933 -5.125304990207725
18.542865021594878 -170.673792201589 -5.133072896490052
13.914061412534608 -191.28916496296927 -5.107157642154733
13.950560650641672 -191.12697957887838 -5.10687766154051
13.967069929545385 -191.054790160767 -5.106579334990995
12.982210066851566 -193.08269282094946 -5.045595005592743
11.334294349810035 -183.7572824538288 -5.103027062002678
11.325775098320058 -183.54611047713294 -5.088438782634097
11.301683580857096 -183.38929623046204 -5.0774107592034365
11.16320513423812 -183.21695886191196 -5.0646096333112816
11.043662281726467 -183.2716656197558 -5.0676968329471785
10.88642206535391 -183.5779092654525 -5.087454857410803
10.884128226099419 -183.50803089329216 -5.082642691699596
3.541005511501087 -217.3957352779165 -5.116439826105426
11.407953392216784 -173.9257541630409 -5.049340236893179
10.69642536558796 -173.4749210466847 -5.049607149041043
10.558607013153667 -173.49152722264367 -5.057029044575021
10.445535285600435 -173.54520063516375 -5.065947313751475
10.227244976425295 -174.2146764518882 -5.123260097061611
10.260179162779666 -174.12239065485716 -5.115224636151095
10.288277809870156 -173.74071899998123 -5.087064214447678
10.317732213390684 -173.64743739407504 -5.0789878726438324
10.09001113338357 -174.29893914156287 -5.135028395005792
10.199783834848635 -173.7612072618811 -5.092297555979432
10.003613305881025 -174.322522532593 -5.140225931043832
9.860896747052918 -173.4500038133278 -5.085206831500873
9.28491148877714 -173.112836407918 -5.086222987943236
0.19611782267079647 -207.09625631176425 -5.1182376412342165
6.781127223683189 -171.11492458555372 -5.052137731969284
6.513370029290634 -170.94054534415233 -5.051155948008972
-1.4978894937595228 -207.9530819080735 -5.078009616663116
-1.565603505016984 -207.87128876864182 -5.085267135321612
5.94304153962171 -171.32885666687434 -5.0995807578065175
-1.679956738447057 -207.81991165473903 -5.09140765581779
5.816975203229383 -171.33400305452992 -5.104809585082375
5.947394535351346 -170.57163195642858 -5.048721986715258
-1.7598011504652717 -207.7477403722667 -5.0979963397627825
5.661581118872409 -171.45769572219118 -5.118837992244195
-1.8682548562982362 -207.68913461262525 -5.104535721742035
5.451366355780738 -171.51960496980345 -5.130716073140916
5.470709657315844 -171.39082094979898 -5.121509134473669
-2.26449081044753 -207.55439792345703 -5.1205596384412955
-2.3515745635785947 -207.48185645598357 -5.127678787406012
0.6806327737104461 -192.95691163785574 -5.043270078548038
-2.444855188104203 -207.41399111424838 -5.133871302964339
0.5991216434380533 -192.87383256572895 -5.041071215065121
-7.707306098037609 -209.38369391561275 -5.058594809806418
-7.853037280019702 -209.3173467059417 -5.065726868901585
-8.823290175621242 -209.66226598950414 -5.052597584791966
-8.777058185934575 -209.4995159847675 -5.064205278188648
-4.312807948082142 -166.38734908435222 -5.135929929402869
-4.956958038571997 -165.97064492208256 -5.1306891885040615
-5.099515878145368 -166.02548787124422 -5.138066493198867
-5.17229596653382 -166.14686292833707 -5.147083653695018
39.31199754706241 -213.78194101415022 -5.012851291549149
38.60056684973175 -211.02957711182987 -5.016077428023206
38.60320228552957 -210.9050975424422 -5.0135958486735035
39.86355821930715 -192.2570141528721 -4.955072622818971
39.954398861282655 -192.09189149853273 -4.955026641960081
39.91355848438799 -192.01490118803764 -4.960299488687474
39.79700223631698 -192.20828441849073 -4.960341175758932
39.896954141446784 -191.55769617393494 -4.977503207524634
39.68778533219851 -191.47121209825224 -4.9931258924093935
39.72799693230645 -191.3575103098071 -4.994972155731025
38.19718464426775 -194.88732372777073 -4.978961006056748
38.15709342850036 -194.93061748746942 -4.980648494962178
32.27033182635421 -203.7875234012438 -4.935715251440447
32.16917978659028 -203.83891535333282 -4.946099517643079
32.223237404176935 -203.79728261042612 -4.94071509700807
32.08549830677404 -204.00138621216985 -4.953811691991852
32.09682050882668 -203.8564487091317 -4.953610401154746
32.02838672899296 -203.8390200318679 -4.9610875254621005
31.697607707156394 -204.00344379763982 -4.995256536062191
31.81919550103303 -203.737093818052 -4.9839965592986735
31.69569449681939 -203.87731153069637 -4.99624016459966
31.71624079763049 -203.7861982665935 -4.994605007052815
31.737711092563984 -203.73766687622881 -4.9927141119454586
30.824427550590965 -195.4412014971271 -4.940877676067611
30.75773525754953 -195.5047537308211 -4.947381216651388
30.786766292308464 -195.4651017327359 -4.9449194965217735
30.651996689731817 -195.51371435289693 -4.960751424084852
30.47161275545667 -195.76379468616437 -4.975878766952571
30.51901088918589 -195.6844911458367 -4.972354427491113
30.547841642393294 -195.5827155415363 -4.971965279104718
30.57830574893724 -195.52181276358667 -4.969970332569219
30.601881937540426 -195.04390586695578 -4.982484122942301
30.63885192296144 -194.97331311146087 -4.980043643932715
30.711265927364035 -194.51358090586723 -4.985533625429003
30.58298068005329 -195.0023119275942 -4.986326390400961
30.541133118152572 -194.86973126884635 -4.996060151048318
30.541696092112144 -194.79274664914058 -4.998413037752655
30.612151488369967 -194.58133002115258 -4.996155143415032
30.68032117545544 -194.45955164366785 -4.991200149152182
30.625280118938708 -194.42448918231372 -4.999557589637047
30.50721656209159 -194.8403591557769 -5.001381486565904
30.528522710162562 -194.74215929574308 -5.001813588581699
30.536356720190028 -194.66483386921857 -5.003281497349138
30.457536827631714 -194.34395335809458 -5.023786730076382
32.471378526489445 -184.1983711325532 -5.002080144357459
32.44594478408136 -184.16449795442279 -5.005716110692669
32.18838320441916 -184.39424469037513 -5.03383408850021
30.260280281433268 -190.30272709302895 -4.935506248660515
30.098651876027162 -190.9167052971107 -4.956590145537385
30.181317147457055 -190.3160809723423 -4.9480535292384085
29.788871535252433 -191.01486842880874 -5.005426994526118
29.671381936264023 -191.1840708569658 -5.022664354373841
29.72731191653878 -190.9957251432096 -5.0155176444970895
29.74108112801206 -190.92658561344584 -5.013899498503999
29.712220600578757 -190.85209396400876 -5.0191932019850025
29.624870893665545 -190.97425421297973 -5.032169936002459
29.680726690879094 -190.8981095377734 -5.023841670522342
29.673711279088394 -190.7825478850581 -5.025874855064935
29.859657134625202 -189.7511966153705 -5.001230568170897
29.6527965234582 -190.61659178551326 -5.030404727587031
29.041312922578896 -191.19523539621395 -4.947347472637586
29.100581635860202 -190.9252248127883 -4.934205706463988
28.99152806508489 -191.240584607072 -4.957183304958932
28.95779280961607 -191.19306929912486 -4.963518330914083
29.066978612823647 -190.9805589474738 -4.941131532081204
28.830105802173314 -191.19783849921572 -4.988234817724905
28.80074653404006 -191.16602451752294 -4.99372913345907
28.964005471996447 -189.6010203717007 -4.938689495534927
28.959443899102787 -189.55568052924795 -4.938515812109655
28.921910927733947 -189.528835307537 -4.944674734256945
28.92813748203753 -189.42755983260201 -4.941073934628961
28.83561160049451 -189.4396009806099 -4.958151432803771
28.879553607244855 -189.20198492596612 -4.9439046809518645
28.78764199462045 -189.10893060948953 -4.957795917002097
28.798574729727516 -189.00010228640724 -4.952664221854618
28.823687613205305 -188.86150908907766 -4.9440841847737955
28.604598010054552 -189.2779082305129 -4.995307124982245
28.689701248979027 -189.07559590206435 -4.974297457084047
28.71750618924842 -188.84870875878073 -4.962488048987414
28.79052788320265 -188.83517505927335 -4.949147035598571
28.77906333294149 -188.58809540784208 -4.943415139092537
28.57076106560705 -189.16154231175096 -4.997897199339007
28.02642190873949 -174.27953982177337 -4.979113446110425
22.696737356799215 -197.00890248102846 -4.979729720941986
22.703147816445316 -196.92426138981187 -4.999170975618339
22.71757840209122 -196.82644159876648 -5.0213676428678164
27.656663020739735 -171.27574417958496 -4.9537906400833185
19.5649764878683 -198.0849508777845 -4.9845295409487616
19.57254157095274 -197.993146558561 -4.999304998329729
19.57071491328453 -197.94433629991798 -5.007075607969606
19.53407168262962 -198.0828694984101 -4.984544204461172
19.533455553267004 -197.8977465576308 -5.0139911513972795
19.499369983583854 -197.84813407380437 -5.021345446785327
19.423139077705066 -197.84128092728108 -5.021341250764453
19.475901261161574 -197.83848602119954 -5.0225503026051355
19.374791470506782 -197.83697771951734 -5.021269746217019
25.756353189137663 -161.73543908352923 -4.95060479747688
22.011815564254384 -173.38661065330373 -4.946928968354643
21.93924994518065 -173.36136782026173 -4.95299022770083
21.71640423250109 -173.20920374615667 -4.967113760927117
21.78653790254567 -172.9700488850425 -4.945982422959786
21.655333340785834 -173.27207602454283 -4.977039554032983
21.339438442635668 -173.69818508653591 -5.03390539960537
10.045128745955733 -227.4915234037729 -4.965988227866212
9.96478637917995 -227.34964515188452 -4.9838164788303025
9.868769886875269 -227.2461951436187 -5.0006773708650325
20.91660573882338 -173.05677036763166 -5.039335700599232
9.753441628302532 -227.19055308666185 -5.016159565546265
20.596676050480934 -172.50337035224084 -5.039317084426148
20.646600942719132 -172.37627578197228 -5.027027092140959
16.051869592422932 -192.8085617187171 -4.959507608636333
15.879772973090096 -193.24557678404966 -4.9362475112027955
15.886584472598521 -193.18665786915278 -4.937848113964435
15.88344003843791 -193.07075612226774 -4.9394568868213735
15.88944024515886 -193.0119037116571 -4.940863260209638
15.97087627979597 -192.86433554981514 -4.950683910303676
15.987489746125304 -192.8354937401388 -4.952842251873495
15.963282569103285 -192.7199266430848 -4.951103567128536
15.861504214199172 -193.04137322195407 -4.937389678914339
