ply
format ascii 1.0
element vertex 835
property float x
property float y
property float z
end_header
-41.929038676518594 -99.38568958902515 -6.007528356398102
-41.920799221913775 -99.36211112067173 -6.010931019276516
-42.04835245585582 -99.3364408924142 -6.019124111523913
-42.234654074673884 -99.37441601297907 -6.017861782751783
-42.30192564687363 -99.01548763495052 -5.931001929000844
-42.3287764569317 -98.9509702391312 -5.944390034672027
-42.45039735636118 -99.02293106924785 -5.933509603719377
-42.344127202022804 -98.94478415727662 -5.946076972348461
-42.487337727572395 -98.92055022396057 -5.95446501395498
-42.5508403914054 -98.75462750115761 -5.988423378520185
-42.57521561986382 -98.64244471729745 -6.011043576227122
-43.597096634502954 -98.61815639568603 -5.997985552940596
-43.65122830710104 -98.83963546837424 -5.950054080754296
-43.60985810498506 -98.62893833144068 -5.995080912266606
-43.613233327445265 -98.52836349364195 -6.015261165229322
-45.449315965209244 -94.44031879101918 -6.0114718967630285
-45.78307701879785 -95.76286011490849 -6.004981903894857
-45.75396709677387 -95.57745301422041 -6.012527100156446
-45.52633923953457 -94.6558101735599 -6.018651463224492
-45.50942092210593 -94.5501324211085 -6.009859236068133
-45.47948291390966 -94.44315800978035 -6.003246420253174
-45.526320690562684 -94.3937506491405 -5.982379922467807
-45.83474036958876 -95.58343898523516 -5.9887176419714745
-45.7258624886634 -94.8887485418105 -5.984507831484646
-45.66209020413428 -94.88680375641317 -6.003379315523295
-45.70331693302737 -94.73325303461844 -5.97551045167247
-45.68936883906438 -94.58581842905811 -5.962071648048032
-45.61948676787043 -94.42952029923846 -5.960997993803834
-45.576888185025524 -94.3501088243962 -5.961241974875054
-45.789379778763035 -94.69528638448443 -5.945787883753434
-45.76533360908177 -94.55926354258952 -5.936454107752121
-45.731396077871516 -94.39714094962952 -5.956085482955363
-45.67856590007736 -94.30119122659592 -5.924673020945087
-45.86075828923414 -94.69522622732914 -5.924590742156636
-45.816579630292765 -94.45039472894565 -6.005265822823729
-45.79792273192244 -94.3519780250433 -5.997053269794689
-45.79278320159169 -94.30513776900624 -5.991848803454483
-45.80433868381246 -94.23798008755675 -5.979487349095746
-45.8616370095047 -94.37984376158424 -5.98475142195758
-45.845336732816655 -94.19318531661385 -5.962803999035373
-45.80476411415643 -93.89103524909675 -5.924668854131005
-46.04783070370939 -94.35629715888638 -5.934612314129538
-45.95235084407108 -93.93793902823187 -6.005261631347881
-45.93975360608987 -93.89970670246905 -6.002239461588254
-45.968476982950136 -93.85777886343381 -5.990087048947254
-46.1120044444131 -93.99916386115407 -5.980639488826805
-46.2584642263069 -93.99912532702335 -5.949734765467788
-46.205621982817135 -93.90166585034362 -5.9473503285302405
-46.35714585767197 -94.09335535950953 -5.941111715127959
-46.30380167793396 -94.02395008288946 -5.943444771634695
-46.258760784688576 -93.86088691953235 -5.9304940213291735
-46.21220606801188 -93.34511601804073 -5.98479348469689
-46.20602781855505 -93.24968168860157 -5.971517549874525
-46.19654569622763 -93.20694244536833 -5.966498278454972
-46.428973518680856 -94.13577222497115 -5.931026667929938
-46.26021780061377 -93.26953107807162 -5.965682815331331
-46.261196190737785 -93.0620071061051 -5.933791831494239
-46.55005711033422 -94.00931919300629 -6.014454596284469
-46.521452444301026 -93.94407617762529 -6.011894817855585
-46.307864127532724 -93.06044082705475 -5.926085778234544
-46.59441960548538 -93.92365025769395 -5.996460583307748
-46.50934054589564 -93.45174125653475 -5.950475093848993
-46.522570292146305 -92.85648898760864 -6.002926487845484
-46.69755695275966 -93.16887285447828 -6.020562163109679
-46.580235925919204 -92.91736422550562 -6.003618449994658
-46.61196806695629 -92.77534470357601 -5.980445837685068
-46.561422939224265 -92.69477962935026 -5.975859310111437
-46.55676242284597 -92.6088836971383 -5.964524497531419
-46.508265199730246 -92.3867037742574 -5.938923339650386
-46.49996852420313 -92.31445108684588 -5.929440268950761
-46.672976212992936 -92.68363064513785 -5.960115932041697
-46.602053381662834 -92.62187721002438 -5.960624984594795
-46.570983681824494 -92.39142215956895 -5.931955638517767
-46.55777892180963 -92.33421966585883 -5.925337073149838
-45.940578730224836 -89.12745255993686 -5.925184979203799
-46.88047553645183 -93.28941698897292 -6.010341364064625
-46.86057282658777 -93.12377117563355 -5.99283941307493
-46.87756188476178 -93.05575010651928 -5.982018632216456
-46.867501797581504 -92.98602584449937 -5.97456310825744
-46.71199999250292 -92.59370740634353 -5.942824490969036
-46.68543368073404 -92.52107577938548 -5.936085827804528
-46.04499453492426 -89.22617269803914 -5.931152433315993
-45.98499220184345 -89.16755926399429 -5.9275385314139655
-46.914726560844805 -93.05088544799676 -5.976377395393731
-46.93358173865475 -92.92835712916265 -5.958326320874177
-46.83366515875654 -92.57878576095548 -5.925253142776502
-46.13391800484705 -89.27876231914259 -5.932589594417162
-46.07889628497021 -89.2637293420831 -5.933627193076631
-46.97096656208818 -92.88785726866912 -5.948164330729652
-46.341689119794566 -89.79337892451032 -5.978560086101782
-46.33135043838865 -89.7012256237886 -5.96905517940022
-46.2929566069 -89.3729227859462 -5.934964570203785
-46.230305299706345 -89.2636829124291 -5.926096540036576
-46.92437135085846 -91.89937439330515 -5.991676493976229
-46.923434031484135 -91.78479767993707 -5.977733367134649
-46.50534676763146 -89.94077564019388 -5.985738687669223
-46.47024980551868 -89.85101330558481 -5.9779182065977094
-46.41369501566199 -89.79657162165013 -5.975061004552961
-46.332831784441325 -89.3946523826243 -5.9353013832757835
-46.29749654196476 -89.25941711348166 -5.922212993047516
-47.01923235496473 -91.95234957771459 -5.989176324983132
-46.98492896016122 -91.90312407910727 -5.986461807621422
-46.972945266539156 -91.7856918505136 -5.97323508488411
-46.942102665235836 -91.74416358781158 -5.970966206450377
-46.590880075246865 -89.94530378253775 -5.981507851082115
-47.078993462110844 -91.81980700901991 -5.967503734780372
-47.06716478789956 -91.67538734561839 -5.950942273427249
-47.07023482016644 -91.54917097722642 -5.935082406972609
-46.68662349019345 -89.93468042881001 -5.975024181693144
-47.11441579112012 -91.53235957932654 -5.928918476906992
-47.101662526690006 -91.49362246528344 -5.925274552032114
-44.768161677815684 -80.47449191047548 -6.017159632251199
-44.723440850187586 -80.38989208984162 -6.014421013737637
-47.209654861133096 -90.63607184122537 -6.017991494641255
-44.95938651157222 -80.18521382492578 -5.9988525363056775
-47.55568402852669 -90.43741123597978 -5.975929184425036
-45.27976860686563 -80.161454470911 -5.989415500675369
-45.23036339692339 -80.12078938520378 -5.988925958387658
-47.63314029722083 -90.53852206480654 -5.981317246467675
-47.61855249733929 -90.43430698836356 -5.971658762564686
-45.46336860653837 -80.34813332478195 -5.993212654694033
-45.35627734249277 -80.1736966080432 -5.9880442432588845
-47.70678131015724 -90.51406377868904 -5.97413240793985
-47.74230105614274 -90.12518788323523 -5.932257750044349
-45.65136449019417 -79.44290517953208 -5.947189622003904
-45.86591673434702 -79.50870454813148 -5.944752464978095
-45.81041517389837 -79.32384321943226 -5.937668694529339
-46.04706301277806 -79.42580715250058 -5.936330208808467
-48.162668289209954 -88.19579631326161 -6.003512772217363
-48.22632214423167 -88.18066498981064 -5.999919951269023
-46.48335463341845 -79.78506477667375 -5.942112535642636
-48.33135162229121 -87.56424722702458 -5.948203638320105
-48.29172973757725 -87.54188540947693 -5.947906911553673
-48.494476018919364 -87.96279208229565 -5.97298710337964
-48.43124423072561 -87.72857117310461 -5.9572488319226595
-48.41255623121403 -87.58672146926605 -5.946928765366165
-48.61578085480975 -87.90045764612465 -5.963571869491852
-48.56147715007134 -87.81723968743334 -5.959145991456058
-48.728605981678015 -87.80030342422772 -5.951496454933817
-48.71977039346922 -87.53854519567315 -5.931669025286017
-50.7993680389812 -81.3362053213593 -5.921890703616801
-50.84329495854225 -81.37601110556047 -5.922848116455201
-13.385402230420997 -76.36430997329221 -5.909681549996239
-35.798269526036705 -101.68089106818103 -5.8251905722666555
-35.76236936440054 -101.62096568904333 -5.824717842548174
-36.07124340420721 -101.80166935273547 -5.841876274110002
-36.265659650219604 -100.27236506474785 -5.918153725166377
-36.67062343463492 -101.94167069920758 -5.880927455282771
-36.63824316454519 -101.83386726414821 -5.884008014000956
-36.597051578344754 -101.40300202508169 -5.90166493768788
-36.655682529959016 -101.45881325443197 -5.903631082425634
-38.26789916898356 -103.9164728402619 -5.847681376295451
-38.31058642228816 -103.94672725700146 -5.847100100990305
-38.49761529220571 -103.6885453577194 -5.87437754081802
-38.62323637436421 -103.60134573005217 -5.886029801833859
-38.65636388486418 -103.64470538587183 -5.883939993540447
-38.838250845123284 -103.41485539666805 -5.908613153769295
-40.36051148282995 -101.19121155009694 -5.898577869837545
-38.247818695485 -89.8112489814515 -5.899839375166826
-38.24519822410781 -89.73319396572363 -5.889684649756871
-41.02297562387954 -100.02965579274611 -5.866664582196595
-41.09812645249904 -100.13584617614366 -5.855477722866672
-41.2244007316346 -100.15066092078351 -5.8600890363170155
-41.236263368737106 -100.07423497273933 -5.8720790894947825
-41.20582245698607 -100.00807862436827 -5.88030557044072
-41.431432273154634 -100.46375725262548 -5.822008060030711
-41.31044611968236 -100.06439792220179 -5.877337046766396
-41.46310770761246 -100.15369262839616 -5.87089132331521
-41.40404595189666 -99.97863127248152 -5.894815251857311
-41.50990869750473 -100.18766175988006 -5.8676030091398275
-41.46404663857545 -100.02107872039802 -5.891143789528218
-41.4553761181072 -99.94470854668434 -5.90235568278594
-41.899753296386635 -99.37364055994573 -5.846288132635155
-41.98222982705443 -99.31828809132863 -5.86058447694301
-42.07866392723101 -99.20845987907923 -5.885698611908607
-42.15821718947379 -99.36242158321011 -5.859025351363651
-42.129515991006585 -99.29925321592589 -5.870240333798252
-42.12549082715389 -99.18099928895761 -5.892836717971967
-42.23012855829216 -99.21111870453268 -5.890739204901604
-42.21140102707277 -99.06546232461878 -5.918299128480284
-42.34726018852429 -99.34559978861961 -5.867763588632062
-42.33585785009552 -99.08645417839624 -5.91821632717471
-42.397966928632364 -99.19009548800817 -5.899496714853859
-45.70084235881984 -94.27925217870181 -5.9149006143615335
-45.689052480810034 -94.2696416254304 -5.9167293744508
-45.802282985943144 -94.41617709389175 -5.9063783563164876
-45.79167467603396 -94.16729833947905 -5.8711352765281415
-45.74507367181048 -94.12126489487564 -5.876379191867437
-45.72721936262769 -94.0376696031181 -5.866706735536704
-45.950308381326295 -94.67922039998999 -5.896364135795805
-45.87416035328645 -94.41005305624955 -5.884718003941005
-45.83519255736147 -94.07296732873307 -5.843042262657094
-45.80031342931958 -94.03060309031733 -5.845320949081251
-45.83619070773633 -93.86412645064803 -5.912618468703727
-45.961446238137626 -94.32543046347152 -5.847423347573902
-45.944887263901194 -94.16052063657253 -5.826867342836805
-45.88610559575113 -94.03056209313075 -5.821585719894635
-45.91529338928887 -93.95033768688093 -5.908117407541537
-45.89651051858378 -93.86973795011856 -5.8992345669219866
-45.883351361773975 -93.80134759316218 -5.890693962187026
-46.092492074377354 -94.32771117709497 -5.919619698239108
-46.05122644435316 -94.03923916648966 -5.889090494182884
-45.9843118181113 -93.95776716372642 -5.892678444057547
-45.96709127820048 -93.87984239906068 -5.884144402395198
-45.94098210408764 -93.64540211025243 -5.849596326269513
-46.114980958462965 -93.92761039919007 -5.856243283838415
-46.74248107310705 -96.1190934697392 -5.8563531008414875
-46.247754654073276 -94.01381535384829 -5.836989773908827
-46.232094703705165 -93.91900415899414 -5.826405892837701
-46.150249820063216 -93.40810607466966 -5.882196143298907
-46.1013876644324 -93.27940402372337 -5.869711455031785
-46.10000511406594 -93.19415686515264 -5.854986912286613
-46.79226962801922 -96.12112929570665 -5.843719925399711
-46.30425849608538 -93.85333665801764 -5.919910161001403
-46.16195454598832 -93.35960356054703 -5.871767903123645
-46.15858314081488 -93.31292705838928 -5.8644861656853955
-46.141200254198495 -93.20200235535673 -5.848579834277992
-46.158728714953774 -93.0928981257957 -5.825866691885958
-46.475553194314045 -93.97261737309479 -5.900144212924188
-46.363884678181556 -93.84650732129056 -5.906494480154755
-46.382542498501756 -93.78136450631662 -5.893333112990346
-46.22928815290533 -93.22403998980289 -5.8355836595902195
-46.249321979250084 -92.94443401162717 -5.917068916522501
-46.51208669862576 -94.0091359205536 -5.897127543098874
-46.54774055072024 -93.97124273920798 -5.884585200488783
-46.41366304866093 -93.61595739006958 -5.862505527976406
-46.47293836228638 -93.49675825536944 -5.8322016514311965
-46.45434724136045 -93.44294642672392 -5.827477459326796
-46.365246122021375 -93.03638551438986 -5.913249019528325
-46.31912892547375 -92.9250589754893 -5.903046334531272
-46.30698609237495 -92.88488597331471 -5.8985288867759325
-46.60135393539648 -93.96498079165814 -5.872312555084869
-46.476691443189054 -93.44484012304412 -5.823323049633485
-46.46579357643759 -93.11102523410999 -5.908454732528728
-46.41744720629513 -93.04812565950623 -5.906678641135078
-46.37769709258806 -92.93115914200561 -5.8948276909413675
-46.379636850228415 -92.88031242075246 -5.886483285699739
-45.54118270474263 -88.80307411092933 -5.907297552857292
-45.50247307986257 -88.73196907440278 -5.900992899910415
-45.48175209482564 -88.6475344188908 -5.892343076378313
-46.71511560006278 -93.89773556266344 -5.839260430462449
-46.48945851280467 -92.7035897621928 -5.841048333258029
-45.616627648287725 -88.8336322816127 -5.9073617468818975
-45.50785591203429 -88.41370131160309 -5.86469294210975
-45.47933530000567 -88.38052241964435 -5.862198430419136
-46.66952503217135 -93.3015661474651 -5.902425061268941
-46.666640841480415 -93.23874294118501 -5.894039662887938
-46.50990658088916 -92.64354709319815 -5.828182234327525
-45.77914765455499 -88.8709377002462 -5.904100863312039
-45.717337149358464 -88.8050499625719 -5.899547137526385
-46.938541889500435 -93.78228195531912 -5.918224883831017
-46.75177954881755 -93.245924034405 -5.880750732506991
-46.73949450137279 -93.18135687629487 -5.873640370916212
-46.62260300264109 -92.29787552353977 -5.912175979440093
-45.91064121336247 -89.01528693605779 -5.914132132352472
-45.88441277884077 -88.98714673057202 -5.912203667325764
-45.84280218039642 -88.8437616261001 -5.89807675050147
-45.77807084500726 -88.7757734751786 -5.893422249285088
-46.72637927974423 -92.43051034008046 -5.918298348425307
-46.67424871876639 -92.36419065393042 -5.915368754454575
-45.936675410185956 -89.04469491240079 -5.916150185803499
-46.73943248092873 -92.27987123310761 -5.895297588881338
-46.871697959400564 -92.29445736829372 -5.880993083380626
-46.47914927735311 -89.19005060448949 -5.905187987037648
-47.134179410241394 -91.43632336947714 -5.915207201940932
-47.131057687406916 -91.30739588490185 -5.899317542341344
-47.088353765236505 -91.27028376336703 -5.898481950779477
-47.06308647151933 -91.18727808992942 -5.890213968942298
-47.176221674251835 -91.32925316088328 -5.897996368814371
-47.10701795779785 -91.16895121510117 -5.883960407690284
-47.96354764204696 -89.81881950774202 -5.886936811255541
-48.05220972613642 -89.54076476211486 -5.852796109965062
-47.98446884232881 -89.40280709703856 -5.842623324861859
-48.00953896809668 -89.31087655426714 -5.831505405785095
-48.66514848361743 -86.84288421940511 -5.879713349374286
-50.70022379709484 -81.17692613371962 -5.916091519390133
-50.68873766253927 -81.08285933491696 -5.9119311993249175
-51.525946093243014 -79.86727791635965 -5.837825333029135
-35.70360725928467 -101.62566316986272 -5.8197028283334715
-39.43740293769437 -102.31292682227186 -5.727557743073799
-39.39098514438979 -102.27971713814958 -5.728528579397274
-39.88119183199151 -101.98939496874179 -5.786156352959919
-39.94156070513118 -101.98736286530573 -5.789404933981478
-39.93426955002856 -101.88388859652196 -5.800585477355316
-40.875942671711634 -100.50921344916856 -5.787897770609531
-40.82811469955191 -100.32748273377202 -5.811510139151912
-40.93912576062154 -100.37075010074449 -5.8118946962191345
-41.42297549762106 -99.65474868607666 -5.766828055419968
-41.52993290093601 -99.68353922901422 -5.768300868942309
-41.513946534139286 -99.63266948829208 -5.776649307464398
-41.500839771310446 -99.57656310041962 -5.78618603954434
-41.68440406088445 -99.79988782006218 -5.755178024612964
-41.662270797397916 -99.71266911786006 -5.770397065547492
-41.61361299896743 -99.62754403802907 -5.783579438502003
-41.70879458739431 -99.77927205151968 -5.760324650724699
-41.752275582822804 -99.7050287785938 -5.776469847582266
-41.790021426267714 -99.64735725055584 -5.789244456355245
-41.889411605496846 -99.60581496949034 -5.8017171219557735
-42.261152990429146 -99.64588916392442 -5.806806542101835
-45.62405541401794 -98.65052640187481 -5.743391787072966
-45.85662494583218 -93.94691453260874 -5.8148325893635135
-45.840176131978836 -93.89982820009932 -5.81066299605283
-45.81915769093444 -93.74208891102148 -5.785899426612946
-45.76474230815908 -93.65662406175599 -5.782837477269982
-45.77841676800911 -93.61845182406921 -5.771334752303235
-45.98119170650683 -94.12549185778992 -5.810950701791438
-45.88799488768558 -93.86952839761693 -5.791990878687942
-45.87856772759318 -93.77076900700007 -5.77568649125644
-45.84749966349605 -93.68656698182167 -5.767293197399097
-45.88055094489845 -93.61154137595064 -5.743343068103641
-45.93391658695401 -93.749440366643 -5.756797818907589
-45.923776946380464 -93.6389464237186 -5.73759297611584
-45.90902304983355 -93.60698059829853 -5.734997945785313
-45.9653182512313 -93.47995599166423 -5.813358215867488
-46.04252671557876 -93.5494041984854 -5.808718888713994
-46.256380246017535 -93.8905497212658 -5.816063386961556
-46.11225718592441 -93.66322423682783 -5.812899692024804
-46.119813549175994 -93.51820782763896 -5.78518232961134
-46.09546094226343 -93.41208520091243 -5.771074982095869
-46.09065722276839 -93.31824233646401 -5.754188280893453
-46.3746357170721 -93.95302003671236 -5.796653956951456
-46.262479230683134 -93.87595175395181 -5.812269764796014
-46.20752618530465 -93.57372071108837 -5.774845402845381
-46.19576704416059 -93.54102098371361 -5.7718114616632
-46.193335053639466 -93.38591831217725 -5.743975310401376
-46.14689377395217 -93.28196814491503 -5.734628727656599
-44.978718622628264 -87.58380847718917 -5.79190115424824
-44.916409227447765 -87.5457004631043 -5.7899649409389715
-46.31663554895752 -93.50099493105954 -5.7365602404850105
-46.191141275924586 -92.99175936830606 -5.801526803946898
-46.230427836757144 -92.86582415697139 -5.771137252148959
-45.10409642610427 -87.69852226307981 -5.8000917700965475
-45.042146449997766 -87.60926214026722 -5.792315700327468
-46.41939800488389 -93.35429969609848 -5.82030543453903
-46.31374628704915 -92.85896558649601 -5.754576140238518
-45.23365413468115 -87.73551321373702 -5.799101783122735
-45.18457728997627 -87.70805437594184 -5.797924903189889
-46.473627489943865 -93.3331355082279 -5.80608600416952
-46.485376082910726 -93.25713074706368 -5.791338906394348
-46.33550523943019 -92.81760794513757 -5.742969819369396
-46.35640103421379 -92.78474275398726 -5.733037882637256
-45.29066690039394 -87.73067054393313 -5.796172779244495
-46.66504142303962 -93.47050520147388 -5.789096482002826
-46.61026741082437 -93.33590858585843 -5.7792809050367335
-45.3835641992144 -87.74758604374786 -5.794256234708098
-46.74730323800193 -93.41410390742246 -5.7637505044523705
-46.67208495611133 -93.25652427979352 -5.754210660298719
-46.71288620288836 -93.1537499216957 -5.729469521138326
-46.505876847927475 -92.57333739289265 -5.817321555791407
-46.513149726182974 -92.51077512717102 -5.805881590453436
-46.48124449927339 -92.4009164494828 -5.792272920013447
-45.48402309075335 -87.64338656063305 -5.7781976961181805
-46.83378602674199 -93.34719569883151 -5.735892682189125
-46.79230633791982 -93.25224986198029 -5.72946920916281
-46.62212667069923 -92.53692648254172 -5.793554683704158
-46.60030774133645 -92.5254112194752 -5.795029673221434
-46.55942527734801 -92.38553721509265 -5.778026252080422
-45.55137082748865 -87.60658261679808 -5.771120822084795
-46.655788036536954 -92.35389775694557 -5.758268308062184
-46.38307509156826 -89.93436286871707 -5.7768763410923265
-46.38448256447159 -89.74043822337818 -5.74963101012136
-46.35879594096218 -89.69438287524865 -5.7450082497275545
-46.329164480714915 -89.58817676392646 -5.732112503355223
-46.48991886014087 -89.85981843157951 -5.758736914975668
-46.40060196541198 -89.77568369101392 -5.753446449425507
-46.99015716390888 -91.77396254641442 -5.791507565418182
-46.637231775713154 -89.9913462825162 -5.766049304614037
-46.591670481670945 -89.90351248746163 -5.757358060561389
-46.5404200781593 -89.88325304365742 -5.758323066002086
-47.161940965535614 -92.04044573283454 -5.80905600899105
-46.64293581755693 -89.94339287896952 -5.759060530030198
-47.100438907153695 -91.47310290562476 -5.733802557674575
-46.709664857835456 -89.79860945008087 -5.734072950170658
-47.19830261502436 -91.50842695894345 -5.727560729861805
-47.360188077667324 -91.85744624033254 -5.75852445397981
-47.37868580315179 -90.76285504851361 -5.808268729480275
-47.45408766775978 -90.74372175709638 -5.799164712462385
-47.42467321326774 -90.68173716480834 -5.793822022917583
-48.10375595906372 -89.149763443786 -5.809039412347922
-48.204352011442424 -88.97873834927152 -5.7850513052846715
-48.39637716267951 -88.69013636106577 -5.743350422781642
-48.34872840330105 -88.61069341193553 -5.737842371577848
-48.338511806403304 -88.55424202036787 -5.7325491920155125
-48.42572527237185 -88.58219124690257 -5.730266386607644
-47.24414634734972 -76.74643933994368 -5.784297485147427
-47.10114489062151 -76.46578737656648 -5.774788580370671
-51.44242655415545 -79.09426081038994 -5.802753910785191
-51.5212707465545 -79.08504626903203 -5.800662467955456
-51.7363086891973 -78.80913950086304 -5.783483650634492
-16.184933768648406 -73.7486430395206 -5.650534098897676
-33.346069579404436 -99.84368183926786 -5.6507119681443685
-33.66765334681113 -100.34778345884297 -5.665575181678786
-34.81812249952206 -102.74432225842023 -5.699542649475731
-36.30024670160583 -100.04385241190364 -5.624276662539032
-36.403193826695556 -100.13116557270702 -5.632211295634291
-36.52600984119304 -100.16852323135907 -5.644861269198567
-36.76308041560455 -100.55859956167446 -5.6495692659332555
-36.77718398525278 -100.43437709030103 -5.658723259586807
-36.75648921892988 -100.3208367738502 -5.663096165319291
-36.760465324592445 -100.2807674494864 -5.665926315321739
-38.92604104888419 -102.56947570269287 -5.6705569956866935
-38.97869863281768 -102.68650475947709 -5.661382104588338
-39.04649354729801 -102.6578949096679 -5.668356231013213
-38.96683918133164 -102.55903277459865 -5.674114815599387
-39.08545986837135 -102.77319515199059 -5.658314773673587
-39.09551770732049 -102.69470919290191 -5.667242006108828
-39.08494933509876 -102.65228300970475 -5.671252190097712
-39.242598673207524 -102.96161705854782 -5.6463042135735035
-39.22699327670398 -102.70145049095397 -5.673848185467789
-39.29750791580693 -102.75944432910639 -5.671390129530323
-39.30561689875624 -102.68060641141251 -5.680365089283532
-40.17664314684852 -101.32425880039989 -5.626520567674109
-40.246666601457086 -101.37153965335938 -5.62435289567868
-40.3393762637694 -101.23663256459864 -5.6496153922038115
-40.436362795760296 -101.09046508023688 -5.6768577252329395
-38.17877406007627 -89.8235717449528 -5.636375429495391
-41.19074592690261 -99.97368038944569 -5.693157550092847
-41.16107033506273 -99.92816077725519 -5.699235256950365
-41.254532345404904 -99.94155107506747 -5.703351728218423
-41.267833290141226 -99.90979932735227 -5.71004487619258
-45.962724207420585 -93.485544547852 -5.695806405474846
-45.990077923071844 -93.42884711182425 -5.676769272326528
-45.99102184494395 -93.36091740954117 -5.661921624449537
-46.05618444872277 -93.26113746634248 -5.623647363761949
-46.194842879141575 -93.1916665157166 -5.706346365507708
-46.153201712144586 -93.07808317687335 -5.692784523688049
-46.151697863217024 -93.01731063473666 -5.6806891464290965
-46.206884235462674 -93.16860113686987 -5.699172752680416
-46.23601842159827 -93.0971162931466 -5.678545408829571
-46.32899992561994 -93.02250998648744 -5.643305907022622
-44.09543437089193 -82.49708588577035 -5.682857959075717
-45.59546287043348 -89.01779740897393 -5.69668289026046
-45.517469003978924 -88.63924395899731 -5.64564564894432
-45.48780516367043 -88.54089790786549 -5.632810686734929
-46.45205836489064 -92.67488303288725 -5.695163764575192
-45.66122569447448 -89.00909439351854 -5.6915618247788915
-45.608443663299575 -88.880459680207 -5.675880716920415
-45.59233336044776 -88.71697483872207 -5.652824109739736
-46.56364550990844 -92.55877429876732 -5.653208716231434
-46.557860759814375 -92.51660102145692 -5.64634468438201
-46.606185734120096 -92.43849707999702 -5.622864439086704
-45.82242772031082 -88.78612771957103 -5.6495632187749205
-46.90787020681323 -93.2860460244556 -5.711421271270524
-46.01277265801152 -89.12777945436227 -5.687345355657424
-45.97745577949176 -89.0661507054366 -5.680685228268484
-45.88060447805991 -88.7751945445297 -5.644454362459975
-46.11639771081788 -89.20538355580766 -5.691892851540419
-46.062673716941774 -89.1549351152687 -5.688100661166089
-46.857778807180516 -92.26973166434713 -5.7137477596131845
-46.26715956289283 -89.23798919730827 -5.686712580464073
-46.20681106583997 -89.22936210971642 -5.68943454636214
-46.952889919429815 -91.90518611688177 -5.638421178334948
-46.903543867567464 -91.82294843699135 -5.631507676034577
-46.30315968224275 -89.24498405376754 -5.685276568801645
-46.38111816181808 -89.22475131089763 -5.677173723190648
-46.939939465912886 -91.15567128619956 -5.7036421452309085
-47.13440073132984 -91.36130197846789 -5.713073617383021
-47.20764749915651 -91.44800822983323 -5.7175051813490265
-47.17492942634049 -91.3212612976774 -5.702310494980312
-47.334746226588834 -91.40661166408738 -5.696365928204299
-47.26669900941168 -91.06204791157664 -5.652452080065207
-47.16288396900177 -90.78883522906526 -5.621849625304764
-47.332275244436566 -91.09541278963665 -5.650037504873483
-47.3041569512992 -91.00456953279 -5.639427930273473
-47.31710993040791 -90.9230197227658 -5.625487728239115
-47.38686187923892 -90.99768830895472 -5.628924593969016
-47.78939964935265 -90.18183183644386 -5.697870169302606
-47.77164128798306 -90.0958661992791 -5.6882893408109885
-47.828633822884164 -89.95940308325227 -5.66574552553042
-47.83169851651549 -89.88135876576568 -5.6553385045858615
-48.41149929255208 -88.38419483252632 -5.710352608970604
-48.431219566264076 -88.30729259918016 -5.701033060364354
-48.5685373975861 -87.83613541418055 -5.643190290216676
-48.56690133284969 -87.75577547232173 -5.6347903460996
-48.52072615428869 -87.71128105668002 -5.6327385818348
5.221532833570656 -90.88547145713562 -5.609805880889192
4.987353010616424 -90.74027096377394 -5.602720728643365
4.908133289965747 -90.58242918512106 -5.5932909420963
4.911184797725973 -90.40951146511611 -5.580244925083006
4.873778310333364 -90.239532029049 -5.5692133221918745
4.836470723171523 -90.07705981085175 -5.55749316582535
4.711350757656049 -89.92538354008366 -5.549145882679977
-15.888646860771122 -73.20341300088174 -5.614798394928504
-26.83257987627257 -75.23562699955575 -5.531905536868296
-26.954316558313934 -75.24173957853881 -5.529334526710096
-33.078243836310214 -102.98791583310931 -5.542783651384056
-32.80647767311355 -100.36335850865588 -5.591806088675396
-33.37553506272515 -102.49131602356161 -5.586114317483559
-32.86324386059728 -100.37966895205847 -5.597808292034119
-33.53343792074644 -102.74668032466968 -5.591276102797375
-33.44812369952555 -102.54236631806184 -5.590904158713823
-32.989250055601694 -100.22952446751316 -5.611782627223512
-32.97643475478368 -100.14771209979014 -5.610721341039929
-33.67295355946037 -103.13158172554623 -5.58885021412629
-33.58700134744174 -102.92446330362156 -5.589418842649955
-33.61785380894858 -102.73514439950489 -5.599131107637755
-33.0070365621348 -100.1330042192464 -5.613904505875381
-33.669159307433574 -102.77636665585882 -5.602046774377419
-33.847998493015005 -102.90373499872737 -5.6125721180420935
-33.8147045495453 -102.82316922166768 -5.612834500880226
-36.066692182065886 -101.2002803842819 -5.531967554079657
-36.169329738372554 -101.28493611987604 -5.53794725641745
-36.10734727117432 -101.23030261371099 -5.5346118227137096
-36.28197803326885 -101.33627255056095 -5.5468438665211695
-36.23413603810944 -101.31466637833266 -5.543063159574355
-36.355155482001436 -101.35772074974497 -5.553290746373499
-36.098016886486825 -100.29787529123197 -5.5870387413867775
-36.51489199352041 -101.40589447708726 -5.566945838959103
-36.469745702068025 -101.36211417340225 -5.565218198767114
-36.17921422531682 -100.20305999732427 -5.60168026246727
-36.690056453006505 -101.67985699164225 -5.565330577860182
-36.26028000288468 -100.04760523919819 -5.619193280243705
-36.71417813472587 -101.70143528844697 -5.566191414566742
-36.742847094287406 -101.58334263561063 -5.577830895798779
-36.444429633523406 -100.45277735555047 -5.6195852937870825
-36.86589526864991 -101.84444520317754 -5.57027751163154
-36.785264121027815 -101.3481837856003 -5.599217231738564
-36.75213415889999 -101.31440993620107 -5.598212814681016
-36.87311764740166 -101.41271464987736 -5.6035264450624975
-36.85430927171369 -101.36741945623189 -5.604926426688331
-39.5632140679118 -101.75321660339536 -5.522768341755771
-39.71793802358113 -101.68961684833774 -5.543095218211859
-39.82187732380495 -101.71448607729756 -5.547053828460698
-39.78832851441116 -101.66809500560642 -5.551146510647799
-39.93995812356275 -101.65463081313386 -5.5636931522461275
-39.99239199799678 -101.55271446055055 -5.581633591835301
-40.177565505610964 -101.45638453405701 -5.607671705223758
-40.18945206359344 -101.37833770594585 -5.619673353691663
-40.77623852768822 -100.53120114283666 -5.562922598074511
-40.896110709988946 -100.41807377601471 -5.592112686296016
-46.062172904331604 -93.20894627706863 -5.610547697981392
-46.06179871878872 -93.15570394024394 -5.598766594564018
-46.15831953125681 -93.16895349706432 -5.577652359124654
-46.16060127472236 -93.06132170210351 -5.552972106247724
-46.20398402516148 -93.0992621594507 -5.550729154366049
-46.38497864645368 -92.7752395690998 -5.580728167292461
-46.35381767979878 -92.50324400479484 -5.529121027536004
-46.33173221396922 -92.4747691998181 -5.527352486517179
-45.47632668834586 -88.45718738703432 -5.6210891600734
-46.48889258711374 -92.7212876394817 -5.547354095345451
-46.46240363624322 -92.62073229452388 -5.531909565963034
-46.82140881196854 -92.30365475546283 -5.558632424341978
-46.76397856170368 -92.22662485934323 -5.554298195783901
-46.73428879466546 -92.17931246347786 -5.550452101399994
-46.83371921421583 -92.23075221240468 -5.5426549361385025
-46.372263928772114 -89.71377910490429 -5.522901056116866
-46.5350490950219 -89.99415347635474 -5.555885868287553
-46.39430167547568 -89.72168763544862 -5.522265494343307
-46.928331204188254 -91.74125747884122 -5.613787930233428
-46.58833755079643 -90.00954570241616 -5.553518967636455
-46.57272348317012 -89.89272713406301 -5.535297197787825
-47.06022990795581 -91.76216044656653 -5.598222472935703
-47.208289050328936 -90.76858926204686 -5.613660076644663
-47.39009253401766 -90.80035525254536 -5.598385183089169
-47.46613418169289 -90.6406765633971 -5.5652377575059955
-47.64244965022533 -90.48243734994878 -5.521024257871829
-48.01225309652858 -89.71067342387023 -5.617699798593575
-47.946597569618646 -89.59079598300576 -5.607667126202076
-47.95436447966093 -89.50259360990768 -5.595438645558646
-47.91099136481113 -89.39420940048183 -5.584756889771088
-47.92223976954109 -89.33767968125042 -5.576301195467249
-48.00746954081732 -89.61713866624416 -5.605947588768607
-48.00544011321705 -89.52031507225935 -5.593432384472278
-47.95515266583852 -89.42196656145113 -5.584709651981039
-48.00760632493028 -89.35752811516791 -5.571903773096677
-48.04881412378922 -89.11297904679057 -5.536131238411735
-48.33072097252339 -87.48295411643939 -5.619124900349611
-48.398824713389644 -87.46342531763017 -5.613216420007849
-48.45773903760507 -87.46188646781805 -5.609737771906856
-48.63197607659788 -87.6073848804612 -5.615195136661006
-48.60281576900793 -87.53871021830825 -5.609572344842679
-48.62341699357155 -87.45159453730594 -5.59916409005104
-48.73035503679453 -87.69198641563531 -5.618432467005286
-48.874800495715405 -87.65968557735157 -5.606578057512697
-48.83705763038798 -87.6283306448591 -5.605463294172823
-48.89723719175972 -86.96301649469385 -5.531300005302589
-52.34902299173651 -74.53362438054418 -5.5687795127098605
-52.31383449871059 -74.41162046304035 -5.563585073059718
-14.730813105781671 -70.78056879262581 -5.45278874568762
-17.79321429020398 -71.81590871738655 -5.466571458436621
-19.915732566969748 -72.84849046056362 -5.500341053212402
-27.021519637147847 -75.18190009707072 -5.52332107889924
-27.07005969093199 -75.09900901793112 -5.515404935929499
-33.514250821369835 -76.13180292123891 -5.443766541139179
-39.25376569402136 -102.2408368098507 -5.432350735509091
-39.45686939737918 -101.80713718670883 -5.507274554433779
-39.56441604909427 -101.80610671244733 -5.515638145009567
-39.602823236992165 -101.79146595414693 -5.5204647127188275
-34.17330290024354 -76.45907006030711 -5.4545406270418155
-34.42709183647854 -76.31593321929086 -5.437338870775321
-34.57768514242971 -76.47034484851103 -5.4460995547241025
-34.601138282046406 -76.35398091256891 -5.436308483917831
-40.539774017083715 -100.87875951086738 -5.483052374077731
-40.62015350305478 -100.86242227345096 -5.492174324612751
-40.71146045017559 -100.76973653824015 -5.515521935732574
-35.99341278812744 -77.09255934273887 -5.462145225112528
-36.01488763716971 -76.96785236058761 -5.451750088568902
-45.897421398546406 -100.04802676969722 -5.462512698540772
-45.108652047125126 -87.65286837313393 -5.520729862870424
-45.05112070556801 -87.60286076585774 -5.5160490804926745
-46.31641448408118 -92.92298814478586 -5.4830981486493116
-46.28622105696368 -92.68259253582232 -5.434169252188072
-45.16813311566607 -87.63749997984496 -5.51558477586948
-46.379966738290804 -92.85919927835589 -5.452949563329783
-46.33051110232554 -92.70885406161263 -5.429883940021249
-46.33919955349642 -92.683641559807 -5.421856266958157
-45.27450291110277 -87.66270960889304 -5.514055734492514
-46.46539443371021 -92.55822204743595 -5.517980929902832
-45.390243564236904 -87.65135775766808 -5.506534559612897
-46.515659918873645 -92.51087540140446 -5.497373446856044
-45.464595115321686 -87.64316925963843 -5.501483219476816
-46.598364328113135 -92.35075274447334 -5.445806148392708
-45.52124265077721 -87.59270175803263 -5.491035760000934
-46.66253022780563 -92.31656439735964 -5.425151002298007
-46.055359350128114 -89.22165140337496 -5.463612845524386
-46.13184701895342 -89.27477758480009 -5.4668593246658315
-46.09018726631356 -89.25728249542277 -5.467123321434105
-46.850769083739095 -92.00032068483148 -5.495243335054244
-46.80406060412453 -91.9080514942991 -5.485146737774078
-46.75559681776636 -91.62254119624846 -5.435655147631495
-46.7107371006499 -91.58203168418767 -5.434667324489013
-46.20675956023449 -89.22582160203972 -5.452204368673019
-46.88709255718929 -91.91105153825319 -5.471404179211679
-46.916909326761456 -91.75614450411335 -5.435626738183865
-46.81905504987433 -91.64452986328945 -5.42963440626357
-46.42992463901216 -89.67124152011358 -5.510463768549867
-46.945973127801686 -91.84637713242746 -5.448471595642686
-46.53765829731528 -89.75852578580384 -5.515718045492583
-46.48181916407293 -89.69916766455233 -5.510673324804985
-46.61075425814716 -89.78941269504098 -5.5142546730667625
-47.128447827744026 -91.29172975337787 -5.506290240597783
-44.60991398790449 -80.10914237045733 -5.475599103838681
-44.577958059269584 -79.88439803167986 -5.458390793820559
-47.23810704685641 -91.33062899527576 -5.497647719822255
-47.16926665386996 -91.20902088681984 -5.485832048574443
-44.7657643768975 -80.11555056303065 -5.471377009494901
-47.27934387285995 -91.33101854448087 -5.491811250338891
-47.3045153045806 -91.16928737788932 -5.45981108151362
-47.253921234641496 -91.07933402994773 -5.450849528071113
-47.24958993481584 -91.04156904198656 -5.444692787327556
-44.887205853798555 -80.01964840682874 -5.460012089309834
-44.833160253369016 -79.99801448478955 -5.459981749663738
-47.39627009846955 -91.10646871564956 -5.435708104988356
-47.47953392707352 -91.33015749203953 -5.462788068389589
-47.68862113828824 -90.28052762992519 -5.484595068238464
-47.69175203841504 -90.15517231027798 -5.4646420453475475
-47.639619879180394 -90.12715714182089 -5.465939332921818
-47.73131863258587 -90.07504538381426 -5.447790693375783
-47.69588198999843 -90.00615151345178 -5.440745540516751
-47.72847875241563 -89.930826910071 -5.42536901506895
-48.10178080294801 -88.97897958338588 -5.514020657706131
-48.091282583014795 -88.88096729702534 -5.5017847104875734
-48.05409728917187 -88.79079048295863 -5.492726590749863
-48.18524806261347 -88.5425794872085 -5.448891342203543
-50.08002329457217 -82.72741964308969 -5.50628707867382
-50.07705370419979 -82.62393756939312 -5.4981743596269315
-50.18418635440291 -82.64582132574881 -5.496048410855197
-50.28091792136342 -82.56934344751626 -5.486668472838303
-50.34274048332681 -82.02474551498666 -5.441678084714149
-50.32499298696956 -81.94994053985961 -5.4363253827043305
-50.352305926156866 -81.78857427940393 -5.422753736000865
-52.81880544958169 -72.5878621510889 -5.467583540034865
-52.914800403310544 -72.58078380745818 -5.465112830996782
-53.02905071832182 -72.53613440582421 -5.460849198374309
-52.94911563586332 -72.05350092892546 -5.4396039293943845
-52.91257051730425 -71.91288303865619 -5.433922048301751
-13.4345211278515 -69.85462265132432 -5.40860697929288
-14.133791026209874 -69.91817895241384 -5.398883501665592
-17.430205660730532 -70.99088897669476 -5.409917665085345
-36.494798754707304 -100.35211465456868 -5.323560907891174
-36.546448308230715 -100.38720546644288 -5.328250603541509
-38.87371111535057 -102.4602081960152 -5.372372010222218
-38.95074187341406 -102.41793055330331 -5.3843735993302015
-39.04232112849648 -102.40696021649148 -5.393229313157946
-39.03956428231872 -102.32610236874704 -5.403908720977767
-33.41316530704483 -75.43137103921691 -5.390726186230466
-33.64530531089389 -75.02505251514587 -5.353208008941819
-39.89277068692063 -101.4787000530087 -5.324459142778517
-39.963045037418844 -101.42619099584485 -5.339694973483124
-40.108461684191525 -101.4875553608004 -5.341366860993963
-40.04532749588124 -101.37535379414558 -5.35559315732174
-40.129346506488496 -101.34307786786434 -5.36833009687384
-34.636801642685384 -75.72463458993053 -5.385575636812446
-40.229957994539994 -101.40776666070981 -5.365268040435538
-40.23354783809706 -101.31965807406839 -5.381011139285214
-36.600565716885775 -75.95369546477251 -5.3568201630838965
-36.65532096368811 -75.89469512163382 -5.350817284453326
-36.69365519455066 -75.7867924350169 -5.341232438140372
-36.731341285684344 -75.6750958476963 -5.331441733202918
-46.30901782885463 -92.61883302907121 -5.413442912168781
-45.54200519894115 -88.70835712737025 -5.409569625664085
-46.51895631835043 -92.73813565352415 -5.391108174832851
-45.56745259751596 -88.77545453068926 -5.419955464813865
-45.60780680521066 -88.75127471708154 -5.412842319136981
-46.57722116235991 -92.65849701773382 -5.358544278605457
-46.592602459483544 -92.62886210227641 -5.34797742705976
-45.70026869961986 -88.68970070871883 -5.395271976004512
-46.68584149278391 -92.31715610311117 -5.420494877738075
-46.674398705245544 -92.26593431528774 -5.411726378605797
-46.685314308123495 -92.10866916391505 -5.374989417766365
-46.6989913006011 -92.11798060366668 -5.37426297123252
-46.766740250953 -92.01326977847036 -5.33738678959502
-46.76686015336095 -91.99080936897413 -5.332392539768524
-46.78111550506102 -91.9556104650181 -5.3216449399515575
-46.987728889078234 -91.6651170916885 -5.4053376411036975
-47.0115866050915 -91.56751518949731 -5.381747920857349
-47.12377404297892 -91.51067277703802 -5.351320044117426
-47.11000337446683 -91.43317990126852 -5.338036266905687
-47.120463345119205 -91.38347137236941 -5.326194851297778
-47.18477965072767 -91.42638240551823 -5.324024142943147
-47.307523773002096 -90.90736838303918 -5.412524302066576
-47.458586042202356 -90.98696280321072 -5.405768269381437
-47.38430005723998 -90.85620573631957 -5.392772947731908
-47.38666253583032 -90.6993785349179 -5.364030421420496
-47.436438321301694 -90.73951876899396 -5.364546657028207
-47.46329636481876 -90.67944761065404 -5.349953860682685
-47.85140876537042 -90.90233699211991 -5.334874524778376
-47.7865597410933 -89.80538399393238 -5.399233028793172
-48.29530080964712 -88.3183622304945 -5.409994982912999
-48.3009268941424 -88.23592363689401 -5.398468334007764
-50.30924451709017 -81.58660756211273 -5.408332126314414
-50.38411307536474 -81.61637675841422 -5.407971035034825
-53.03949424156665 -70.64568049731716 -5.37180984871138
-53.303298874065256 -70.73253050790754 -5.37021215030646
-53.34141630221035 -70.40514788377908 -5.354226735045964
-53.355369654326964 -70.11796807012787 -5.340278699764235
-13.067151075168496 -68.44298631218193 -5.307132837883986
-16.249068922457077 -68.80356975999169 -5.265471685213186
-17.48257175899036 -68.94311768186805 -5.24897279779125
-17.59773012153196 -68.88647580274342 -5.242357889326432
-33.158208635593745 -100.08149611210906 -5.230969833545386
-33.57116835188181 -101.00249852352808 -5.2408696181957914
-33.51823008725606 -100.94291086899942 -5.2362632412922
-33.662291254472194 -101.01553631730901 -5.251995806901044
-35.19429605324969 -104.22171322156574 -5.2218255578635215
-35.28581598935813 -104.24481272892739 -5.228310562152852
-35.347966996598274 -104.23608035619935 -5.234742791341945
-36.41783155437177 -101.00151377665973 -5.259323681457767
-36.35139863261724 -100.91404356326709 -5.257618913675575
-36.35842837982552 -100.65040822176374 -5.280344946445902
-36.54339105887955 -101.1186549011652 -5.26611788164062
-36.52050812134247 -100.99565211847762 -5.2739438904189
-36.33109240941183 -100.32766301464929 -5.3015413082081295
-36.64888782659505 -101.17056324822968 -5.27555691614679
-36.552516120532076 -101.00872512424407 -5.277114075716804
-36.52853310562609 -100.51524200694242 -5.315512784903392
-36.4288801504357 -100.3279953226626 -5.315787963339025
-36.79825076549679 -101.32700934119896 -5.2804285350479745
-36.745668279371344 -101.31134661263674 -5.275118137419426
-36.6743650084487 -101.0849780354782 -5.2867488566345155
-36.66628247698277 -100.71080261420717 -5.3186271262824185
-36.84697861732074 -101.36576842029704 -5.282981876854169
-39.54238493090815 -101.6898800367383 -5.256444458491574
-39.52609170742433 -101.56428092412882 -5.275897084567466
-39.476039071658086 -101.49767604305634 -5.281866833046748
-39.453549890385275 -101.4378939192951 -5.2893733922922745
-39.57471269396195 -101.55759367947657 -5.281733055369066
-39.539053226442626 -101.49206657114719 -5.289116909756258
-39.671532518833 -101.54096968949432 -5.293714812715798
-39.764760011463885 -101.6616554348104 -5.281789339736135
-39.77020584745173 -101.52108029638246 -5.306209247748342
-35.541250025435254 -74.33655495145761 -5.253701731358779
-35.65142277343001 -74.41080223755357 -5.256989986994371
-35.77201094880235 -74.51557323517889 -5.262373861156304
-35.86862232415788 -74.55708510911066 -5.263375971239049
-36.062114984511545 -74.64517347828125 -5.265687023550021
-36.996780464777814 -75.33695482135647 -5.297871364007895
-37.0754648831761 -75.33941298438894 -5.296162737343023
-37.159612169408426 -75.35932215257432 -5.295616315559354
-37.21892433322331 -75.30565498338603 -5.289902724928964
-37.18349903792672 -74.93911706166512 -5.261453619373957
-37.23357251973267 -74.84917634465383 -5.25306844075899
-37.286521466719144 -74.7670405095802 -5.245130939781498
-37.33984794933098 -74.69746834567981 -5.238289477325105
-37.37468313901486 -74.56293100515865 -5.226613780553556
-45.20605882330682 -87.74122965792726 -5.254460615061579
-45.14651716556022 -87.69997081330739 -5.250340459929138
-45.25698305396643 -87.70976686696295 -5.245668312366035
-46.67984601502879 -92.59880520698765 -5.31976506093903
-46.696239246259346 -92.53063128849445 -5.299972178611377
-46.67387442028567 -92.45151672042995 -5.286862895007559
-46.659940508269884 -92.28272828126528 -5.249711006244768
-46.6996698521462 -92.20739722620456 -5.222069599535446
-46.776988381225976 -92.4386725654985 -5.259008702883168
-46.464657294433266 -89.83681798776749 -5.310961526187182
-46.42032389286782 -89.78229178119565 -5.304734876849301
-46.94049286692525 -91.7740804872139 -5.249209028895338
-46.969419285281326 -91.69889344173819 -5.2265485821345035
-46.53439914055759 -89.8289008153626 -5.301704862578559
-47.04434620706329 -91.17636121844396 -5.296214441051847
-47.38728588246345 -91.56212523348006 -5.315948621848236
-47.17990717144108 -90.94385183386889 -5.225801059805729
-47.44557229919904 -90.47250391153008 -5.314589243890871
-47.48325511263476 -90.52919496558495 -5.319889465265813
-47.48657286275521 -90.47605957915673 -5.309733143292197
-48.17068311536863 -89.28438000352669 -5.2753815243796165
-48.15449911323731 -89.1373661719906 -5.2536326683181525
-48.121336027708274 -89.09023548903455 -5.2495827898186
-48.114239966347924 -88.98839573686281 -5.233917260588147
-48.065171898310055 -88.9409208289281 -5.2313337296389575
-48.257604063485765 -89.09547111050878 -5.236083289436217
-48.384286757263936 -87.40069019223623 -5.278337819210264
-48.5015316611056 -87.36771725960243 -5.264895198931397
-48.61861996354651 -87.40227777317195 -5.260580002072186
-48.574775144782855 -87.37858167261668 -5.260760549440287
-48.811956239491536 -87.47175777444345 -5.254894416556684
-48.796734319928994 -87.40530424967871 -5.247143515310893
-48.755262483663316 -87.34986317639483 -5.242871707859235
-53.39888181665248 -69.47344368669056 -5.309162884133771
-14.146015410785193 -66.95832713440625 -5.1684363199394445
-15.373277273597754 -67.75584436022685 -5.203530357087152
-15.466125310453936 -67.66484460045606 -5.193911092459711
-15.782988943580719 -67.79694360810525 -5.197608908681747
-15.926037457964867 -67.744583571059 -5.189926889867593
-15.91182946948894 -67.53364508551442 -5.174196504989595
-15.870080017743394 -66.92633352537308 -5.127162265945879
-32.74224273404603 -100.32827025847017 -5.168864685525638
-33.78941002325925 -102.72691820849987 -5.182531809255421
-34.657360730582695 -104.23827631107869 -5.169873646471478
-34.617798688310145 -104.06329604409427 -5.179549805933366
-34.80688005656782 -104.72209054968437 -5.145000368983471
-35.178498470524275 -104.49410703918457 -5.197749588767506
-35.136408893894775 -104.2229509831333 -5.21642536050504
-36.114329008605765 -101.21731109776817 -5.198910757713566
-36.127498208978686 -101.03797007089469 -5.215946460691857
-36.74250895026125 -102.177766266994 -5.187812115738761
-36.744237449016126 -101.91423222531881 -5.215383221339425
-37.53048065655198 -74.27067926702472 -5.199374159327202
-37.58990089551732 -74.20077217611528 -5.1922289367846375
-38.050258484044136 -73.5251970100085 -5.126437142982512
-38.135681781331606 -73.54783617523825 -5.126121350834572
-46.67951459135325 -92.05321734445866 -5.188591100292934
-46.74982893006748 -92.13120645461997 -5.191774049265236
-46.69209745726759 -92.04167351777173 -5.182868407832206
-46.96828544124936 -91.66320741411704 -5.218720698317226
