ply
format ascii 1.0
element vertex 809
property float x
property float y
property float z
end_header
-20.61037705246937 -13.526980714441503 -1.0497012041762612
-20.6207401390391 -13.436033354963682 -1.0489067659086722
-20.605324231197717 -13.275131262400118 -1.0451094410352064
-21.840518448786874 -19.111457509502557 -1.1071179407969811
-20.872923879692564 -14.082823930645802 -1.0791804242000769
-20.82227419686586 -13.94333412740583 -1.0727493824874494
-20.763968096851286 -13.771545033509693 -1.065261255915984
-20.77009886645535 -13.69643158130577 -1.0643560737319537
-20.68687997155874 -13.421043541048366 -1.0534602351505864
-21.904791447151304 -19.077981128362623 -1.1095014089894606
-21.01153835025241 -14.452929429231254 -1.0970341257596012
-20.97790096053781 -14.358399498127111 -1.0925389371315235
-21.008733218052427 -14.229196182460914 -1.0921963516565238
-20.988360982909864 -14.140091147740934 -1.088891525427142
-20.934868291184266 -14.078626674934371 -1.08370060860817
-20.915925319344655 -13.967513627418338 -1.0801431434555502
-20.86390942829247 -13.751285208194423 -1.0722483292099898
-20.850451568923905 -13.70573645827436 -1.070426341883462
-21.15448702957326 -14.735171898258134 -1.1139276542383174
-21.16973993679164 -14.651420280058616 -1.1132087750821176
-21.170754265905693 -14.563995266017995 -1.111367056857446
-21.157759150667946 -14.402513992414544 -1.1069272300045174
-21.071452306182763 -14.357743190596892 -1.099523606548407
-21.08938340261687 -14.243269549639075 -1.0985039172277395
-21.07445272674737 -14.160461661816722 -1.0957105595667682
-21.045413561276785 -14.050371994097105 -1.0913604714155356
-20.970213437795774 -13.866353507333969 -1.0822346206015658
-21.219868305817688 -14.526208904135299 -1.1142384035443675
-21.251282956553187 -14.399066670064606 -1.1138652783127632
-21.24000863723564 -14.34683528587441 -1.1119169518088126
-21.17343973024858 -14.242202979984496 -1.10476094719236
-21.283150648089062 -14.309843364479132 -1.1143728048037729
-21.851507698722735 -15.329371683340835 -1.030462759259843
-21.926198908709086 -15.459747077020012 -1.0370739812636744
-21.90068510372868 -15.423492641821205 -1.0350482317534477
-22.067709463172676 -15.633919242779603 -1.0474867759358562
-22.290282213228128 -14.665418082320889 -1.029293408003429
-22.4568950983775 -14.944451716395035 -1.0443641436987379
-22.385140501289683 -14.69237176021233 -1.0340054507153928
-22.53560697158726 -14.881021692520104 -1.0457527453544255
-22.51194977257759 -14.752593601092006 -1.0410129575735798
-22.49610411165961 -14.579551818580107 -1.0351866563625214
-22.650075775565753 -14.864401126084761 -1.0499659416844778
-22.603552409635466 -14.790604837077622 -1.0458987348308866
-22.564786636753876 -14.590801875768143 -1.0383574539406046
-22.7304695703404 -14.923987442911317 -1.0549918301710528
-22.692632648465207 -14.803179729765473 -1.0499241038596971
-22.676902476829856 -14.73251057140775 -1.0471988203789062
-22.902502463476498 -15.069664363923678 -1.0661975520130917
-22.876494921513086 -15.003477398706327 -1.063251708632168
-22.82909406237825 -14.938466143016726 -1.059450100539189
-23.010935798044095 -15.133472257899836 -1.0724296130283326
-22.977811951922313 -15.085198274184782 -1.0697178763467001
-22.920072859532127 -14.98239889761528 -1.0644366710933153
-23.109752150143503 -15.163497658028922 -1.0773135908169287
-22.987452744023734 -14.590863912442915 -1.0557609265890318
-23.20517962225725 -15.205474185532722 -1.0823826989416756
-23.28140348785621 -15.26810406153275 -1.0872268094603894
-23.68651255872219 -15.423203908645059 -1.1080077658879104
-23.79853638405723 -15.46296888302228 -1.1136537024702284
-31.92467299605952 -27.510455791532344 -1.0349637957964157
-32.22853815259175 -27.67647134379705 -1.0392450519174914
-32.29731594222026 -27.649275332210586 -1.0406598873607467
-32.50586604628507 -27.7352727818932 -1.0437816460692126
-30.9381072128352 -19.750653742675098 -1.0180874081867244
-32.63107967919519 -27.75208027590137 -1.0458698541386409
-31.09240598699318 -19.923644525766413 -1.0211849192723197
-31.287826734201257 -19.935707034127333 -1.022942779563156
-31.45641346982348 -20.120888609907457 -1.0262510952024546
-31.690198290192857 -20.27777721674549 -1.0297845565685058
-31.908792873754646 -20.431520583768613 -1.0331517140217024
-33.29806453893076 -21.04815449428639 -1.0510390121162232
-33.5349141562957 -21.315407864078264 -1.0555249040239882
-33.48486285421691 -21.235085524049868 -1.0543719646454293
-33.45516649399332 -21.16281220639101 -1.0534696887576354
-33.600062123447685 -21.40012601916021 -1.0568307481168704
-34.45422778373553 -21.77259173914344 -1.0677082694515843
-34.767767731076404 -21.95723373225239 -1.0720831350099345
-35.46608414955015 -22.288718043084522 -1.0811764509809876
-35.66815027169226 -22.467172192873576 -1.0844426444080566
-37.16370141417519 -23.225495670461992 -1.1041918762672172
-37.2386454875049 -23.1757079845992 -1.1045285280354027
-37.575115749170564 -23.545741715558524 -1.1103973734533714
1.2373710436711853 -39.65396734998356 -0.968007336139815
1.3297324134077613 -39.60158480202324 -0.9608780497180969
1.1323477486803952 -39.687893418227745 -0.9751414754288847
1.0516709088905323 -39.755605963184884 -0.9823700297004055
-0.9974358825660872 -36.071420221005305 -0.9233265778255211
-1.5719894863707289 -35.78932669990452 -0.9405814288041842
-1.5856697920701741 -35.62874030351628 -0.934115773200183
-1.587832335435202 -35.48411715392778 -0.9276321100537834
-10.43609167530181 -13.889953460654919 -1.015581878866402
-10.490487582861139 -13.981450548424416 -1.0151135053831057
-10.531345150406592 -13.887840810861647 -1.0133781266987172
-10.745505989291736 -14.365255934988408 -1.0135740246427956
-10.839212894901113 -14.52687765440058 -1.0136417944586935
-10.80577779470282 -14.496428734782935 -1.0139419677498152
-10.947785355667712 -14.472464638276886 -1.0102198625554029
-11.034337681048697 -14.46479535988535 -1.0081022443724805
-11.014660149767622 -14.438767449177234 -1.008171891964268
-10.978265102316865 -14.360913529062215 -1.0080464396213586
-10.65932624306705 -12.092268555677235 -1.0151320054740314
-10.655023211760206 -12.030644141147437 -1.0159361035941732
-10.738122276135423 -12.044118955702205 -1.014608824485257
-11.841724799861986 -15.661898010660073 -1.014092054725784
-11.835862529986358 -15.100726743208947 -0.9998072226486653
-12.061108566027688 -15.759458272923808 -1.0115945033582758
-11.973495641878582 -15.133341704136646 -0.9970827869151959
-12.200598218415518 -15.812300478724758 -1.0098355107430137
-12.199656016516498 -15.708865054772984 -1.0065618376095644
-12.347871569323637 -15.99129364374421 -1.012293144718482
-12.341478224803648 -15.79555271674886 -1.005760165812731
-12.169364084220451 -15.093435311421349 -0.991420338236741
-12.429111091877036 -16.058239636827143 -1.0127201729479858
-12.272383460100741 -15.055760408176557 -0.988124000670962
-12.263998774969693 -14.979014623562698 -0.9868521648793961
-12.286957519960431 -14.918176955712147 -0.9851947066338305
-12.623109041054 -16.095772241400795 -1.0093231893737697
-12.613788851047318 -16.008799313591595 -1.0063169368560203
-12.553720256387935 -15.853838205045614 -1.0023946797522227
-12.343046497341199 -15.000378794105249 -0.9853343450310063
-12.303280647686893 -14.873332858929103 -0.9840108386391604
-12.74512233767232 -16.18678294445065 -1.0098773590291814
-12.63167488205702 -16.007671168579034 -1.0058533745773435
-12.866444192231764 -16.341918142754544 -1.0133756744959477
-12.812596370961483 -16.196185750231525 -1.0086287434788619
-12.753492610803917 -16.083738583021823 -1.0056795270343513
-12.925453676904926 -16.266802459729362 -1.0087841685085703
-12.886932943679934 -16.038431060704607 -1.000658511911656
-12.348056870800614 -13.605586265822188 -0.974622647892502
-12.363137128387734 -13.54796049198633 -0.974548290955095
-13.601487809795007 -18.94912001084353 -0.9937633805790267
-13.048317702107587 -16.378886404471025 -1.0106421971340616
-13.03662800716674 -16.275938690132598 -1.006476678360271
-12.519090752902553 -13.559354218035935 -0.9715929481487372
-13.651675615224534 -18.98886832922801 -0.9974995419778413
-13.15968134829744 -16.424776038275194 -1.0100717739773906
-13.131255633862047 -16.344751798107982 -1.0071796561700994
-13.100511708863614 -16.195655451768957 -1.0015997888674193
-13.108494201248963 -16.17841954391492 -1.0006838577344321
-12.956835147392244 -15.352636090959876 -0.9777880969159065
-12.568914726237484 -13.507263520582542 -0.970993561710169
-13.744318707039893 -19.063728145773418 -1.0045840367944985
-13.30099849958891 -16.487600958584316 -1.0096820368063895
-13.280131560166684 -16.450423957520492 -1.008432119420677
-13.197788077070786 -16.339371769431047 -1.0053545977759406
-12.993538275558524 -15.323454740862205 -0.9761317055203599
-12.9918885858192 -15.289754047780653 -0.975385243344658
-13.368562951569189 -16.56336992811847 -1.0117762487152577
-13.371985433615809 -16.50962146053668 -1.0090951487784212
-13.095967913689586 -15.266481792800427 -0.9722791556738768
-13.391151742383427 -15.628950041634859 -0.9743389950455195
-13.697407852094976 -16.513621505493568 -1.0018247046645974
-13.841006148097016 -16.564910717637495 -1.0011800707414962
-13.811465613030355 -16.523252223409884 -0.9997177434130173
-13.931290655754221 -16.693152820944164 -1.0060191308677322
-13.84559877510711 -16.54994647303598 -1.0002970874965154
-14.01346785022325 -16.724237186851692 -1.0059899538815882
-14.046009331347237 -16.669629781722147 -1.0022875771564035
-14.021068231721493 -16.582736667996567 -0.9981238733650262
-14.140975036342212 -16.75160498281692 -1.0049050246471274
-14.06848990243508 -16.627571110072658 -0.9994858675259072
-14.29295841079197 -16.87082815026753 -1.0089648843483918
-14.25448824102455 -16.819621259594992 -1.0066074868746957
-14.225946563895917 -16.75488820976508 -1.003355200832132
-14.381442378587513 -16.863794885393073 -1.0068493346162086
-14.366384987760181 -16.80238788610845 -1.0033836901115412
-14.299703662537953 -16.765133726818053 -1.0024591132667156
-14.510477355989478 -16.97226245694588 -1.011433723937345
-14.473418943818936 -16.892290341535265 -1.0069251895006797
-13.94750912968834 -14.390966987487014 -0.9421513302095192
-13.983230889228073 -14.361195654462882 -0.9414227769137267
-13.99803432505748 -14.267781376395778 -0.941291710633925
-14.722261357207097 -17.770167525838787 -0.9430424099422369
-14.692670111704945 -17.341314430519564 -0.9166753339451791
-14.558100078541539 -17.039791125340095 -1.0151284221181156
-14.149259074474365 -14.658387746174744 -0.9385989289503196
-14.136529526087457 -14.640008796390994 -0.9388072356761115
-14.145100146025174 -14.526230507049469 -0.9382529189547086
-14.020895935257672 -14.31101851599955 -0.9407419845804064
-13.473819230440844 -11.256863922425843 -1.0133356669291596
-14.839670574408554 -17.64617092011082 -0.9377425971309894
-14.772697844483925 -17.348207852272736 -0.9184989526974506
-14.704989789960312 -17.049312643436515 -1.0134205714274054
-14.171140008545457 -14.580369106520711 -0.937837561263791
-14.121472391958308 -14.06593927205663 -0.9400592668610739
-13.551433560922977 -11.24857795024134 -1.0138569349288054
-14.895940985731508 -17.584001195944154 -0.9350347563203847
-14.906670151558098 -17.319454911341552 -0.9192546916524735
-14.843912793254214 -17.088629826685622 -1.014104439230801
-14.854475003963437 -17.03506631303908 -1.010120371399904
-14.782202083507094 -16.935027899985997 -1.0043245004334023
-14.2225877478704 -14.061739010619231 -0.9383864395790962
-14.210513195564495 -13.990950801756114 -0.9392406859780958
-13.636850579068387 -11.219228097310927 -1.0152925236775256
-15.01769737416507 -17.461868390022776 -0.9299708669514098
-14.973751207695615 -17.30118629872301 -0.9194195789902078
-14.950136459537742 -17.135273586969113 -1.0160511629343594
-14.892766536831573 -17.015681258094045 -1.0081661834965745
-14.8509426333053 -16.877806905351157 -0.9993098305331014
-13.714471658584985 -11.228214478756579 -1.0153085855817405
-15.054827712953797 -17.44516530427487 -0.9296844308583277
-15.057860511955614 -17.371014997329414 -0.9252112073105371
-15.045253043246806 -17.29037645858548 -0.9201177182053475
-14.41325827375051 -13.950847513520767 -0.9365696643912657
-15.11205003089868 -17.266041615314023 -0.9199204342661843
-14.458192657693795 -13.924984637965022 -0.9362595821386529
-14.442857549191348 -13.859417948728767 -0.9374051142673714
-14.68683768406146 -13.630839432189461 -0.9387103434972235
-14.29784966725272 -11.838846154046852 -0.9951344908760212
-14.74892412201715 -13.629769282313879 -0.938188330957519
-14.759326609451966 -13.562264181735355 -0.9396436392279829
-14.744515990386482 -13.505333311702872 -0.9411302653123499
-14.40697237489188 -11.859851552031337 -0.9949701786620022
-14.346611768633096 -11.856155757586595 -0.9947220034408438
-15.724120636765537 -18.083823070080395 -0.9900261412043287
-14.827932900419851 -13.476331746651391 -0.9412772222809281
-14.798536223472505 -13.325999742951362 -0.9454660259988215
-14.44859108216912 -11.843146716112779 -0.9959211072657865
-14.494298515012542 -11.819637818065678 -0.9971693423818613
-14.895607993698867 -13.453279758866643 -0.9414871881403956
-14.543359232189093 -11.756233595127338 -1.0001370831541032
-14.577182047009787 -11.688825469824142 -1.0032312129331147
-15.915289186808677 -17.870277729406773 -0.9804048913147823
-14.63174936784767 -11.646395213533223 -1.005565469133719
-14.661814528107893 -11.584798225524573 -1.0085340569379981
-16.151054964649944 -18.459986823843508 -0.9228963467554964
-15.983072588819466 -17.836613940828496 -0.9801060387236973
-14.74885794801839 -11.602837061006932 -1.0087796205766957
-16.318485758716655 -18.931816399160542 -0.955040589518661
-16.315825886371982 -18.907093061674743 -0.9536928347177297
-16.178317915381665 -18.173940689680872 -1.0126028406111567
-16.144869650032803 -18.082384666322145 -1.0042747344826415
-16.078540067573154 -17.801410438257935 -0.9806292579194013
-14.839379407732574 -11.61350857348508 -1.0094682936405148
-16.457254110292663 -18.981323292264506 -0.9655287427670272
-16.36932085404071 -18.835808029631284 -0.9533473319168034
-16.380750620516928 -18.64692992633554 -0.9448932500375203
-16.372655520563196 -18.586689326126148 -0.9415245975669958
-16.32436188737992 -18.30776028106303 -0.9253996283276249
-16.27530290013587 -18.27881903115524 -0.9212559382746549
-16.22343612085163 -18.154653701134528 -1.0128294455988196
-16.21982698001338 -17.86268417035273 -0.9901549320597804
-16.186232151668555 -17.78981718035133 -0.9834358551120498
-14.969373768352629 -11.656698729025397 -1.0093414280439574
-14.943283514227279 -11.61716689047531 -1.0107585084654613
-16.54207163304412 -18.959267447901006 -0.9694521078922003
-16.410476317349573 -18.611085172282017 -0.9448795979358039
-16.388364974883775 -18.340170711071913 -0.9305822971716727
-16.368908827992083 -18.16025860047135 -0.920880180638184
-16.360498522757606 -18.024308627855778 -1.008003951584972
-16.348788524152226 -17.967473861091932 -1.0030917434086961
-16.239972212284403 -17.813988524921267 -0.9871625047849616
-15.114362335766915 -11.730673188949705 -1.0081648320967733
-15.110122885318493 -11.678924197948675 -1.0105049041916299
-15.003413116463785 -11.6023103326539 -1.0123015651416496
-16.64106633933819 -18.88347953181448 -0.9716290952239729
-16.55463983926675 -18.39301937410382 -0.9426962473848816
-16.513814989633243 -18.206292959249666 -0.9313290402375044
-16.446639613123512 -18.105170398343365 -0.9226488652104908
-16.442810118554014 -18.010502227889084 -0.9869824204406645
-16.465100023136205 -17.961182852435186 -1.0072417693460838
-15.191269140579493 -11.703903975569073 -1.0106723357744962
-15.137194981413435 -11.677357387126682 -1.0110017220876213
-16.65126527600509 -18.811363976385216 -0.9687157723158901
-16.612123602530055 -18.357020276994184 -0.9443018929848748
-16.61156570628595 -18.33129063223678 -0.9430211372805779
-16.525274903975504 -18.102121160996347 -0.9269799574315485
-16.50333244551285 -18.015698560775974 -0.9672682604746944
-16.476029583389156 -17.959891221199353 -1.0075872046660495
-15.320378224738308 -11.780252622113451 -1.009340490672933
-15.255753899776286 -11.7489432572929 -1.009671859304603
-16.786852519642466 -18.74843281162712 -0.9737493374073956
-16.746595411396473 -18.5438806379813 -0.9613348171593433
-16.734768195024945 -18.50447789071665 -0.9587002224914669
-16.662324892981026 -18.30736682843585 -0.944828739492054
-15.425288881568337 -11.777413313333351 -1.0114922179016634
-15.364027511808029 -11.747909016223003 -1.0117075183409452
-16.874074536118982 -18.61869546910563 -0.9726533567539054
-16.846447796353544 -18.55936749908715 -0.968073428678888
-15.54761909303349 -11.842399204619433 -1.0107819463978078
-15.487512199349975 -11.810881959064545 -1.0111004341938967
-17.018587460634148 -18.693725396358598 -0.9851638022490969
-16.97722952326425 -18.58092520121603 -0.9770694081371453
-16.95532592004587 -18.55309765144141 -0.9743646498825376
-15.606772596517906 -11.84269514318437 -1.0120648963805012
-17.039095358611135 -18.67329187568479 -0.9854184772332764
-17.089677680357266 -18.603317805285627 -0.9850945565460754
-17.08294684126983 -18.551399018116584 -0.9821119448779384
-17.04449610390524 -18.437261396812477 -0.9741161283912474
-15.753815486209254 -11.888983266547033 -1.0131317135862463
-15.704996665693715 -11.872557482508975 -1.0127927088032784
-17.168502931628925 -18.593576963177412 -0.9895165460033356
-17.114998450893932 -18.488837484841156 -0.9810105079005502
-15.829247878571538 -11.92993567037313 -1.0128801992939809
-17.273639219017564 -18.64670772916749 -0.9987260793909588
-17.239515000746067 -18.62040728714159 -0.9952847480776301
-17.196703968353887 -18.453052236055573 -0.9843275833546503
-15.962145946260417 -11.984485602952391 -1.013499878565634
-15.888928880792163 -11.924374148186311 -1.0146793695193843
-17.377912970188035 -18.716575500578735 -1.008764548538449
-17.38331936724066 -18.643912549326537 -1.0055141086499904
-17.336177803044144 -18.592524235689236 -0.9999801133146737
-16.08851892996145 -12.08744382588533 -1.0116059120958671
-16.03903632165512 -12.005447922075447 -1.0145148524457241
-17.51825688984465 -18.689269921304238 -1.0163968625699495
-17.467403300344127 -18.636276010156394 -1.0105020612900117
-16.11527562333812 -12.028683420156467 -1.0154638496078439
-17.710542657480676 -19.20950726312664 -0.9302459838698003
-17.62413984899711 -18.890467499362778 -0.919994377313767
-17.634986391797998 -18.728465176107843 -0.9183455295929619
-17.545985185641435 -18.63412957341964 -1.0154530030637896
-17.77515699853702 -18.98663721914125 -0.9311942826877426
-17.68778026933542 -18.67979754294419 -0.9210736909514203
-17.676841352838668 -18.642118535336525 -0.9198152606533069
-17.94067409091111 -19.28451443319969 -0.9461678052670758
-17.903761413792683 -19.141740413145115 -0.9417238387482169
-17.856391863858494 -19.06697832887758 -0.937597433828002
-17.873475207848735 -18.97859786441051 -0.9374110677122894
-17.78602383150795 -18.66358391405907 -0.9272030637292725
-18.05762497317355 -19.29749922273928 -0.9538199664775822
-17.986965208099672 -19.24232646346579 -0.9485107189841822
-18.023504442464017 -19.1665378948544 -0.949738188747133
-18.1775611660117 -19.50976869476171 -0.9645160873578035
-18.088319614484988 -19.19124014487107 -0.9542164896586064
-18.16285448419901 -19.185575329511842 -0.9588514956506963
-18.182908057204056 -19.114737341112388 -0.9590852789776062
-18.18526292380607 -18.98333121436962 -0.9573065278035063
-18.264399847056342 -19.226710048654507 -0.9658467241061928
-18.23100980261937 -19.108771694491917 -0.9620267478027409
-18.264633022344068 -18.962046712945675 -0.96198176809135
-16.825512724165993 -11.606783720329656 -0.9216121691996098
-16.71459491173796 -11.494485548807436 -0.9185642297039136
-16.770843636824996 -11.438099298416946 -0.9227512272053765
-16.729175795404096 -11.346448718513725 -0.9227678939653063
-18.350836633269303 -18.961057885839423 -0.9673549504172604
-18.340875034708624 -18.889043782526784 -0.9656688699499076
-18.121603206504766 -17.811122119786177 -1.0134990780252233
-18.066032853801236 -17.585007538152254 -0.9642777828237289
-16.86043538902465 -11.599800966552618 -0.9235958155308218
-16.884101526981265 -11.529056882351691 -0.9265031167650696
-16.85960957667712 -11.299961167103682 -0.9305878525198293
-16.867767474891043 -11.258020509650263 -0.9320313899615597
-18.41856282390086 -19.003239569431482 -0.9721856870126881
-18.427654472961915 -18.84406244668184 -0.9703992083971983
-18.43793926170317 -18.792659408373172 -0.9702688279283924
-18.288950849623458 -17.948790853769506 -0.948543276968547
-18.192779508729746 -17.79473969363164 -0.9403114995786358
-17.019253328473347 -11.661597933522991 -0.9305349749948952
-16.966077044950858 -11.592672346837688 -0.9293097805191473
-16.893583520907328 -11.273090247756976 -0.9330290288157961
-18.56402264269851 -19.038398708360802 -0.9817042518312278
-18.595852669081047 -18.933776369300702 -0.98209891152313
-17.087958776296166 -11.64909494322849 -0.9345497833972446
-17.125596698357946 -11.605414604830896 -0.9376681572219343
-18.724258717628118 -19.125637673824638 -0.9928415500274081
-18.656180235043976 -18.969912140909187 -0.9863359732182883
-18.62323130452708 -18.94373149840603 -0.9839333088561859
-17.182553624671325 -11.52582512819371 -0.9427316343370471
-17.141808179228498 -11.430608156595394 -0.9427447242380275
-18.884198334284072 -19.425817889073738 -1.0071077500433605
-18.76671838543902 -19.153008456658995 -0.9958478594181613
-17.277774846283734 -11.5213701624971 -0.9482241309056952
-17.242238608382525 -11.485340769087017 -0.9470527820033756
-18.945971223934666 -19.54322363742529 -1.012642463404235
-18.9406552325716 -19.461659491548623 -1.0110917001513107
-18.92195306616941 -19.26517333652422 -1.0069750471284669
-18.944705060589065 -19.192808270147694 -1.00724542097487
-17.43711357808451 -12.039975595471148 -0.9448794307145368
-17.432133467128665 -11.92211076018708 -0.9474634053522819
-17.47399109386351 -11.803565816243498 -0.9527996840561966
-17.42300993708124 -11.69744034922168 -0.9523572796792519
-17.34337622373252 -11.504850656385743 -0.9523818372580182
-19.005992944010504 -19.319326983872795 -1.012886507196129
-19.00244362809231 -19.196620294754098 -1.0107873216605956
-17.54946911390134 -12.047004994962665 -0.951406026059653
-17.56458963031645 -11.99995464462759 -0.9534512829413142
-17.504577919612977 -11.674460565590248 -0.9577556816320691
-17.69229388809348 -11.83838298822008 -0.9651962045354844
-17.620193701874303 -11.768581020534729 -0.9624565935663882
-17.654852316577685 -11.68352226460114 -0.966660678286598
-17.776921758650126 -11.853753681706333 -0.9701394105063691
-17.735093291239235 -11.741796920599942 -0.9702160196466042
-17.686957292347607 -11.6902609917624 -0.96847659070485
-17.887289002298004 -11.981388596152687 -0.9741126870679795
-17.865610305250833 -11.95203644853375 -0.9734279028425884
-17.814723807679393 -11.86986438699379 -0.9721472067790242
-17.93337725249571 -11.937247736038131 -0.9781846652986075
-17.97304082019682 -11.804583527718773 -0.9839704735656504
-18.16854430102576 -12.247320156942404 -0.9865634166338317
-18.146544665601724 -12.079079058574244 -0.9890409000155961
-18.111136710020133 -11.973880996544255 -0.9891321913429393
-18.060516008563056 -11.895849084974456 -0.9875833672047211
-18.033093111687325 -11.798778847942978 -0.9880871181431249
-18.322223868957884 -12.426802189285286 -0.9931844701668168
-18.218806951590803 -12.238380765387314 -0.9902595892481172
-18.25697991638244 -12.167664850623698 -0.9945969633262534
-18.160842473471522 -12.069244599100324 -0.9902396080655222
-18.148858821630775 -11.98233681663635 -0.9914845671460528
-18.311299296311162 -12.144976099780633 -0.9989511844761771
-18.464108674595074 -12.3364756726139 -1.0055497245192337
-18.41018167705734 -12.006852404951157 -1.0091978249691795
-18.529864111704324 -12.321821298173168 -1.010731618301922
-18.474379484643173 -12.10388618333844 -1.0116055507623358
-18.469822886204707 -11.997738694478059 -1.0137065319451535
-20.5188676685583 -20.969801124565826 -0.9171741816900643
-20.546881797430725 -20.932865466068744 -0.9188846574130153
-21.01345921970219 -22.39748908832456 -0.9167113743130353
-20.764739778038344 -21.260296348931313 -0.9231620316541348
-21.043554525481973 -22.400236502370745 -0.9179436122934752
-20.808093405028103 -21.293393999025994 -0.9245002507191666
-20.82522783073775 -21.276797648201104 -0.9254172224463304
-19.023192000141655 -12.335040325837637 -0.9224593466496582
-19.20543676262611 -11.75610245343193 -0.9277560541790109
-19.182583068946922 -11.694729111476391 -0.9255360785419525
-19.118218906551377 -11.442570719898528 -0.9184063163850754
-19.816958673963327 -14.411118447411038 -1.007257080142231
-19.453930734232493 -12.510755359995573 -0.9534139461111991
-19.437453852242605 -12.43821584647976 -0.9514048799488932
-19.34040131330261 -12.009781886381461 -0.9396975123703385
-19.296687386755817 -11.955218552824004 -0.9361428648474641
-19.27760176240474 -11.868352161118061 -0.9338480119064614
-19.23693545579053 -11.793420547614492 -0.9302716134209044
-19.23698403883056 -11.680482412864627 -0.928959180265863
-19.205612604285733 -11.452073419736436 -0.9242426853438016
-19.19522944419526 -11.371003955066687 -0.9226341685095288
-19.84758729304584 -14.429723064091938 -1.0098620022444666
-19.702279333196042 -13.599622406228397 -0.9854125805977016
-19.729961066846833 -13.51601284692082 -0.9861254491659881
-19.717124250481397 -13.297370722371832 -0.9820179259628663
-19.66349762292348 -13.209259261736015 -0.977004515081626
-19.489581212159887 -12.52544090641867 -0.9560100014821827
-19.47456692415213 -12.399703003071615 -0.9534310350623075
-19.399521136738162 -12.152185452400646 -0.9453549108870986
-19.390791327363978 -12.001713955751686 -0.942962600117494
-19.3340220604887 -11.806039423113187 -0.9368517474217292
-22.15421836042602 -25.118687042221268 -0.9240033805775704
-22.08363424747163 -25.098995009732327 -0.9211875092126971
-19.85994026558437 -13.552268478838638 -0.9959304182856689
-19.79032372613246 -13.316913885013674 -0.9874614427168108
-19.62989940923891 -12.71025017296559 -0.9679395353333209
-22.238707543608065 -25.12353473283066 -0.9276299685064469
-19.928199645433345 -13.461010213192402 -0.9994019222604983
-19.60794282322865 -11.81680154194269 -0.9552735171879516
-20.056273094542856 -13.488023967124407 -1.0089848615460264
-20.02968601370542 -13.418386430255683 -1.0059942819986143
-20.01424826240921 -13.330541197751643 -1.0035453463009392
-19.999464490244385 -13.234274068520893 -1.0010453174920746
-19.79581129964416 -12.508085196856094 -0.976697340709257
-19.730437686961444 -12.173721670875974 -0.9679467128576652
-19.66546353592767 -11.98800563154354 -0.9612433442732257
-19.6890272766072 -11.762849046026286 -0.9600713643383867
-19.653667646686607 -11.698452616491739 -0.9569137356377911
-20.109549373787154 -13.517281378828795 -1.0132748876862725
-20.069241684242318 -13.423788234828509 -1.0089077294154694
-20.068444097363454 -13.207701795937142 -1.0055451867782073
-20.046143931878557 -13.14512546111332 -1.003027763153764
-19.97742303027265 -12.80435616493982 -0.993288098112097
-19.96322660542216 -12.781859042888545 -0.9919838998972432
-19.853676355685153 -12.017373554625376 -0.9743532499145424
-19.726122785542476 -11.758178947492752 -0.9625100378170318
-19.548360515568024 -10.672870321063511 -0.9378016176874999
-20.100150410977506 -13.117201696745498 -1.0064389838624426
-20.1307941532057 -13.005462130149475 -1.0069587503183588
-20.095169727301588 -12.813686407146154 -1.0016728985939252
-20.092614333694804 -12.750720147506456 -1.0005956396839908
-20.007417318885967 -12.234216838966676 -0.9876504146190397
-19.84354060950951 -11.546675270074392 -0.9678205486655519
-19.811702880921597 -11.233089665984863 -0.9618819927498569
-20.200199984726613 -12.94327389139922 -1.0109498893431403
-20.170023280532593 -12.80291078676588 -1.0067773495555248
-20.148438561205356 -12.737447054252717 -1.0043268825560514
-20.09251587858696 -12.25319653908848 -0.9937703586529092
-20.055139821630945 -12.229937560075994 -0.9908817029417748
-20.024282042504296 -11.775166959936112 -0.9828919036968281
-19.933899313573914 -11.646937588014628 -0.9751631980857409
-22.982440929017027 -26.144086229209236 -0.9440803737882544
-20.484998888228773 -13.595937445232687 -0.917438731847259
-20.245089997813146 -12.554829320950779 -1.0085173656682191
-20.17210844558187 -12.233339337133234 -0.9990120330816449
-20.193777072307302 -12.204918893260597 -1.000125464024014
-20.074498432774472 -11.7993031097717 -0.9866210586654359
-20.08689069221192 -11.706047840582768 -0.9862818267089554
-23.036251798231156 -26.072905738716855 -0.9474313818815652
-20.59130175744107 -13.62792632778913 -0.9232856463966121
-20.271242095779016 -12.390619217563763 -1.0080507968079586
-20.28073202820439 -12.255668912368597 -1.0068479794025431
-20.262103588259578 -12.20058010744566 -1.0048026971697115
-20.157607695763268 -11.656516794574069 -0.9904690454486571
-23.094027260563227 -25.965592604814972 -0.951494694191776
-20.6838353253327 -13.702274983069715 -0.9300335158624465
-20.65995169394958 -13.597671884912174 -0.9251849561527432
-20.407128223599447 -12.238549055042643 -1.0154207018530588
-20.388695247792278 -12.176561338377832 -1.013279397625438
-20.839294390661664 -13.863848497559228 -0.9425215193304268
-20.7609220671581 -13.737093318157992 -0.9346347184638588
-20.767699605289984 -13.589557093310882 -0.9295973989911955
-20.996259836392458 -14.059026498483052 -0.9559867821800888
-20.92473526212796 -13.94920706039892 -0.9491633222750192
-20.926170467986875 -13.904763654802311 -0.9476813565487611
-20.901716045306223 -13.77584831545772 -0.9421003574166334
-20.8309838686096 -13.50112419549787 -0.9291372419614137
-20.367120018587418 -11.365913063507392 -1.0010468410087519
-21.225260399257017 -14.784211851872596 -0.988985289245081
-21.16961629835185 -14.730760814650111 -0.985048870757965
-21.174776244355648 -14.656160267110817 -0.9829543476399516
-21.155961846997176 -14.533914017946207 -0.9783301708926717
-21.041442568907485 -13.95051620493257 -0.9541875993358965
-21.004381804698863 -13.803721901040898 -0.9474969266472029
-20.966871659064523 -13.739933297467386 -0.9436333276422502
-20.9547557117998 -13.692686966702658 -0.9414339041227406
-21.28290320579074 -14.599166654755765 -0.9856569519678086
-21.26878868763994 -14.520449988013292 -0.9825936261013721
-21.18266000247899 -14.188352554046787 -0.9682169701807736
-21.183863686366557 -14.121921751106104 -0.9660501855438473
-21.135809582164406 -14.020639164916293 -0.9605982314043175
-21.085200035360955 -13.951631017765722 -0.9560888491643399
-21.08068808203379 -13.794223147137531 -0.9504366245950671
-21.102557977639687 -13.767045167531638 -0.9504227782233824
-20.96858279437994 -13.343050468172043 -0.929368353577415
-20.961763683980756 -13.227429355857172 -0.9247928148812292
-21.379203899734758 -14.776487279289203 -0.9951008919196052
-21.312728265747893 -14.493148968861307 -0.983554762449315
-21.3419360391065 -14.368515480854564 -0.9807866297304013
-21.317869814611036 -14.309330998076737 -0.9778645558772516
-21.27736752851278 -14.205424411139623 -0.972763455616161
-21.24235078666472 -14.03705235848412 -0.9656675951906601
-21.14165596655444 -13.552367104883336 -0.94450551565568
-21.151923808911814 -13.436604001505899 -0.9407900214133822
-21.15523533673722 -13.358509086544533 -0.938103216082243
-21.085908433575828 -13.228817570599734 -0.9303137532340845
-21.487299268101406 -14.528071136243286 -0.9919070893604452
-21.437481191463945 -14.49906805951824 -0.9889268037841482
-21.4073296752206 -14.397910789522749 -0.9844589378500442
-21.20798590256971 -13.394568734564583 -0.9417053010088927
-21.156748766447464 -13.070230580524996 -0.9275550416720844
-21.12466999054909 -12.932031979411697 -0.9209541557794712
-21.602723132689672 -14.480746538554934 -0.9952089654758436
-21.59393419081701 -14.159618464781012 -0.9845390094963324
-21.39997367128784 -13.383966306726581 -0.9496587845759419
-21.286810388331062 -12.878348510968195 -0.9261464455854831
-23.203209539898566 -21.62034595628325 -0.9170285592147811
-21.52277717031114 -13.348599834372804 -0.9537085998580299
-21.35000532922205 -12.729482815976173 -0.9233493545202139
-23.287508491408296 -21.626889529461465 -0.918851680267569
-23.291401795764468 -21.50850033961563 -0.920335049568731
-21.754414054648823 -14.051511054521976 -0.9877191650313453
-23.336126983449265 -21.595977539912518 -0.920295987972563
-23.34039624443256 -21.516525096172266 -0.9213086054144347
-21.909992157750636 -14.377175766557476 -1.0047066312240671
-23.50473355196501 -21.641089384869296 -0.9234821956322985
-23.56150831821143 -21.601458530622573 -0.9251412999535291
-23.494151493481844 -21.427902849010504 -0.9255888273692471
-23.66559607598766 -21.51267107267675 -0.9282882647687704
-23.755668412981347 -21.517034471482873 -0.9301082275969034
-23.76845706579651 -21.489104239351242 -0.9306590700323024
-24.5503392474967 -22.318141178711034 -0.9383425272508031
-24.59845342046958 -22.226748837846557 -0.9402393498413764
-24.696065795186314 -22.271796452413362 -0.9417828360673798
-23.643938896240535 -16.64482646480431 -0.9216163752376175
-23.612553978473112 -16.586081427265444 -0.9203729501194493
-23.59813162830956 -16.487493950720896 -0.9184757529322585
-23.598464053940994 -16.424573926489053 -0.9172862656743921
-24.8343607441918 -22.330003548044797 -0.9439955396750289
-23.68183403242957 -16.672556695288602 -0.9223581883129239
-25.158864403922294 -22.414622331068944 -0.9496173017205969
-25.24264461363061 -22.443835126103014 -0.950974090039801
-25.395853950199136 -22.53336260098675 -0.9531536490306092
-25.323584315835614 -22.42168235115583 -0.9527198526214674
-25.336657051932146 -22.385505405917126 -0.9532823816055341
-25.520657737762164 -22.49686644042965 -0.9558266347154547
-25.444152026671187 -22.33423337328166 -0.9557100911417065
-25.421653598724852 -22.22152524189423 -0.9561749122132011
-25.582633520869067 -22.452266175590992 -0.9573519832256941
-23.7157537007227 -11.141643355701943 -0.9688279850015966
-24.825631100560003 -16.306855218406113 -0.9225975700033548
-24.867742804272993 -16.285757048638928 -0.9223985907466599
-23.87169838826871 -11.09449777753505 -0.9739774164794646
-24.990882812610018 -16.206365158724935 -0.9214167621297813
-24.897858839534543 -16.10928024302436 -0.9186799318361434
-24.885153564581202 -16.05736417389084 -0.9174095263353067
-25.049346927946488 -16.276449179020048 -0.9233195353715891
-25.026848081310387 -16.209133911557867 -0.9217025529149954
-24.13320455107426 -10.730537278823496 -0.971924404420116
-34.33281648588408 -56.42507389554145 -0.9627377008426894
-34.440734132669455 -55.906504204281134 -0.9764322904029418
-26.800979640922478 -16.074280131255424 -0.9292920097584414
-35.28228599000527 -58.328958382900005 -0.974639229694957
-34.9277782237257 -56.680303274146716 -0.9858541589840625
-27.160759703255646 -17.421772793174824 -0.9586010993507109
-27.07659693614916 -17.3546038801532 -0.9569044695564459
-26.939611732201065 -16.702267351395445 -0.9439595112200723
-26.999620230316168 -16.576195606834506 -0.9417343272317911
-26.835723202543 -16.20384035171767 -0.9325327569634639
-26.86018796987615 -16.028514656029984 -0.9285531351848821
-26.957370198549803 -16.14668030305851 -0.9319370621503139
-26.941201015568346 -15.983174024017233 -0.9279423264682533
-26.958316174595204 -15.952673838648906 -0.9272939360357484
-27.39324649749289 -17.89087112712792 -0.967465213984452
-27.32699094348571 -17.50567850956443 -0.9611226718131436
-27.319941655160925 -17.34615668895081 -0.9584152983495106
-26.984038085045057 -15.823747179676769 -0.9242404966396193
-26.967282390505243 -15.756982369117173 -0.9224400437835312
-28.948620635397795 -25.115134230432076 -0.9987338010156479
-27.27526409415386 -16.70642856842254 -0.9461409644806723
-27.239758126146178 -16.56625842342806 -0.9430036337288401
-27.584556637324305 -17.62601037045495 -0.9648422480067419
-27.51475516787748 -17.57693814857976 -0.9635630374309286
-27.74391239364101 -17.695340001529434 -0.9670404036617177
-27.936211500438958 -17.773030569772455 -0.9696154543275429
-27.656838468052314 -16.713271950866428 -0.9486722624601134
-27.677349520266574 -16.326785481275316 -0.9404236128430771
-28.163325908715905 -17.93501082496461 -0.973686923723941
-28.169281007438464 -17.85987430509284 -0.9725919361406736
-27.754068130162537 -16.15585980235267 -0.9369363888015
-28.28659085596498 -17.923640160448258 -0.9744083992472818
-27.832493808290423 -15.930696018636452 -0.9319504914962706
-28.350687206330598 -18.014237073557045 -0.9762232404319502
-28.543042049724754 -18.438071403193216 -0.9835392303383373
-28.51024063164072 -18.08853158872168 -0.9784574593734537
-28.692334414928744 -18.64001863863756 -0.9872568812622862
-28.680274548590415 -18.577300423979985 -0.9863874735071116
-28.68023111159457 -18.410000973690067 -0.9842151087539224
-28.804426832610957 -18.3994722455995 -0.9849977450708012
-28.844433654427768 -18.328432684945298 -0.9843237720612078
-28.915105052163632 -18.385144171192273 -0.9856427713272418
-29.62111006432165 -18.782005456139796 -0.9962410201082817
-29.891315055523123 -19.171474375324188 -1.0031189803225709
-29.864180857092506 -19.02483569545227 -1.001154817817418
-30.01209498296322 -19.11246474626877 -1.0033901981040698
-30.18450563714671 -19.208158835727037 -1.0058823338983995
-30.936079900462843 -19.67208441700229 -1.0172367967522449
-30.922948091561082 -19.61857386450469 -1.016528180070969
-30.877077635669448 -19.555540922757377 -1.015467503494385
-30.986652655248058 -15.303579884700387 -0.9340672737866357
-30.9261905919643 -15.211936583207626 -0.9311504264967202
-30.944848568249952 -15.141509839211842 -0.9292688445910074
-31.132495554292277 -15.394553819279224 -0.937436241253442
-31.059613917269814 -15.348760791508203 -0.9357436605790808
-31.049426465990116 -15.255019428249417 -0.9330837741819161
-31.17113234632032 -15.441216028121703 -0.9389326047689083
-1.4835604376524536 -34.92981981582976 -0.8973363017590095
-1.5853105362328321 -35.081926233071655 -0.9094683041521603
-1.544559673648326 -34.99365722897165 -0.9033060910044807
-1.5170329837912924 -34.75421875134886 -0.8911279235077381
-1.4387852648865582 -34.577655802281335 -0.8791585502982128
-1.627770267698864 -34.48905401248763 -0.885069256075923
-11.085237565835588 -23.6238248717324 -0.88937779963766
-11.8378141106454 -15.891557701222697 -0.8198026514090051
-11.924851930357232 -15.868228220556212 -0.8199545043746541
-12.204298164621818 -15.894903880004497 -0.8235942325476926
-12.199538181539028 -15.697171494325781 -0.8173609461830034
-13.183830384460489 -19.978439929080693 -0.8354456530869627
-12.284094780004548 -15.780357781968918 -0.8207449848993961
-12.322374132698428 -15.68669204829606 -0.8182435520312095
-13.26130819596705 -19.931794896424986 -0.8373522447547241
-13.212139979313463 -19.921534104957836 -0.8344141794500654
-13.228832915455774 -19.733026081628303 -0.8270668879669274
-12.474938077862841 -15.900480000094719 -0.8264519208441985
-12.39715797944179 -15.742024088080505 -0.8206979037097327
-12.412536238924181 -15.704570933776337 -0.8197053592967801
-13.399345820525982 -20.064922764786246 -0.850214440957923
-13.383949507598057 -19.96000704220258 -0.8448193377707375
-13.308889831053799 -19.914483782088922 -0.8389933130006123
-13.278722253899462 -19.742379944362227 -0.8299850254319839
-13.304261992091211 -19.690697429987992 -0.8290150703961514
-12.563246948384386 -16.215230166839923 -0.8381115190448902
-12.547741957729908 -15.914566618263446 -0.827664163706191
-13.49939809856332 -20.12091983058346 -0.857838337381926
-13.499476322268428 -20.050797644537596 -0.854721721919827
-13.441542611699035 -19.976544380992152 -0.8484837543309124
-13.396321263697434 -19.871911211651387 -0.8415797814095559
-12.704923609603284 -16.329859594858664 -0.8437974767448428
-12.720608304198947 -16.25888008957535 -0.8413347951951284
-12.684966585020206 -16.10356190846222 -0.8354142070775579
-12.635415566671115 -16.02527392698133 -0.8322223481960571
-12.613810147982516 -15.947070554739293 -0.829379469923819
-13.612246080331836 -20.287867498879162 -0.8711066863271579
-13.601905711066614 -20.20385133077359 -0.8668146575227476
-13.55657833671891 -20.160194253083645 -0.8625250735348782
-13.512487076292722 -19.976592611597233 -0.8521206213923893
-12.8331257542686 -16.27865368013258 -0.8432346052770179
-12.813673638920214 -16.221188965350176 -0.8409118283256061
-12.794489739366654 -16.12130987370403 -0.8371660050110183
-12.726257654051171 -16.00841853296608 -0.8325774598672389
-12.970406190013502 -16.33469823373324 -0.846764339304714
-12.958058896760663 -16.319911993986167 -0.8460951594721713
-12.881323435658736 -16.168291595793463 -0.83971822520844
-13.060673643904488 -16.54846479064033 -0.856122253937401
-13.082428949074458 -16.41388637519652 -0.8510029666515657
-13.055988136653019 -16.373726181619173 -0.8491804012411063
-13.222455572086453 -16.500898641377972 -0.855999412139181
-13.11756039147328 -16.34418190875071 -0.8486842983583212
-13.32121234028241 -16.58218509348319 -0.8604254389341005
-13.292906764152345 -16.510601340231368 -0.8571705961872597
-13.37286938249466 -16.57056187173929 -0.8605207955512495
-13.364220476138726 -16.510743768004584 -0.8579579176376404
-13.411155314328107 -16.433832446933675 -0.8553727459215903
-13.524577155184065 -16.925458064748078 -0.8779510837799236
-13.536567644667794 -16.79843931068153 -0.8722983563746154
-13.545776718887423 -16.629823781508104 -0.8649895512002643
-13.452337929327966 -16.591149897233677 -0.8622741750612272
-13.449050552102888 -16.39674400280816 -0.8542975723814502
-13.630153541931637 -16.90758592890448 -0.8784374338698152
-13.654763666771593 -16.824956643693955 -0.8749452016032336
-13.587577669987748 -16.619803617907746 -0.8650599936994838
-13.594017202066079 -16.57373246119597 -0.8631713850062663
-13.65578728093748 -16.57407987157672 -0.8638776130419282
-13.80612852537817 -16.76553274578742 -0.8740874765157227
-13.999921679215355 -16.613392295316988 -0.8696176558665079
-14.154681345570594 -16.755038003713953 -0.8779693592555723
-14.15495781349172 -16.68937938328798 -0.8749174355655347
-14.08693615260714 -16.59013979567516 -0.8696159634848613
-14.27285837923937 -16.906031554964933 -0.8868004973835378
-14.291517635050512 -16.83389669090615 -0.8835141804500184
-14.181563172428056 -16.694404809053403 -0.8754902265664919
-14.21049475858338 -16.601614225452263 -0.8716202364548487
-14.19681468944536 -16.516729366186887 -0.8676988811849347
-14.447806328934535 -17.132234741805938 -0.90099587807457
-14.377443984870695 -16.918489474241916 -0.8888676594921413
-14.362782587313529 -16.793583523268165 -0.8825083232532136
-14.376571064349553 -16.73396298892012 -0.8798189774339086
-14.473043318959922 -16.919086692255636 -0.8902420201796052
-14.638674578614784 -17.338522259669872 -0.9155732576846901
-14.667091077738664 -17.26873436954266 -0.9120885162623988
-14.628876672124083 -17.111748176503987 -0.9027288014950372
-14.643459542552572 -17.091485831280764 -0.9018508673357919
-14.594790733408782 -16.96290134049692 -0.8942579999268231
-14.582503327098916 -16.893383186840946 -0.8904887513919977
-14.735462208706936 -17.231036170070325 -0.911120406398297
-14.74468331883592 -17.142278057532874 -0.9062831392456919
-14.658626665073989 -16.916701694537245 -0.8927967276692813
-14.816450457797643 -17.10526206838376 -0.9054049977155675
-14.792824719658263 -16.922934183526966 -0.8951274953380614
-14.794871399210649 -16.82925446899595 -0.8902601397634764
-14.939478699255648 -17.22324486151514 -0.9142198443938341
-14.941223039413279 -17.07605941755573 -0.9058479696908277
-14.900808000956847 -16.995834989221212 -0.9007325805475079
-14.887516630813161 -16.905215348984285 -0.8956270331984703
-15.116138907013944 -17.354736784620496 -0.8196174051596963
-15.10869240070125 -17.30812269979346 -0.8173383152109108
-14.957505755776081 -16.97305434052259 -0.9003892459721345
-15.1543802259691 -17.35869720583655 -0.8216410058363396
-14.024268477490288 -10.836665190369695 -0.8243253365735599
-14.326354935842977 -11.879859809552812 -0.8196367388240667
-14.275069832198561 -11.847636298434757 -0.8186143557544131
-14.090828361195637 -10.891795169490258 -0.8256821697986891
-14.779110432083378 -13.672608810797342 -0.816884193050548
-14.402776999240139 -11.889971709117983 -0.8217230896916042
-14.195578565153962 -10.931678021934303 -0.8283957679877024
-14.813062055304588 -13.630727433732766 -0.8176503611311992
-14.82321036968301 -13.548454008782613 -0.8181210760352351
-14.834810107263607 -13.48827671766633 -0.8185929524461106
-14.484602200740216 -11.868592627977348 -0.8243557918449452
-14.516523097733886 -11.828153090803557 -0.8258169322493881
-14.353291053710354 -10.981300471361774 -0.8327794689613613
-14.258895873612905 -10.898559053616015 -0.8309345775526502
-15.806607751638182 -18.02521884348116 -0.8838337953225934
-14.891815996043121 -13.495434779982666 -0.8197762197941677
-14.912081142612626 -13.449994150232857 -0.8204486442637693
-14.885362041927007 -13.38032078999079 -0.8202112997393043
-14.548801490091263 -11.771330313101862 -0.8275324716613544
-14.564526883494718 -11.680200096268106 -0.8292658065140498
-14.539209118869245 -11.574183444917315 -0.8299580047066983
-14.496793242538244 -11.154377603945786 -0.8347772651347012
-15.899938846231478 -17.995063578060947 -0.8874188397809941
-14.617189248737253 -11.280259905925206 -0.8368252105418934
-14.488609233230143 -10.935194149328499 -0.8379420281940575
-14.489387108565268 -10.86444873310101 -0.8391446739290165
-16.00714491482811 -17.900924859358398 -0.8888258794285292
-15.989018365175415 -17.833374108042978 -0.8847498308658945
-14.653644645752372 -11.25225526711013 -0.8384846871167129
-14.555424661205512 -10.893950647082718 -0.8408849159954551
-16.16299917888205 -18.290536209234734 -0.9155344397365117
-16.191604343854586 -18.187451034558354 -0.912255166659857
-16.111546437129 -18.066909632829713 -0.9021830577080081
-16.110813185294848 -17.96838089781273 -0.8975454563327013
-16.096665584913044 -17.86968524946537 -0.8921950531068464
-16.06560188641962 -17.715825654377806 -0.8834386597317911
-14.79678717657883 -11.16940166693189 -0.8447252614378333
-14.764730240075668 -11.129830834683588 -0.8442601496403355
-16.263476704653744 -18.1477671979033 -0.9143764458016007
-16.229272382477415 -18.051251358956957 -0.9079195668376807
-16.23038748619911 -17.94732496942576 -0.9030944971075057
-14.817269677322358 -11.168419189983144 -0.8454083129881707
-14.86881391413147 -11.130257651067879 -0.8478936678991867
-16.476892040872997 -18.843514030961476 -0.8413908175304816
-16.463217271909244 -18.501483210428255 -0.8350537628307675
-16.438335387410856 -18.45100272905845 -0.832482195744913
-16.427950190613135 -18.33193562196629 -0.829838578112101
-16.405184228013173 -18.25930131145998 -0.8270411350003466
-14.993079895064497 -11.196369839014165 -0.8511946948219697
-14.969222655333782 -11.047129652926568 -0.8529521552347042
-16.617937937788298 -18.732911778641345 -0.8495768663301089
-16.554188650501636 -18.549748065924245 -0.8422498062235777
-16.441041373900802 -18.2907794351463 -0.8301152777153172
-16.46054707519845 -18.210720897490905 -0.830222545853911
-16.470913069430903 -17.98991350903205 -0.8273877440113335
-16.38401281000823 -17.940451819981497 -0.8202970683270546
-16.424110030322055 -17.786713773290938 -0.820644970990496
-16.407903985704195 -17.745952544795305 -0.818780557363596
-15.036540609439227 -11.073302710400277 -0.8549501121201601
-16.698968305435876 -18.757236347704442 -0.8556093990023855
-16.668208469764306 -18.724246092889206 -0.8529573600921814
-16.657764893658207 -18.57547878631351 -0.849934432191503
-16.6696441257859 -18.442288655675604 -0.8487022098172752
-16.630422499582302 -18.415550519872316 -0.8455235875894521
-16.599210296859994 -18.300261966293675 -0.841513957928965
-16.55295896096669 -17.86309109739711 -0.8312235401447355
