ply
format ascii 1.0
element vertex 840
property float x
property float y
property float z
end_header
47.08954031012397 -166.98722107670793 -4.406935779254462
47.127515375117284 -167.03028029135245 -4.407345988483694
47.2278428090846 -167.07913721457825 -4.402837824483564
47.289619727580096 -167.09645069210765 -4.409275729506789
47.38543433843235 -167.1684485039398 -4.385740554658022
47.47109983496019 -167.2226498818509 -4.3812692741521415
43.792638417306044 -165.24307233952092 -4.711383584969889
43.91871927276075 -165.3143034462669 -4.693749530412956
44.00280045118997 -165.34239802023708 -4.690946605754638
44.080568823810225 -165.34921953401474 -4.6872087758158605
44.17748259189035 -165.41801002349345 -4.662989344031953
44.939195484583315 -165.81720897784473 -4.596297342271438
47.11131731574866 -166.88323280959898 -4.402365764624133
47.18456934525908 -166.9571757478728 -4.409915168058094
47.25193699667183 -167.00287143555357 -4.407687495628829
47.347488651923044 -167.0477965943407 -4.398472358508945
47.45095366084661 -167.07347442427346 -4.387715069493393
47.53053636704798 -167.08975297625844 -4.384868208700507
47.610694889093466 -167.1560402191476 -4.367328526127347
47.72464220904615 -167.2160467734701 -4.372095908021526
48.5447261607803 -167.6513678649626 -4.273439724961563
48.57763613463607 -167.65449003481024 -4.266582612057098
44.085166068726956 -165.29146488533718 -4.674342714394058
47.14574319331803 -166.82386404929264 -4.399868984635549
47.24475957796808 -166.87302734039002 -4.400870499247425
47.32471625339662 -166.89211394903623 -4.397387471135284
47.35279510025981 -166.9503999827492 -4.401599421348129
47.58758534466463 -167.03130917535756 -4.3871436351640245
47.673183677910124 -167.03939499423132 -4.379749789142689
47.189629371259606 -166.74833510201398 -4.398116266099418
47.290976693717525 -166.77383011595188 -4.394164449878629
47.36566210285954 -166.8228212016524 -4.395563467000643
47.40392366933096 -166.86352592645878 -4.392548445111134
47.59876736621577 -166.98341282157807 -4.38294701676054
47.702249613529034 -166.99092269489105 -4.373581353061861
47.78179353909493 -167.03056038474477 -4.3832468204838815
47.39995268124075 -166.66787376021162 -4.388545996888549
47.43142472347651 -166.6489523547053 -4.3883568320415245
47.91954132004898 -166.85833986160023 -4.347094753239961
47.97223554320577 -166.8753734851012 -4.345276886770423
47.957733736032665 -166.77355647054006 -4.3493441491395615
48.01204099709475 -166.83395972817678 -4.347658759122976
48.14438292307516 -166.658888656143 -4.334497730817918
48.185079203288346 -166.68249208659822 -4.333805354833472
43.90913522477803 -163.1752348782412 -4.781906991470518
43.73026632752079 -162.87101328244287 -4.8441887429180275
44.486857514723646 -162.57866407336476 -4.756380936464685
44.360420123646655 -162.22529670413377 -4.7658417562976565
44.37816612567001 -162.11584148652307 -4.774264938152144
44.35629287995074 -162.00265576665183 -4.792776447273268
44.41643599973988 -162.04251396855094 -4.773479637366495
44.51865316200422 -162.06672853256012 -4.745752592452851
44.28439970391389 -161.8944889865246 -4.822891743040297
44.51164192341827 -162.0089020290527 -4.754195509508065
44.19363271670964 -161.71489594023572 -4.86592430135333
44.35197520776585 -161.7657078126901 -4.821423735503093
44.418142501648084 -161.8045032865227 -4.800782749352663
44.37801347613029 -161.6864738733168 -4.824306692945753
44.44973351473057 -161.74397260415853 -4.800134566956487
44.34116869109524 -161.56295100940866 -4.838468490883108
46.52364209379161 -170.98139137065968 -4.283008735466835
46.44825449159911 -170.86314277205895 -4.245857348310654
46.530762309200306 -170.8713892224701 -4.278053619896917
42.531255295637706 -168.76757021800108 -4.661524843208201
46.55361184131905 -170.7716677856298 -4.2799320539983325
46.59097668028163 -170.82727516229846 -4.298137192372659
46.512253420435854 -170.63150199402426 -4.238313043284291
46.569007392078554 -170.73101094099954 -4.297942404020388
46.56685485293168 -170.57517997533108 -4.278525358238373
42.85170935836158 -168.57476839797698 -4.6044488210503305
46.58816476543888 -170.46800564063864 -4.292968933916075
46.59219736440951 -170.3638766158097 -4.293503982584566
46.637466675155835 -170.35482959693417 -4.284875875782703
46.71459847819095 -170.36267838160165 -4.273424299317899
46.60674864760768 -170.25639009167253 -4.231893824067069
46.705341956244446 -170.2937473903826 -4.269571344019755
46.28913985523615 -169.98928844357863 -4.34092142246364
46.50122732388704 -170.0494708484876 -4.335540141706499
46.66116619184408 -170.19692830278265 -4.258900776244029
47.1085437666273 -170.3492272250217 -4.23567918784541
46.44559487398134 -169.93538896383728 -4.3338396058923845
46.512767092166115 -170.00494769847504 -4.333353827771439
46.867542478044555 -170.1631243553376 -4.22067044786314
46.9591694818537 -170.1701751659102 -4.206749276303241
47.06335786427068 -170.23527012090995 -4.2324935474901695
47.097987324420956 -170.30889536011097 -4.252492839263065
45.51746514431679 -169.3401956865735 -4.432683654727386
45.63964487557446 -169.40356731307153 -4.421658767712995
46.246956906607714 -169.70948893452413 -4.338318443360611
46.241074216509475 -169.77393590491957 -4.350040914075088
46.48741553340164 -169.8403609561659 -4.310937585781924
46.85255328313006 -170.00629473184975 -4.227603298368411
47.02744330080581 -170.11460531012932 -4.260522517840653
47.070522921997025 -170.1130295184594 -4.249967245582669
45.5188553783811 -169.23811829015625 -4.434241895028693
45.65364938759501 -169.2825878474551 -4.424041485755556
46.17178385769124 -169.5625700598829 -4.340192536783963
46.438471045506496 -169.71271048784754 -4.30510117327112
46.87269042860486 -169.91655428807462 -4.256487394417929
46.9761814914715 -169.97041849611077 -4.269234278005713
47.0146931284318 -170.03921567292664 -4.245999746207869
45.42739369139599 -169.09368864190253 -4.4440839295080625
45.527126736225654 -169.1746640608523 -4.4148498766163025
45.66389325472897 -169.2382257574447 -4.426852681303737
46.19804541379089 -169.46408071330134 -4.318741522603236
46.43178652052944 -169.58171177765803 -4.309545998238215
46.47958580982298 -169.60770852709112 -4.331775526208152
46.52136106179088 -169.66663283443162 -4.327112067019726
46.864235209265594 -169.813540402567 -4.239683342876411
46.91543660881835 -169.86130671322397 -4.264267056069131
46.97634576678295 -169.89722199165212 -4.274554013625235
45.51215333813897 -169.04416114095727 -4.443637239075926
46.20787696335691 -169.40543107673298 -4.3070042515712155
46.448196539468285 -169.50700398512632 -4.320277990256229
46.50151752833282 -169.5296228401925 -4.312256840112847
46.8866279051081 -169.71752088885648 -4.252726770822277
46.93149720859397 -169.7596749198147 -4.272109469285243
45.98394192505909 -169.1827601826793 -4.404127796857618
45.56965147851616 -168.5926768851249 -4.447708508630082
45.61923813205657 -168.46658476880222 -4.4125156389447975
46.00654827232058 -168.65784686398914 -4.418491705000054
45.63954413522868 -168.40814023602283 -4.385369692248168
45.765983534819185 -168.46620579064714 -4.422471649201986
46.63994020407407 -168.9034534295648 -4.348903046515512
46.6715025879597 -168.9406433719585 -4.3564963573831115
47.41631103210947 -169.28126359141515 -4.27915265418653
45.676301303438215 -168.3568030264617 -4.376812488168207
45.78461891970182 -168.351344440952 -4.370844860630118
45.8670264193547 -168.37920940777252 -4.41473932218281
45.951041295672674 -168.50085598023333 -4.427008852665342
46.58661330133443 -168.7867670338659 -4.332833988526801
46.60809970094021 -168.83374624576783 -4.332785770702557
47.40518154714701 -169.20652998182143 -4.255600401151578
47.411422347348555 -169.24136766752588 -4.2733117592146685
45.47027538915264 -168.13616597515264 -4.473377249418494
45.56310600261042 -168.1522186754648 -4.46412198870925
45.829487520481756 -168.26675819065883 -4.385498991782653
45.91349642303812 -168.32698961320816 -4.415446079487137
47.364601505926224 -169.00923260614238 -4.2563721542393305
47.37570425661076 -169.0963506439865 -4.235493131342043
45.94983099786321 -168.2184567153642 -4.347155272041498
46.14737764612122 -168.3062539313525 -4.416453926261006
44.6815755924998 -167.46336148101813 -4.4879956646624395
46.01316974235863 -168.14222190678177 -4.434453945657773
46.14774903926654 -168.2255593004806 -4.40338825655228
44.99318977670723 -167.46374053155625 -4.526679182385356
47.51259068917254 -168.7908574630559 -4.231101033020695
47.54152640741843 -168.80577986077859 -4.241658934097961
44.87079058102989 -167.28204388836193 -4.546833246750104
44.92646643822682 -167.35283039867403 -4.533528041594507
45.020143874362915 -167.41727114710142 -4.5228529178185495
45.36793571602372 -167.6186618718481 -4.499089775895227
47.52483045575668 -168.7376852264108 -4.244667163438743
47.548125267860385 -168.7601923270927 -4.259097417713275
44.92506947388521 -167.2353901659439 -4.532824417790219
45.023509985510785 -167.26468712772282 -4.523667251407363
45.084133103156915 -167.27762751700723 -4.521664835496454
45.266412634462824 -167.46684961090858 -4.511260469824691
46.31435529087663 -167.944572781066 -4.417127261567609
45.03493654794868 -167.2086965307963 -4.528792541211427
45.093733160056686 -167.25095543426067 -4.526684252606941
45.429230333786755 -167.37956978728965 -4.504504413702908
45.5021471576591 -167.45894181323652 -4.494297563670574
45.56208112527915 -167.48947729135816 -4.490707325140944
46.30060207427476 -167.8555400313529 -4.420837275962395
46.325657771198905 -167.89739506696333 -4.415434290302741
45.20648995087004 -167.1592433931844 -4.527159742110142
45.25852265361214 -167.2069379563995 -4.522787784542172
45.38731253445316 -167.27373791306147 -4.511166469491108
45.432637780543885 -167.28908949183216 -4.50457257818185
45.63862388310873 -167.38668943034818 -4.485720836288454
45.71392194053507 -167.43463800029224 -4.480091795330676
45.76741049157573 -167.46371699233978 -4.475730625024012
44.82161884202277 -166.84627144600734 -4.564834553085472
44.835903093474435 -166.83662790177164 -4.560876621345612
45.312258539475636 -167.13605343195417 -4.517724648201587
45.40797911611863 -167.14442573474352 -4.507187709782233
45.470013846328314 -167.17585423750458 -4.5031015025389625
45.5828855339424 -167.26268742024905 -4.494761827373772
46.25863784594972 -167.60014152173636 -4.430415414527428
45.27201700299338 -166.9891489156308 -4.522066039858853
45.46221168863786 -167.10108072923288 -4.507249652070212
45.521083268161036 -167.1341672731084 -4.503370805110031
45.712905958441986 -167.19417222834747 -4.487805841283162
45.9917267004531 -167.29536325490008 -4.462445376357754
46.309854841304066 -167.4512203162545 -4.437228489671767
45.330691515628764 -166.93433761120576 -4.522279523523931
45.34046145808911 -166.9319675374168 -4.525600173202052
45.509361453927056 -167.02442364722305 -4.509604169570344
45.53469223937889 -167.04707028348466 -4.506454247607588
45.705449345890784 -167.13182570848332 -4.489894310575302
45.95371984854052 -167.25004883342987 -4.470262985347729
46.003510761074004 -167.288404178416 -4.452388797386217
46.04620760154825 -167.3144733331937 -4.461018576360981
49.51502595442335 -168.99945994387218 -4.114469669291266
49.627997627491425 -169.10353360102462 -4.115947338468014
44.8565107392429 -166.49503478388314 -4.572726531362683
44.902450911238105 -166.52985068721776 -4.569379180570773
48.97692436794136 -168.59964764549224 -4.20367491373826
49.4654594783754 -168.93410049850428 -4.100908148908126
44.84936437432286 -166.46773831519286 -4.566047624422124
44.92597170119047 -166.49137009371879 -4.56914061132857
45.071174787371554 -166.5111812887878 -4.5556308445818114
45.124476166660465 -166.5125436862428 -4.553038952894808
48.868685803204365 -168.5116714501389 -4.208204898591872
48.91723249026048 -168.5586040966861 -4.2050433914689584
44.86353787099191 -166.35535880120972 -4.5786475759309875
45.006122813978024 -166.39568560115282 -4.5622164932896965
45.10439635846867 -166.46735343423643 -4.554242564099052
45.15923334153182 -166.4681078791271 -4.550131234803293
48.938652793817084 -168.38900408532572 -4.120051065350257
49.776592771604314 -168.80824079461513 -4.103092664959095
49.93477641500441 -168.88954120919456 -4.105747433424387
50.063310079854865 -168.94000402902142 -4.1054540819011525
45.095050233243676 -166.2905811097765 -4.560088092367345
45.11532633379662 -166.32648566118934 -4.5575066584380926
45.206547022162816 -166.3626220443997 -4.550747964321911
48.742750891110326 -168.1409111448069 -4.1987518136050275
48.773485646085156 -168.17428367810646 -4.20469201236743
48.88923089013563 -168.26843074981932 -4.1849773513151
48.929684071504425 -168.30905031463195 -4.1673931729909315
48.99269074505755 -168.36427394817287 -4.165730727805568
49.92934932834959 -168.85178146793143 -4.108296359647723
50.00717901040036 -168.8387635844654 -4.102546112843871
50.094773181751485 -168.88356177721084 -4.0938252060017195
44.86240458826108 -166.10242389013374 -4.577751804611062
44.90218743257447 -166.10454660376035 -4.571887862289816
45.02455373068634 -166.13099456566732 -4.569500894870503
45.086416263978336 -166.21464890190072 -4.5651682378582645
45.18337338152924 -166.2552978356793 -4.556148740062214
45.27425146673689 -166.2964221199521 -4.54788640612251
45.35712033299443 -166.3154431878938 -4.538152892006536
47.00799823775956 -167.1586765459307 -4.367186230477954
47.03474761866447 -167.17628503182075 -4.37409085672256
47.87146095008393 -167.59590019558578 -4.317448230888735
48.62744208028458 -168.03405475110955 -4.195584065902301
50.052750751983 -168.74743827471485 -4.0919106393234435
50.13026314443378 -168.81060281201744 -4.086814449819893
50.251434173939685 -168.8590798737778 -4.086491398116684
50.31522371668955 -168.88883810993616 -4.0846364488241855
44.97831941069153 -166.00708517488854 -4.580710821521774
45.059163775201135 -166.0642414986973 -4.564516902936684
45.13078317558648 -166.11107408180914 -4.555709001352705
45.23979413712635 -166.17073443127836 -4.548244183191225
45.325224778012775 -166.2069990185986 -4.545952458227981
45.405567088693275 -166.248241754078 -4.535208893248763
47.04679993517644 -167.1391785609126 -4.390630738258296
49.78172425725 -168.48286056899354 -4.105066909241233
49.95657413511756 -168.6128956385861 -4.105408649882098
50.02863465629596 -168.6396712602762 -4.113671503250233
50.10631750361205 -168.69216075058677 -4.10541895588263
50.13582497226491 -168.7331383077437 -4.1056748297155385
43.790699724736015 -165.25998132933464 -4.670935066982585
44.94911435718736 -165.85841283868447 -4.584589618645562
45.004112171870354 -165.94452718953076 -4.575302691416342
45.08344476582114 -166.00805775348732 -4.5580386122893835
45.19857254363863 -166.03283097449042 -4.540856166224622
45.27197219148482 -166.0642490421372 -4.536776336570523
45.379294033325515 -166.11864637866836 -4.5299064683468355
45.440315051808604 -166.16167913180777 -4.531570731647821
47.3924729505728 -167.20359065321574 -4.362646661193275
43.315257638069916 -164.97435937691722 -4.715552572110792
43.36594751329916 -165.0025436521891 -4.669794885273916
43.43597998097769 -165.0400381296121 -4.6923544531468515
43.52045176947025 -165.0785513886808 -4.6616794539527815
43.61801983688563 -165.13894040725404 -4.654499030702637
43.726436442832906 -165.19793175325574 -4.643119240765889
43.793429807321886 -165.24307709338208 -4.6661331768064525
44.97121378807925 -165.79528821104537 -4.571911049445016
45.03067500011087 -165.86307248925493 -4.566097706896082
45.232312561983555 -165.93142991757492 -4.547039784410632
45.31822766401187 -165.9957823833329 -4.543026246779036
45.41405931280967 -166.0299321477944 -4.529455292382907
45.49019334133205 -166.07825257749838 -4.522820971110007
45.5583316001434 -166.07380579321222 -4.497233335474849
47.09173549855957 -166.8988412943358 -4.388894484426505
47.18142279527641 -166.89628201601064 -4.389157341072025
48.53136477253922 -167.59939353417363 -4.2638667148034965
44.12981436169218 -165.30556220647318 -4.663424439503974
44.95864948601943 -165.6935939229636 -4.56924397219754
44.992812630018925 -165.70572844402875 -4.568528764397423
45.266208203110736 -165.85608520679165 -4.551427147589898
45.42204381328551 -165.88460600419504 -4.525833757170133
45.47620507862149 -165.94760284247735 -4.520127180715255
45.539761209512115 -165.98625466569652 -4.515929331587477
45.59728131228493 -165.99403982671495 -4.503569873427765
47.13698582279999 -166.8222480700563 -4.393191966920374
47.21392824082524 -166.82995170696483 -4.381052356973584
48.50347217602045 -167.52026314488702 -4.255428563202849
48.534535426096575 -167.53516682720365 -4.260362579890419
44.30640998646705 -165.20530364550348 -4.602889783387559
44.328224312039346 -165.21469132884272 -4.6003801351822
45.23040647060578 -165.67847816666384 -4.5497046825689464
45.33937726424905 -165.76696672701482 -4.547547303478839
45.406543756732646 -165.81347785106084 -4.537290330321744
45.49920642501147 -165.8267240342869 -4.5237675675715785
45.591793702639514 -165.90052826918924 -4.505517856999876
45.65705063204868 -165.89935005898337 -4.485370723369383
47.117374199126665 -166.7272747328775 -4.394869615590205
47.19415374628727 -166.7316789243292 -4.387453479739973
47.24839517639834 -166.75123590526024 -4.381596735773007
44.090717388690734 -164.97393698656234 -4.642837866814567
44.232515282429894 -165.07355686890213 -4.62248173670718
44.27949076325591 -165.1611094687769 -4.604432485459198
44.35493136567057 -165.2018991462836 -4.617226561799453
45.22700299483448 -165.54729034126595 -4.550952767847469
45.27620851556568 -165.65482457169023 -4.5493708161279285
45.340036386313706 -165.69765850424272 -4.54560231751757
45.451940192362805 -165.72298318933144 -4.530166624413839
45.54929633243742 -165.76650354341197 -4.517068235795375
45.608115356164014 -165.7996931891128 -4.517345187676707
47.22528023387256 -166.67672279803543 -4.380884243226381
47.29833232308358 -166.68927001943987 -4.371158352405645
47.38378588498056 -166.67905346069145 -4.380778518872045
43.744713350348896 -164.6815089693624 -4.685964259247236
43.84697081873672 -164.74349689548157 -4.671702487667835
43.89332170255722 -164.7623081575054 -4.676946544388782
43.98904224537887 -164.8063906531803 -4.661881407165759
44.174820507143274 -164.96464150051486 -4.667040952200926
44.20716108506756 -165.00488156454102 -4.650831387280858
45.077562279925324 -165.37686329466732 -4.576402343941146
45.14226330293646 -165.44961873143757 -4.567318280988665
45.22190612064207 -165.52609323399685 -4.55271073665563
45.442758935055565 -165.62485238218363 -4.531382793841512
45.501498395698334 -165.63903839257503 -4.530318110715996
45.57980529144471 -165.67723515099993 -4.517340042798806
45.68485050507514 -165.70891722234097 -4.500789337928679
45.74488213653608 -165.72081623779843 -4.483423136016139
47.414391940687736 -166.6379072707862 -4.379530230957997
47.89582022204447 -166.81261984477067 -4.337584488143671
43.751004553497005 -164.66945454311534 -4.685835167369015
43.83171327675277 -164.7059615605658 -4.687587331541931
43.93626588381165 -164.74791774095092 -4.6801344463471
44.04599242673126 -164.76687851293437 -4.6726151194711925
45.0744379953514 -165.34358034675694 -4.575464213804539
45.47046054621862 -165.53393813003953 -4.538507631386851
45.552907505957286 -165.54720925433904 -4.530324184360934
45.642091029429665 -165.59505503591134 -4.515427332155276
45.727137523791235 -165.62547534940455 -4.495085975628804
45.77557012508316 -165.66744630443037 -4.485182090392294
45.46360930415972 -165.34375612184974 -4.550472289986212
45.50895183308895 -165.37214474003272 -4.539004212074662
45.61078202833137 -165.47498198759055 -4.523788327316612
45.676358730203724 -165.4781872636392 -4.512094209372854
45.72054922392423 -165.56042704985322 -4.499368120788562
45.82032349804336 -165.57526783317155 -4.488101969788745
47.39929779803953 -166.3303449347986 -4.361463404593293
45.40274384338182 -165.2367566493355 -4.540431625941548
45.460263104997914 -165.2597635313717 -4.547051676251241
45.54803717134772 -165.32614498439213 -4.53208244785854
45.640882766007174 -165.3744036850091 -4.519896345248664
45.68923537273374 -165.4135001390684 -4.5111423837753195
46.180256571534315 -165.6330723050281 -4.460328242777503
46.24551186431747 -165.65394724315718 -4.4510428262294575
46.34377955581793 -165.69831891003327 -4.446123468308451
46.44905115643253 -165.76231274170016 -4.440177372148632
46.4983991687298 -165.80429320133084 -4.44221003884108
46.59767922577382 -165.80816115151134 -4.451513411705555
47.162063339844345 -166.15589372275934 -4.369795458653404
47.22416597439921 -166.15880364027677 -4.3698195018717465
47.43568855763636 -166.2770910751407 -4.362710474792966
48.13530870004661 -166.6271271036528 -4.312011391869245
48.196529653061816 -166.69462715309857 -4.320323380087525
45.29208938953966 -165.02867086672882 -4.551413974604488
45.30805250427272 -165.0531792452221 -4.5507608002699165
45.54291518050721 -165.16193096714198 -4.531468865328102
46.23833207784977 -165.56301731836598 -4.450738076691851
46.27206103647373 -165.5877199965919 -4.457330187822972
46.38056075404425 -165.65843197128356 -4.446061930342954
46.47295526106588 -165.704271651735 -4.435853885728629
46.57550827275473 -165.75836698583385 -4.437616475860235
46.63699091682169 -165.7755108321651 -4.4459599700394286
47.21952673237679 -166.0792143341209 -4.360167822840371
47.27740350950873 -166.10809389737238 -4.364672539912613
47.31558641926536 -166.1596313347996 -4.355348942257661
47.45799084111187 -166.22887467305296 -4.355634890452169
47.57011594385001 -166.22607677752532 -4.337339630133182
47.6143402702 -166.22192361943058 -4.3430501548607925
47.823345406711546 -166.35169013192763 -4.340809528392724
47.97274227333336 -166.40055041676223 -4.331305369383949
48.1504842287262 -166.59133030195335 -4.311655783634322
48.33646354467284 -166.66992468055724 -4.283930141570191
48.414878826217766 -166.6969234086371 -4.279378011911617
48.52976249790281 -166.729453830141 -4.275621762784638
48.595985597701535 -166.7248143839402 -4.262035496869888
44.77422146293197 -164.64288250701242 -4.58929203603685
44.82838398853593 -164.69927566803764 -4.584930614210625
45.150681671581644 -164.85594910214348 -4.587744083328459
45.20336925575356 -164.91177454477412 -4.5694375473716295
45.27937651541174 -164.95958282854363 -4.559416855400929
45.35742254101441 -165.03167247487102 -4.53561604192504
45.494819164117146 -165.0267206921532 -4.522118471058013
45.53700517342669 -165.1030123827269 -4.528890672997198
46.17481124745355 -165.39596358246308 -4.456674526600247
46.2707266149961 -165.51456320681476 -4.45344074583344
46.55503759866678 -165.59359445758648 -4.430695105193747
46.59728110872726 -165.61817593538765 -4.43275383174865
47.52255609946931 -166.08668699463192 -4.354595408755316
47.608132046032964 -166.19076155836981 -4.33810056218753
47.647870313877554 -166.189615829733 -4.3452280646111
47.88007824729606 -166.32934612700737 -4.325356476192532
47.92815860905261 -166.32466508317302 -4.330371500472996
48.01531986074496 -166.38639224239762 -4.330921526238086
44.74700231751668 -164.53730498516657 -4.587305637731498
44.79275921939232 -164.6128835728674 -4.598005550416001
44.891412304612466 -164.64233492366523 -4.60552034228714
44.99673061468807 -164.68015745885566 -4.57465439528911
45.067871326598826 -164.70571722745302 -4.574168369753556
45.144570714135156 -164.79849966121455 -4.578921970766196
45.290274868763625 -164.80486056514647 -4.553259783960746
45.30016460468483 -164.8535145912944 -4.559009265817487
45.448447899594555 -164.9430770073924 -4.531947680441859
45.48394559720341 -164.9676309314328 -4.525969696300969
46.59155290174558 -165.5227172077648 -4.431895805671267
46.62169994713295 -165.55282484374354 -4.428813431225241
46.744533182786526 -165.55789403866706 -4.434945063993502
47.423671287872494 -165.9087451272442 -4.337717147918199
47.48697584934923 -165.9326973515249 -4.333466659007871
47.561741408557275 -166.0045237232192 -4.334733654504517
47.61490447863456 -166.03773952869614 -4.324218236433031
47.74642213198163 -166.09014111741945 -4.297908400615763
47.80432936807929 -166.09491137038606 -4.297700939477815
44.74958087624069 -164.47583047527272 -4.558910314015881
45.02742890727373 -164.65180940967932 -4.5375893977562205
45.13675172356567 -164.63347539961742 -4.54574119393839
45.20748685990217 -164.67464972359173 -4.56776842406138
45.26491646302789 -164.73462328197613 -4.565718341853476
46.72198271350475 -165.48925296411758 -4.435045413083774
46.78827441399058 -165.49684136622858 -4.42524029786719
46.85831396258935 -165.50255889584335 -4.405568721017457
47.49672674552893 -165.89192666501836 -4.32882501255774
47.5889917201075 -165.92932210481789 -4.304030947204756
47.687582065211835 -165.96207079938864 -4.310435294262958
47.75512492622839 -166.0189798228587 -4.308228254703894
47.80541938566189 -166.0444354742563 -4.280080967177882
44.47290683259206 -164.16411008934674 -4.621440249997977
44.51548557620144 -164.19196298164195 -4.605504593828393
44.61871617509716 -164.3210575031831 -4.569643851036487
45.12124912503432 -164.58226298218 -4.555535711540371
45.23304646257383 -164.61915446152275 -4.5691497071908165
45.42706285068982 -164.67343412165914 -4.504296333444357
45.5034432679259 -164.75364516250704 -4.504472066741273
46.86208332974781 -165.43727752441248 -4.400536376824951
46.89872869568416 -165.45013041682193 -4.388074223128092
47.65265452198343 -165.83946864055315 -4.316192813119502
47.81470262257477 -165.92734576763505 -4.296256009938633
44.3972075726077 -164.04409674620638 -4.646591491161533
45.34295551441973 -164.48809688141787 -4.533880283290298
45.38567410922651 -164.56643678112226 -4.509718808690356
45.416146709906535 -164.6023707221275 -4.501066694490551
46.355454030470824 -165.0591655018997 -4.4245224137948105
46.903973672872944 -165.3517827310676 -4.40106349888729
46.966734795764495 -165.345292330704 -4.390926282409922
47.74899526349702 -165.74328470712942 -4.324731628019821
47.87733549867969 -165.87911091039308 -4.274682460203276
47.96253995960856 -165.89100439449598 -4.2894697926605145
44.34451496998994 -163.92184276424695 -4.6677649356759
44.402982807348224 -163.98610510263384 -4.646364463545883
45.35024346185485 -164.47496820487507 -4.525369546393341
46.34129937760383 -164.92356088111433 -4.434633696899183
46.38024061593938 -164.97762294501317 -4.429875143125979
46.957100863503335 -165.24497461744397 -4.393280799839482
46.99425934212011 -165.29097252047688 -4.380053795571956
48.01814627747037 -165.83228497829907 -4.267656329904271
48.0571347995881 -165.81346544125716 -4.2693363725105655
44.22660960868732 -163.6901874053006 -4.698940187711491
47.00383376962214 -165.17909426428696 -4.391149073115887
47.05211196785317 -165.17731359665586 -4.386427614712222
48.12825469312177 -165.69702116849678 -4.26992963471243
44.14878827804921 -163.5845488467541 -4.718269103953012
45.086234813343815 -164.01368370094846 -4.542405138004164
45.19070992604936 -164.08623399908356 -4.538861322327014
47.07603535908606 -165.11601661784442 -4.39069953876106
48.14010584080416 -165.65457166510217 -4.271116828781518
48.225484406520074 -165.66836984648057 -4.258648946907488
45.05575470909429 -163.96149693328744 -4.5448065121025465
45.11610182787389 -163.97637100401036 -4.545512157027616
45.17375220985069 -164.05483580115995 -4.541782393216757
47.14431149881609 -165.0094947098063 -4.375405241051588
45.135613265630305 -163.84010416729933 -4.548592256058772
47.220849867927626 -164.92542994826306 -4.364978838278559
45.07367142587633 -163.72002909117654 -4.586762026511751
45.0848684535474 -163.7536728401466 -4.578017190065592
45.023157347605576 -163.60081978850707 -4.609835666124777
45.036808773260255 -163.6053252198506 -4.604891742374176
47.63074349830987 -164.27578818105968 -4.342874065522948
44.400839452592365 -162.36372806924015 -4.739870981889866
44.49629143665457 -162.25000065533962 -4.729857312807812
44.47435311709593 -162.22287135148053 -4.738362474595691
50.08187126701177 -164.66085872421564 -4.161875486882577
50.22448066617148 -164.55302710220727 -4.173973437188643
45.657442342355765 -161.83400131878875 -4.616375143399186
45.74611272494708 -161.9763063396614 -4.609975905647102
45.681716040141325 -161.8029435700841 -4.633872430988852
45.57478100864067 -161.60595080895857 -4.645644880250648
45.641155611245246 -161.68002190615297 -4.638097833924286
45.73390930082898 -161.72904017217263 -4.634928305654367
45.76625960343594 -161.74567743951633 -4.632297360899827
46.45933813841029 -170.61912721367267 -4.218521846665442
46.44790627993062 -170.65239853585695 -4.223686777839234
46.4336295677341 -170.497335041298 -4.193518560700805
46.439261292516626 -170.39260054712338 -4.182114619831966
46.44745455455134 -170.2915176667659 -4.185700680247195
46.444584258119015 -170.17639123328433 -4.1642893056544805
46.51836367158601 -170.19949307492675 -4.147603589436822
46.59812489931938 -170.24298010748112 -4.198747519636447
46.64536915588642 -170.25911281290084 -4.182538052529518
46.51007744050523 -170.05071339679577 -4.151234532835446
46.54363017829026 -170.11056368197598 -4.148708783051001
46.63229927677433 -170.1794852345086 -4.218160181550454
46.52206543031455 -170.0020504054121 -4.14436609682409
47.02057449765455 -170.18045190382696 -4.1846694134858895
46.861657518217825 -169.99048909201673 -4.210609248918667
46.930191932062414 -170.05125091287792 -4.189857161331644
46.978232928405916 -170.11599303437 -4.181250806966435
46.854723088244675 -169.933700603632 -4.199873734861647
46.95920548843023 -170.00444490237155 -4.1838407183732365
46.9965955806822 -170.03064999542016 -4.198924752419239
46.86115718949829 -169.8666241579569 -4.21806879735693
47.55636781750784 -169.97278630560115 -4.091889836478603
45.66832247302568 -168.36846835184912 -4.344444329936965
47.394189593029964 -169.26797264136414 -4.1026956912865895
45.68538820032177 -168.3472161052523 -4.338311403213245
45.765061682858025 -168.34190739763292 -4.34484454648317
47.37747572725107 -169.1727074942868 -4.104756695874732
45.75200273994536 -168.25675292226464 -4.309896012807105
45.770323247222436 -168.2712916970631 -4.322274593848785
47.35724115502241 -169.0469003731677 -4.1636317041037225
45.87180437498081 -168.19610031377456 -4.334874114448985
47.472129471384115 -168.84081146696093 -4.145702637628373
47.524687176552334 -168.8764463514671 -4.134006680465169
47.580253804198975 -168.92635200095955 -4.146436776184686
47.49097384245378 -168.80408344587738 -4.183168328936173
47.52238732182883 -168.84074746686505 -4.1600972728958014
48.87885129149812 -168.43666103218902 -4.083900887031305
48.94891434492728 -168.47912646578666 -4.1056399833228365
48.82063584556243 -168.3485059211635 -4.085188895113842
48.78344098089296 -168.1927665759073 -4.074803692148932
48.85323843270925 -168.24723138518408 -4.07884893418547
48.95077008150982 -168.2583938858947 -4.057824925485426
43.602405033258655 -165.10165249229823 -4.6019809932011695
43.71636523303823 -165.1512176323083 -4.556141979303834
43.82188003282756 -165.19049481395473 -4.514651774920097
43.85951363512808 -165.2049735371133 -4.516516364985136
44.7703907516807 -164.4665032655318 -4.534594168425544
44.807153310341405 -164.4924504872887 -4.511271534924374
45.021507939630034 -164.64692084337793 -4.475175915350925
45.111822734888506 -164.60442811232326 -4.496017210727199
47.51504960790231 -165.85023959118107 -4.290728071734384
47.619010913692975 -165.91896881737625 -4.28800850175439
47.62884284936746 -165.94930254730468 -4.2824201447483405
47.79459564548739 -166.04747315047183 -4.261516033309298
47.813447079759136 -166.02973989183687 -4.260501722046037
45.12195781748155 -164.55008216746066 -4.447393366255402
45.451014538986456 -164.70055888581828 -4.486220811821156
45.50386276499946 -164.71830559128168 -4.473949257461517
47.56115402130423 -165.8246492169534 -4.2942711321637805
47.827685784047326 -165.8931904119029 -4.271592361440777
47.86115346922936 -165.9617043161496 -4.248325166260678
45.17336452485852 -164.44967505328503 -4.466243183419402
45.40242167405876 -164.54758974560423 -4.487139940606602
45.428437015873335 -164.6066417146923 -4.475667513126722
46.344243101132356 -165.07990407853845 -4.410454256585622
47.940280273850114 -165.88102099771675 -4.247518330788372
45.175086757351956 -164.39482133466115 -4.4854450424379175
47.015869402158934 -165.26566927071264 -4.351123673999436
47.993554438727585 -165.82672169565348 -4.259977861721136
45.09509139768806 -164.18817746509876 -4.488514373929702
48.08795711884539 -165.68521088867362 -4.253331477733618
48.13701355282951 -165.70242412166053 -4.254626055478811
45.07567972323854 -164.06599828606477 -4.526035829494807
45.28120827306441 -164.16108319742068 -4.457293831995032
45.29615372537036 -164.1951880981944 -4.437198240715163
48.11899254764648 -165.62128027553663 -4.246907208159048
48.14151658366572 -165.6561705339145 -4.257037625607602
45.103597952874544 -163.97478848466898 -4.537735278927547
45.172936440668856 -163.96921964374778 -4.526597987489747
45.24582477082812 -164.05951597580062 -4.47978670545081
47.167519627560765 -165.01622809041285 -4.351099765677829
45.15510891673347 -163.8782544695302 -4.53652332285526
47.225899315645684 -164.9263827830236 -4.339908027884746
47.412797544840714 -164.60655731810763 -4.315562597573086
47.51853988989808 -164.4530342908203 -4.31189037030154
47.611200281934664 -164.30429604092546 -4.3240712794373035
47.630471392685074 -164.26159109137217 -4.311848117867506
47.69515658797086 -164.1627286072912 -4.296542785355004
47.74115396509192 -164.07904634811032 -4.292812532714588
47.79594035707109 -163.99458858776265 -4.273714664148899
47.91852347897648 -163.82260112170417 -4.276253417018096
49.91117028816736 -164.91568130059832 -4.105873312513801
49.969338766623565 -164.87598045486888 -4.1265906485442905
49.972723675957475 -164.76451670990966 -4.11833293663892
50.05505050573037 -164.80644816612667 -4.115111291028767
50.024103728348095 -164.69257598779635 -4.12197437215593
50.07044697408195 -164.75653938882346 -4.1092820405348585
50.24006802898774 -164.75061190115616 -4.055194330201134
50.26830004258867 -164.79403912345285 -4.041961739219507
50.11216302820227 -164.6318830569664 -4.095373255825492
50.21379026320947 -164.70175722618353 -4.082026849187158
50.27649215027197 -164.71226917562032 -4.0547132456039225
50.371154271861975 -164.7593219467099 -4.035219031932881
48.104004655139434 -163.49203988355717 -4.268594576874174
48.16701293923152 -163.43253809809718 -4.2772878189826615
50.533580372284675 -164.62895154084984 -4.047644017068457
50.57692625892411 -164.58576348277788 -4.047079862402336
48.22442796638077 -163.3404852766636 -4.249102497557986
50.45408039727842 -164.4760552679915 -4.034321405103269
48.271339254474185 -163.26020877990882 -4.2514647927887195
48.37295574624987 -163.08334006758716 -4.238851249302826
47.363059165740864 -169.14078344045748 -4.051736540800288
47.3604120460361 -169.10506759981632 -4.074415583078204
47.33932343913063 -168.9707587933879 -4.104445616302545
47.558379687574856 -169.00841640486345 -3.997509053888423
47.53313687406229 -168.8873081938878 -4.053410279543395
47.5605213828098 -168.97276091219436 -4.003071021862972
47.47721905491666 -168.78299335798658 -4.029766434859383
47.51114436287008 -168.83432885766203 -4.048825670651547
43.90747343996624 -165.22033164163275 -4.468152804039813
43.9650630814454 -165.2408013842573 -4.458859129058047
44.0132236494445 -165.25774220248638 -4.407131906519729
46.76200085914127 -166.17827951799785 -4.152265540470342
46.62383370559498 -165.9174476046362 -4.185653836339179
44.987765030057474 -164.66400244736698 -4.412112810241137
50.387536508650804 -165.82113117141344 -3.9106493877431245
50.11629537864914 -165.49966125863162 -3.956777281306373
50.549834177946614 -165.79528345241724 -3.918576269823149
50.13136981963348 -165.36838925216796 -3.982955907255935
50.43633608883829 -165.29778795423522 -3.991749039930681
50.21605312140833 -165.04234727664917 -3.968097679471777
50.234838694977135 -164.95007098521697 -4.0046640260755515
50.36845355316268 -164.99171728070584 -3.9799339481311047
50.29600710821656 -164.8212711078237 -4.025370184903144
50.537228588176845 -164.88668131032523 -3.965971146408078
48.23323484512134 -163.3377678307809 -4.224327607553805
50.47742460178408 -164.45557273736597 -4.025536022430168
48.29793110542393 -163.23377941077118 -4.220299244874952
50.52242731641634 -164.41237881643727 -4.0161653981520695
50.5684533925412 -164.36819743312816 -4.006578057698487
48.39776876803987 -163.0410289546967 -4.225833213718132
48.42368728357834 -162.99689961931196 -4.212612072514152
47.55796870587916 -169.01024904270668 -3.9510338900139024
47.605803175727075 -169.06263472808723 -3.9860192472805434
47.513621654592754 -168.9035374622978 -3.93231400933641
47.54313129183074 -168.9655063527858 -3.945210968126712
46.745163433512886 -166.1645114299543 -4.099205892286865
46.63084829857225 -165.93435217409103 -4.071060569112674
47.54023312245427 -169.03097192847125 -3.83960502674414
47.56631993689312 -169.0787160712302 -3.8613350067839796
47.48925580623185 -168.91357702928565 -3.835416267216259
47.5029704243574 -168.96496272702183 -3.8103055204537335
44.15090594350701 -165.06784213117402 -4.189988186653877
46.70848503131778 -166.1471796535644 -4.024736796212209
46.722383890707455 -166.15313476573382 -4.037864190760945
45.18230504702899 -164.4303966113224 -4.137283323696083
45.14802279201541 -164.34971845417326 -4.1543410857905485
47.50696463278885 -169.00308480950883 -3.7300032160283396
47.48357276596407 -168.91534397514283 -3.751347258393014
44.19126670347584 -165.10223186338013 -4.128378771971109
46.65515286978834 -165.91148681546701 -3.8825486717140962
45.18250934463086 -164.58825338596347 -4.031590914311165
45.211779652838665 -164.51306852674531 -4.104219473634582
47.516575601385924 -169.03517285692678 -3.660786072044073
47.46160808755518 -168.90743058197495 -3.626144840202957
44.27110387397049 -165.1811865808539 -4.0146502480662045
44.31255884243017 -165.20297285297195 -3.9763273906016807
44.15293691077378 -165.08619037182208 -4.053467534701111
46.79238283980776 -166.1631394760511 -3.8074743874568475
45.10739222762807 -164.61821760286546 -3.9234235161909816
45.117729745347766 -164.65706155114844 -3.9666443585281144
45.19702837642222 -164.55381287169948 -3.9647055707873626
45.195550095228334 -164.50589718529136 -3.9246197370406075
47.529564611518616 -169.14009612620686 -3.4999816438102718
47.47610013021971 -168.95824664840234 -3.555952620807728
47.50813903389076 -169.06683461324192 -3.5191732738670387
47.450136406760336 -168.87622110675736 -3.5966809141835467
45.09082668659531 -164.6367824841191 -3.860048495044188
45.15482059448093 -164.63733784674528 -3.849769797690979
45.193290831635 -164.58105378006348 -3.882376306704556
47.31800672504561 -169.17181605208182 -3.4863488907552966
47.55564744158777 -169.2195779951393 -3.469487956849464
47.439451409517375 -168.93870977222076 -3.420194609603217
47.440062498600426 -168.90445318922497 -3.4445157213855877
45.076963787580716 -164.6653011152507 -3.7892109895413775
45.1312496877247 -164.67560715969822 -3.7930086845597
47.30521500893987 -169.21511103607196 -3.33962542329375
47.29353979364409 -169.14781131397112 -3.324569199763956
47.53215268634662 -169.2141460521554 -3.3137865952372607
47.54616533375773 -169.24960740957266 -3.297086716978693
47.489132605841334 -169.08606973589391 -3.311319863121179
47.506826870046645 -169.14792111060385 -3.329806186348113
47.44339161245852 -168.97924898563605 -3.341678565493852
47.454897910842675 -169.00922798989347 -3.3223634956240025
47.30381569866671 -169.22250722658927 -3.2224437684183695
47.30650699214538 -169.25984496187854 -3.213356031708301
47.28977267779566 -169.14207508424968 -3.281292697382889
47.508230336996235 -169.20187294029128 -3.2383153915514455
47.535571925723495 -169.2838219653152 -3.200069822598222
47.47243737148924 -169.09725590037445 -3.230580941900922
47.4817308739115 -169.15576569166765 -3.2205531605148634
47.455458355730705 -169.01687908573336 -3.2985385736879724
47.30748796430864 -169.24394934816064 -3.1807816488586367
47.51756211893563 -169.22403212732831 -3.164034574756972
47.529430683303055 -169.2709815896125 -3.1415371553404348
47.46569690813833 -169.09164260329874 -3.139268342268014
47.48108517795943 -169.12756045275273 -3.131029654157855
47.376353629051295 -168.8258384654187 -3.1678418778840802
47.393134115154055 -168.86651633153136 -3.140056774798391
47.56094909439505 -169.35911099662363 -3.0735861226892665
47.459505632099194 -169.0882316804928 -3.0754367607090574
47.43788238579903 -169.03967004518893 -3.0818774113652325
49.9388381038118 -165.43585934646964 -2.553083576122056
50.14893787777721 -165.3157781159396 -2.5590552981972396
50.25137848622542 -165.2897017922165 -2.5255921110781703
50.39324005464738 -165.23787175529236 -2.530286358277704
50.251820779022644 -165.30930898812167 -2.4584963317366926
50.317306271114845 -165.2964731224396 -2.436483199045362
50.38195271148006 -165.2496796524423 -2.4681108833271614
50.51259101527958 -165.21205169903487 -2.4658673700816536
51.48383179518837 -168.7595524075211 -2.1002798644460814
51.5375266095267 -168.7639210662237 -2.0775305204315395
51.6469983165707 -168.8350912872309 -2.0516259686793905
52.74907292530782 -180.1796922855691 -4.136136047344851
52.64251369992111 -179.72292954282833 -4.11818111956144
52.580361099506625 -179.70849126778867 -4.119926778675035
47.856382289591345 -189.92400005849046 -4.128311041678105
50.522964623096826 -172.76248990840662 -4.1374486112411715
50.372391754979304 -172.63308551145974 -4.129641529319801
50.290819725137595 -172.8328092443715 -4.144974297087055
50.274446127519795 -172.5785835496569 -4.126715906646003
50.239150597388154 -172.5253092565633 -4.123277535156794
50.25626994223785 -172.4174864816199 -4.115391184444499
50.05067657187352 -172.718337202887 -4.139672947269923
50.08341850798734 -172.69930203567876 -4.1378206628135175
50.11953523380285 -172.61279931136482 -4.130965739129412
50.16061291967949 -172.495846577012 -4.121967460931914
49.98251432799442 -172.67923954068124 -4.137729729104858
49.93363845047626 -172.6458566024034 -4.13597744763754
49.96492027192332 -172.4624649558366 -4.121898742781816
50.573456753263606 -169.8026007859168 -4.1521549636752395
50.62780870777613 -169.56735416238527 -4.140112997372037
50.651873179837565 -169.493040261722 -4.136973314061387
50.750107473836174 -169.1173071109773 -4.122323207112114
50.76982611654162 -169.06622149187115 -4.121150949503623
50.79047520649491 -168.8648190667177 -4.114344154237423
50.859955573203266 -168.71182133090682 -4.113553975866899
50.8828371564986 -168.6636303934527 -4.113544423916161
50.94935900300791 -168.54914485302533 -4.114662381487468
50.95578210672411 -168.45581410920835 -4.112732955310876
51.03565000271848 -168.04886965963607 -4.110699650519853
49.803063173850504 -172.7640793169022 -4.147014741889148
49.72490809470328 -172.6776467195131 -4.141808572665529
50.5256700862945 -169.74329167632052 -4.146032712946614
50.537172253144995 -169.68283241684426 -4.142730626812517
50.54603873401642 -169.577514607314 -4.1365969723368305
50.58756067631857 -169.51654224701016 -4.135027387559274
50.63248888790998 -169.40474675611733 -4.130900137878218
50.62083850249742 -169.30001238755955 -4.124469050115116
50.63589580631006 -169.17409582180503 -4.118627045895291
50.65556052555533 -169.09272663172732 -4.1156762397697015
50.68245626557477 -168.9666758499994 -4.111533139091992
50.75052907818475 -168.82444493512736 -4.1103525599926805
50.790869624797466 -168.727074411285 -4.109450666505881
49.699839806309235 -172.75573630137478 -4.148253736069632
50.42348078652139 -169.82732145671358 -4.146878085416779
50.40358152608227 -169.7425005910305 -4.1402843983127715
50.418026084629474 -169.52922215597246 -4.127249190038219
50.56344951780645 -169.18135742127456 -4.114947396832399
50.58053075316822 -169.07967328488402 -4.110704663950573
50.64602204604932 -168.96659798406597 -4.109350560130225
50.163109705796344 -169.87144399734947 -4.138678931233874
50.24175200343784 -169.75137532107922 -4.133560835907587
50.205381075745265 -169.54536685501017 -4.118045993809912
50.097402876187715 -169.7014524021606 -4.123798251114661
49.293852940074224 -172.37568640168627 -4.126873578248629
49.97635451847555 -169.65674964824814 -4.115471216006127
50.03527924118458 -169.55304659059172 -4.11078591557248
49.228390747477675 -172.37347530770052 -4.128129354397481
49.96050026403516 -169.6323282205307 -4.113057490512549
49.81650118376396 -167.7745088736858 -4.1509838776522825
50.30172404321051 -166.11938258954504 -4.110228771998672
49.791084578161346 -167.55099017194553 -4.14292438787655
49.81242320500578 -167.4381558537231 -4.143507346616486
49.88213268520581 -167.38991031105274 -4.150697714077029
49.892975016755265 -167.07835926385098 -4.15127662611607
49.5455174612768 -168.36802121432584 -4.150196648947314
49.67110840787275 -167.67070491672723 -4.132627283551185
49.7894240574429 -167.3931722290769 -4.140384034746699
49.77535845314848 -167.31242210183018 -4.138072461791825
49.808535853415144 -167.1408790099722 -4.141388465512906
50.171062203805725 -165.88882517746404 -4.11219116229421
50.17350134888245 -165.58114086327197 -4.134246800265806
49.35132261524561 -168.53767317336212 -4.145029559904029
49.58523870383021 -167.60005748594526 -4.121675440670967
49.6802709416485 -167.46711837147942 -4.129297959671151
49.721154438359896 -167.0016097060077 -4.1320549787551
49.80056100048287 -166.8391562458877 -4.143448909117635
49.80495607217729 -166.6332029140757 -4.1486381955884815
50.07101387140082 -165.77101875836738 -4.111273286066395
50.100329944657176 -165.7099236552869 -4.118222336321289
50.14977989847954 -165.40145192937902 -4.146775927602971
49.598538065738566 -167.2967998743371 -4.1181703146645505
49.62122414653919 -167.05427320429843 -4.120259966083741
49.63583366743893 -167.01388172456504 -4.122182921305011
49.66957224083089 -166.75519029565118 -4.129740575413647
49.749530847946914 -166.69984960094777 -4.140366349274198
49.75176826306081 -166.51207939407882 -4.146260555035257
49.974498527956904 -165.61723307226686 -4.114310824620075
49.99744157162517 -165.52479982216983 -4.123580289774583
50.06385475140865 -165.3996177500225 -4.1396622974508075
50.062453637836605 -165.3431313501457 -4.144407932077155
50.09495752976758 -165.28969409114976 -4.1517343428834526
49.12370727800222 -168.5348215633136 -4.126247493138762
49.6432992228632 -166.66462304817225 -4.12886666190173
49.681878564929754 -166.47024024824972 -4.139531085552949
49.72863019595967 -166.4340705622611 -4.146435769558811
49.90776183154846 -165.5806447468447 -4.111412690689799
49.909062537526395 -165.51291201474544 -4.116941935930448
49.93446395065686 -165.3002069324063 -4.137461957296301
49.553200668680354 -166.50590188272005 -4.123230885662493
49.591618798073014 -166.38426868753604 -4.132412319645324
49.833544693614286 -165.48269933785377 -4.113036732028903
50.118270601148915 -164.21801017703953 -4.109005175877828
49.76620560928044 -165.33150048450636 -4.120809015272105
50.08498759946468 -164.19284991149468 -4.11028681698339
50.01615238952679 -164.12650675358142 -4.114696192613527
47.944352026272185 -172.13720705550134 -4.149514438100004
48.382725519226284 -170.3525887467582 -4.142557392775229
48.41140992668097 -170.32763738437785 -4.1398603345300895
49.655289416907955 -165.3178454412245 -4.112968337345405
49.94737234133988 -164.10787820805757 -4.1142786865191034
47.86463763410494 -172.1187413193071 -4.151348408583007
49.37118659531951 -166.14770378495072 -4.134190990818562
49.84158560968754 -164.0327975922594 -4.118776218057327
49.84987223571519 -163.97982445623387 -4.124953453093864
47.7955304475444 -172.06066499701427 -4.149323070698094
49.779638077598506 -164.0304630940426 -4.116923966215757
47.693295002551274 -171.8336012129564 -4.1339806689779195
48.99947491658075 -166.8633408903981 -4.14982843353556
49.68822880054137 -163.90372938423417 -4.128373002484895
47.64497192037538 -171.79978952019687 -4.133233676873778
