ply
format ascii 1.0
element vertex 840
property float x
property float y
property float z
end_header
39.434723784901024 -196.43552246187875 -5.130154416783461
39.45346342193921 -196.29514776384033 -5.137549879325109
39.44329968041219 -196.21167712228413 -5.1404127208045045
39.447617702513426 -196.13480455548824 -5.144238761500319
39.541329211967344 -195.8278530457901 -5.1673052303182825
39.78639741636121 -194.8056191605335 -5.102378585713057
39.74933144135486 -194.7833501197383 -5.102179417214947
39.897165714901575 -194.30802467733596 -5.142345630815699
37.010413695886186 -207.7048158579915 -5.148988597285293
39.244018948491515 -196.97204894530913 -5.095538126585653
39.251872825731205 -196.9171703943153 -5.097891585626924
39.31867031427232 -196.53212954280323 -5.1172126173544665
39.37310112113364 -196.2014495225648 -5.135220998992521
39.39642371289675 -196.10088291865847 -5.141769437813968
39.458049062102546 -195.87097954717424 -5.15817302877626
39.456640187246535 -195.8438951054588 -5.159480715495391
40.12701599716551 -192.47218238327892 -5.106966750852228
39.207659822961084 -196.5524822948134 -5.1076005571545595
39.30224182861572 -196.16683342271904 -5.130984989326528
39.30212530085523 -196.07301634990094 -5.135364826058035
39.321623354993044 -195.98596149733982 -5.141192862371822
39.3450360934912 -195.90196554179172 -5.147333672920062
39.690200720361815 -194.11780501900827 -5.1472582464261665
39.72544901629927 -194.02260368878106 -5.15604692056187
40.03949735000881 -192.6446280376436 -5.0945930304001585
36.798753295182394 -207.71757074016432 -5.148088724807247
36.8239288271475 -207.55029082027886 -5.1442680616648815
39.319848123598575 -195.54454212433396 -5.165054033563245
39.61369439504705 -194.11377775342228 -5.144324516818769
39.576022499284235 -194.0170878112636 -5.150112890751853
39.9446136765592 -192.6649559584628 -5.092402187002886
39.8884215617888 -192.57074056180258 -5.098362360950717
39.92300413724019 -192.43169881229494 -5.1080803560334544
39.16966104839484 -195.92038021320033 -5.132029920633469
39.50708674540527 -194.1383671749549 -5.137727440190655
39.56566494859516 -193.984229725247 -5.152157061995566
39.75873615348085 -192.6299755984755 -5.093198555171611
39.82029985475686 -192.49622065863514 -5.102879405535055
39.82017355607924 -192.446664132023 -5.106307094499736
39.38917308153958 -194.13798988536385 -5.132731741851526
39.437916317716684 -194.10401008851704 -5.13736282599232
39.74299745427563 -192.60837258759446 -5.094502454435605
39.700290495565795 -192.43922323389398 -5.105924150156204
39.76707166427161 -192.38761306559167 -5.109943844436978
39.76886913004513 -192.30063129833027 -5.116016708621557
39.79286586827422 -192.103389454638 -5.130142373533893
39.91149616782903 -191.80880749419714 -5.1522583282646135
39.93191889928991 -191.6823895632264 -5.161647939427804
39.019894759496246 -195.4667445229903 -5.145274331418704
39.06112835024184 -195.45323999209862 -5.14940696933841
39.601679615361164 -192.85744775326214 -5.076394684030742
39.70068546554552 -192.2047624396654 -5.1223428527556445
39.72367796504044 -192.07471805784104 -5.131950378524955
39.78383922787351 -191.75163749173953 -5.155972628720586
39.802376129587756 -191.6940881265501 -5.160281147495924
36.30061391839732 -207.9028829284517 -5.151108768221807
38.5671500189027 -197.14497046977152 -5.157645690485045
38.902353530891006 -195.47202308546494 -5.135327214469918
39.536368651631356 -192.5442318247847 -5.097310160085265
39.73283496692695 -191.74540480991297 -5.156214544338032
38.43669061163762 -197.19813532631125 -5.14389329383981
38.47129841953176 -197.15119271081562 -5.147633646880006
38.45775665695682 -197.02685412070892 -5.146990991442891
38.7547533720568 -195.63748277409687 -5.1133483877942165
38.788755889255434 -195.57227328751625 -5.119963226795238
38.82623780723431 -195.50895666898688 -5.126757782710976
39.528840088353355 -191.87145395236692 -5.146148932181466
39.614638649312006 -191.72322859384658 -5.157451271421727
39.61260270343659 -191.6709215543153 -5.161311343657382
39.611836946304294 -191.57901177472456 -5.1681436032042605
38.38872581692759 -197.20333467289018 -5.138956239652826
38.40755387077087 -197.00192857108553 -5.1419131712192225
38.41709539117327 -196.93466750865187 -5.14353571801555
39.442334967418816 -191.91559399821554 -5.142558100829395
39.514397184646505 -191.60377965229355 -5.165999709618646
39.512193618201195 -191.54903790028152 -5.170076102928228
39.1985133302022 -192.66516831204913 -5.086462001043319
39.37530765063865 -191.71934731780925 -5.156925987808695
38.61879627671781 -194.9501679105097 -5.148310290684015
39.11952579138772 -192.53982404955875 -5.095256719248886
39.02149171851571 -192.5410437053349 -5.094762527174562
39.14779536738522 -191.71482360110247 -5.156632509787043
38.90268064293584 -191.90823296973036 -5.141456208011046
39.408592600955444 -189.4821153900174 -5.073681502281041
39.35342990503121 -189.47646748028478 -5.074971415811488
37.272923607367105 -198.97601610580273 -5.099202039732425
38.09270282639283 -195.10743981743792 -5.094192443970122
38.430055869087525 -193.2523801598594 -5.170179404501031
39.24077116503267 -189.49629351839997 -5.07609827958908
39.276265976685565 -189.3872241567825 -5.080622593814967
38.39238264056235 -193.25883332037006 -5.168394085767279
38.492311614364795 -192.45737453683375 -5.099172928057939
38.629794613142735 -191.72423369144224 -5.15482560954681
39.15295475851995 -189.0859254519396 -5.0970420682831
39.14141366597457 -188.88507530636886 -5.106672764010814
39.043956143711334 -188.9606021315607 -5.10484877493483
39.06572004940882 -188.87976913915054 -5.108238635743234
39.0398298379533 -188.79488103502553 -5.112656613992508
39.06871644420063 -188.67743974862427 -5.117663877880115
38.99026788174477 -188.67241688819223 -5.119243762385138
38.61991685856583 -188.41988711677558 -5.137223569091087
37.607014597985895 -191.82677067246252 -5.146726875386161
37.60708430770191 -191.79533397625153 -5.149162773443757
37.506211454544314 -191.79566701121792 -5.149293282637469
37.421989351384816 -191.81363158040813 -5.148054117212249
37.43266927252732 -191.59550905895873 -5.165107918267139
37.38593812576792 -191.66195142440017 -5.160019911566614
37.34246732125834 -191.5343187747404 -5.170150969693338
37.21015345202737 -191.72995491421096 -5.15514169170948
37.20414427747005 -191.68872846641943 -5.158408052841771
37.248366798892484 -191.55970361858894 -5.168433290469329
36.54670310191548 -194.13437354077598 -5.0941161518172295
36.560214605768365 -194.08388402129896 -5.10154226051844
36.54179341971784 -193.96944434839438 -5.116703959571171
36.55106251704791 -193.89120363524785 -5.127918224481954
36.34395920446154 -194.02228484991386 -5.140532130889681
36.346684014341186 -193.89033854725128 -5.12213217235276
36.38862137181037 -193.85583141504813 -5.128149888928896
36.54418498165279 -192.9542571906423 -5.161082266950287
33.59418273424582 -206.66924900456917 -5.150190256202075
35.410989332418865 -198.0938018900142 -5.093661998426031
35.41420660148017 -198.0427884540479 -5.088824721291852
36.18327660212539 -194.1116373524054 -5.086374703614214
36.28088014639183 -193.993847116036 -5.169401875761458
36.228699119921885 -193.8889963365462 -5.119656399226988
33.44046509297168 -206.83381715089968 -5.157313737208183
33.543546449070135 -206.61826833252522 -5.1501541745777155
36.10351478365636 -194.09058462149108 -5.087874043875222
36.251183563608095 -193.596402439083 -5.086767312315817
36.48392213527747 -192.3616253938086 -5.108148707178949
33.3248539104954 -207.01692787680054 -5.164124123197771
33.38053190274964 -206.9321145225134 -5.160977737464512
36.038310149303264 -194.1313162749705 -5.080830345973101
36.05852827102517 -194.10870104134978 -5.084471445520811
36.04692983500988 -193.9719043806662 -5.126730332483442
36.0451370564418 -193.88936160052336 -5.116668464742579
33.23699949618918 -207.04808648754198 -5.1669482820648875
33.28278058491825 -207.02679915464034 -5.165426854668255
36.014821698362496 -193.88200999394667 -5.117426154660167
35.98531778386498 -193.66449244597027 -5.149571401430675
35.99291343756032 -193.57231361331986 -5.16338250545131
36.09330914667332 -193.50624876480944 -5.096343672964572
35.93872767144856 -193.62439279998347 -5.155306327252197
35.965253929586346 -193.57683845985352 -5.137627499640966
34.794009635455936 -198.52641768072718 -5.154369012700715
35.707913447195864 -194.36426480771237 -5.089770469287504
35.693363136946175 -194.34942426551297 -5.092553978157358
35.69441444556836 -193.56633182121433 -5.1089827313665
35.712255815164674 -193.53939879655783 -5.093563727104964
35.67953124249462 -193.5379515264485 -5.093990224142329
35.67973457456401 -193.12846393830768 -5.141274658566779
35.49961461688351 -193.76291138255812 -5.136704154525671
35.57223479850854 -193.38092588487754 -5.113177967720943
35.66451904451735 -193.0445829870679 -5.1510969204371575
32.75113493054436 -206.26465786034368 -5.1634244576731385
34.46647330683289 -197.9659451465863 -5.12731714680274
35.548768987906904 -192.9314005150293 -5.165380855171612
35.54944116896274 -192.8905358585521 -5.170089275932835
35.64864827418114 -192.44164587062528 -5.108197439745969
32.706675826652045 -206.20816805538234 -5.163562023299447
32.68094486701194 -206.15750674284143 -5.163385961525962
33.966356814464866 -199.8753965110757 -5.1567529554964615
34.45030341135711 -197.95592579842287 -5.127711577485061
35.60380530960048 -192.4429919915958 -5.108549853222789
32.653856813482456 -206.11265763585845 -5.163229379509264
33.92636547619219 -199.78105829970167 -5.15417556552446
35.33434806366529 -192.78461840604373 -5.084208954927944
33.83346015519264 -199.82215526437986 -5.161144458161651
33.8630025792308 -199.79126978788096 -5.1580680737327675
33.86489847254549 -199.63967172989248 -5.150347980864019
33.83488732278382 -199.58087258618076 -5.149046358043808
34.96910103455529 -194.15021033642725 -5.141651423414325
35.31113910680965 -192.8019672746867 -5.08310513697133
32.65521477127491 -204.90527005126282 -5.139027957148078
33.79191678802266 -199.5485382735437 -5.149837936790432
34.91316386317675 -194.12750400379804 -5.133831621195751
34.902665511225806 -194.07176147897337 -5.109588222769548
32.595388720639185 -204.8693192701349 -5.140400950021323
32.57506506478265 -204.76802345797248 -5.139201649441053
32.55071059082514 -204.73469965034118 -5.1393535961266075
32.49636082465206 -204.68040654831682 -5.140334192128445
33.51492694559916 -199.11395314185717 -5.147155762998534
33.545330433356575 -199.00740651019152 -5.140579783016165
32.37743950865431 -204.4264310045072 -5.140014172426267
32.36810228058324 -204.3569403058239 -5.139191296166981
33.50673629218723 -198.94298801293814 -5.140624876081483
33.479380438464716 -198.89736607240945 -5.140728055890362
33.43639901504111 -198.8956868146893 -5.1437893762151905
33.63926968602008 -197.55099904866816 -5.083455914951817
33.641502042407176 -197.5013712372842 -5.082135620978961
33.95329887259373 -196.07707331526544 -5.137867030781156
33.96069384390426 -196.01337157453193 -5.14118275051727
33.30692497740242 -198.89240915086708 -5.1533429783243445
33.28863016249338 -198.80930284710703 -5.1517006862997885
33.49712576477179 -197.84666897843871 -5.103780317534439
33.53549037633652 -197.7440701000423 -5.097691258228465
33.60993342912722 -197.452815924646 -5.084174814375654
33.81525730028716 -196.22934419104416 -5.126782749355155
33.876354983125154 -196.17720257613198 -5.117824566443904
33.916599660112205 -196.13058866591228 -5.112163965049202
33.94486098147266 -195.9655898761591 -5.117109901447706
33.93356905764015 -195.88227321885813 -5.116349014620696
33.9057273102671 -195.81549584691592 -5.123689624647749
33.21795979922447 -198.75448260642978 -5.155357787251447
33.24843374488583 -198.7481669630046 -5.1526874234080875
33.531037561210034 -197.45484014966303 -5.091907606140263
33.6291997313728 -196.625165251216 -5.154663217955017
33.67410360026815 -196.44448690214165 -5.147282585183988
33.78984385651406 -196.24933733250967 -5.130555748710314
33.84417412977034 -195.77241942850182 -5.115011643164341
33.15613074944196 -198.75689340127386 -5.160431072722155
33.139796976602824 -198.6661216447305 -5.158809784432039
33.530381388882425 -196.79512701798228 -5.171076932675527
33.54733797206927 -196.77091192878703 -5.168278250196039
33.608152248924604 -196.59720585463526 -5.157610768047626
33.57079923570633 -196.3840020619126 -5.163614552866524
33.604050678275094 -196.34053114404816 -5.158813060109679
33.763877955721064 -195.73783775489414 -5.121741460617955
33.06744437765362 -198.62465138486684 -5.163607563903538
33.69756790693235 -195.73033075138696 -5.095200846283838
31.51214053299757 -203.82452934631237 -5.165034078181494
31.48048635167081 -203.78070916761962 -5.165757676576121
33.31807252757469 -194.86148821980737 -5.131280632772169
35.484601849284225 -170.4703359613696 -5.112170784747999
35.3992919846588 -170.50885131500257 -5.1126745287828514
31.285426392875134 -189.67431093713486 -5.147434584647348
31.29587630377882 -189.64470646055787 -5.148881180199023
31.15911288146903 -189.8478030684442 -5.139091128334725
31.200926477195367 -189.79989704980855 -5.1414051287316695
31.253399461135206 -189.7182528517294 -5.145344369000044
30.917249409237318 -190.44815438178958 -5.109402368401531
31.04112345563876 -190.0426182652433 -5.129579240216517
31.085492415362193 -189.9781623662574 -5.132738877827482
31.11693116158776 -189.87615098498185 -5.13774267556598
30.868156662196178 -190.44807088309537 -5.1093786351875625
30.846247175075767 -190.31455863757355 -5.116059483730002
30.8676078413606 -190.22517915077404 -5.120529733593326
30.92637570158028 -190.12212148258854 -5.125667990514277
30.970918585283677 -190.05710928047174 -5.12888117468307
35.129386405118574 -170.10650868687645 -5.119544002313625
30.730903230051354 -190.57195392530406 -5.1030351113517165
30.746030390331637 -190.47783298098474 -5.107813624090658
30.76919247485112 -190.43170388369475 -5.110143263393958
30.842510531405154 -190.2550868020744 -5.119023851300587
30.87130401757581 -190.1519334189056 -5.124183111966635
30.666966990805886 -190.49038741723123 -5.107103152060847
30.60034207133471 -190.47016651462204 -5.108078183589399
30.219578013566867 -191.0470560348906 -5.075136214731248
30.230970169420864 -190.9290919534541 -5.081202858096204
30.341684572557234 -190.50607408824592 -5.102788530134263
30.20887963447598 -190.70776537295978 -5.09240091019619
30.2055267049861 -190.4285415741276 -5.10653803053195
30.02905281075506 -190.91951361590478 -5.081196265563107
30.12287996825136 -190.4738588597756 -5.1041074160486355
30.18181007286755 -190.44179510350855 -5.105778952195793
29.961322162983855 -190.92908015395972 -5.080542969453539
29.99754604592266 -190.92612799747556 -5.080834111792792
30.039775092667504 -190.45024046904666 -5.1051429984692565
29.95980055518757 -190.55332759908964 -5.099832744455206
29.627359690252447 -190.8913423887533 -5.081673565931879
29.601810201145547 -190.78517345054138 -5.087089879304731
29.399704021216966 -190.9988475384181 -5.075350547185807
29.453296065121936 -190.8711171845739 -5.082202932953017
29.498464163943588 -190.7900884365162 -5.086521494284558
29.30093046373023 -190.99321205320942 -5.075325927906437
29.374027162977523 -190.92944973709496 -5.07888623012432
29.388995898311613 -190.87298088509218 -5.081886894675803
29.158001118315042 -190.09515033137427 -5.121562676309194
29.114761590944358 -190.00113587105184 -5.126253011075735
29.136352892334774 -189.90025558858062 -5.131516430186235
29.046820391652023 -189.86284705399163 -5.1331778033444175
28.450183297379244 -189.25180677680112 -5.163161758968292
31.72989780863005 -166.58342842980832 -5.17991146885699
31.814909590711792 -166.4835393819166 -5.1806265030514
31.630082552014652 -166.60100146102883 -5.180145030206257
22.992899072824358 -190.35711878889063 -5.0762038654084485
25.00398575601173 -172.98185032630067 -5.085040697902695
23.895463864346198 -172.09553706532162 -5.086847884593307
22.097621413929517 -167.7538167037509 -5.1341104695339475
21.810991590088207 -166.6491534890766 -5.147941214703032
21.826169864392305 -166.43180881162104 -5.15151228937295
21.955026686107857 -165.91526110372052 -5.160417635372403
22.001724964398377 -165.7422696540911 -5.163566431603593
22.02373870159499 -165.51272283439184 -5.1670292887287985
20.579117709778437 -164.3364276796393 -5.170337655997398
12.828385114738719 -187.59405205355918 -5.168740504362465
12.699939164761282 -187.45935113431293 -5.175815067695016
9.555299224114819 -188.33509615520245 -5.099577310098926
9.237960461148788 -187.65514764687836 -5.138580925093693
-4.397066852864363 -186.22987634174115 -5.121425480596214
-4.9422078052895415 -185.80759765736994 -5.143275367270212
-7.0560446683822775 -186.06929767827293 -5.110687854663284
-11.895111825338638 -184.81715372422465 -5.1502908718233975
41.348310014630485 -198.94192209807497 -4.97121918006438
41.24068897151755 -198.81403143795882 -4.971446535245905
41.28548050635504 -198.7751454221524 -4.97468209400254
41.22315650367118 -198.71425252606218 -4.97438880678995
41.10869077654487 -198.70206196445713 -4.970111145705765
41.080279688678715 -198.4163138559304 -4.979551274981582
41.05994178115435 -198.241203678145 -4.985515994179872
41.10100098963575 -198.00726922885482 -4.996652267288693
41.789586594360294 -194.6928916972515 -4.982491706123441
40.92388364547788 -198.41815360088174 -4.972939616632328
40.97875920630205 -198.36436242560723 -4.977306357999679
40.973594518262 -198.26859074930192 -4.98075347024075
41.09727611401356 -197.96026779948852 -4.9984321089752966
41.68389335310024 -194.81662362302035 -4.973895225314053
41.695573461507266 -194.75011979583314 -4.978049950998216
41.70996084484143 -194.63277892904154 -4.9852619974209755
40.86806639623071 -198.43587124961797 -4.969946169343015
40.90130852392956 -198.3707524840113 -4.973764990648057
40.95424017537264 -198.02030885655836 -4.989777188771026
40.958692507919295 -197.92320313778484 -4.993964245379504
41.07469983780025 -197.4064030827372 -5.021578202046299
41.64397436129914 -194.69300201652263 -4.980917067104268
41.666059848586386 -194.60414758336557 -4.9863826127839275
41.619311713075405 -194.5680038494365 -4.9881509761971365
40.85947323765075 -198.11115354627148 -4.982061701172325
40.878824341972184 -198.01967241407016 -4.986565559477863
40.86818291975305 -197.9382532947759 -4.9893916423518085
40.84978441602803 -197.8112535501254 -4.993843655678396
40.88079059989425 -197.77021628705776 -4.996921248413346
40.96891577793188 -197.31076690014584 -5.02113705505443
40.99654307958571 -197.27787928283274 -5.023947832506197
41.55043835562145 -194.52714754224806 -4.989754777794035
41.64880709454321 -194.21355851353758 -5.010056468487948
41.68422891900485 -194.04836771242773 -5.020497623404033
40.70326209518912 -197.96132316139287 -4.981308806453915
40.87699611537708 -197.52659088422706 -5.007247966506544
40.89418917558112 -197.41990152753328 -5.012800415757432
40.89747567264676 -197.36946521763358 -5.015208981120407
40.91138155785376 -197.2015740402615 -5.023625116048437
40.89342332967515 -197.16711847996805 -5.024407155116157
40.91876994089995 -197.05461373946216 -5.030943523974883
40.91222357732198 -196.96488256338583 -5.034841163478162
41.46466036009978 -194.49027055623392 -4.990932496041265
41.44523050719755 -194.34656768470217 -4.999578511779727
41.54135196111754 -194.28154915429778 -5.004663023714984
41.483331065334646 -194.20900599056597 -5.008446375042894
40.66919059711539 -197.97776776278016 -4.979204769747044
40.72756669890695 -197.65557621754283 -4.995056108374437
40.73956625192048 -197.61959254143383 -4.997101284414964
40.72549492729125 -197.4515373965615 -5.003830890668161
40.84790127207144 -197.0936373924393 -5.025853018254487
40.873282941443904 -196.98405443595823 -5.032260681701377
40.84078165251168 -196.89722973532972 -5.034693456298121
41.37037583923155 -194.4670685626611 -4.991379536096464
41.39643704969542 -194.4099470190531 -4.995088988738919
41.40650532265509 -194.2488167621443 -5.004997465514274
41.3948293520087 -194.20890481615464 -5.00731882107563
41.4831790188969 -194.07766802256538 -5.016545758644844
40.64148538376942 -197.3923351367182 -5.00267669274266
41.29977589467724 -194.48094722689908 -4.989596487125786
41.295606242895744 -194.33717781141345 -4.998316831719802
41.309172988828095 -194.18752930267152 -5.007662000166862
41.350194665901675 -194.0910192759872 -5.014092128022784
41.36906286682687 -193.97923974217085 -5.021358521132522
41.375678809750504 -193.85741432474157 -5.028966855418842
41.44114400389645 -193.78187147576799 -5.0344858792770975
40.661413457748445 -196.95677109456273 -5.023825901130083
40.70463473973809 -196.7805942182419 -5.033921333861809
41.259540269427816 -194.17891697805888 -5.0077555218229834
41.27555567398141 -193.85509765608398 -5.0279402291013096
40.440364000359715 -197.4365027520634 -4.991746959622287
40.55642332574256 -196.71058928252145 -5.030444614246286
41.09378621609716 -194.44298209041872 -4.989532974049702
41.15279063998514 -193.987340398627 -5.018378428415297
41.14824215188865 -193.95805999644298 -5.020212107450206
41.18583848169515 -193.81936471096614 -5.0292311345642755
41.308709908891814 -193.4677340408727 -5.052899138052377
40.525256066663374 -196.78438443539608 -5.025626943178285
40.517940816151096 -196.66625263260124 -5.030781001994537
41.04374140392958 -194.1524232028229 -5.006952803002343
41.048251865226554 -194.1310278567843 -5.008209522859696
41.08666841926216 -194.03894756588147 -5.014356649573669
41.05395486810659 -193.81916773041823 -5.027878156106439
41.14131478661663 -193.59664454969047 -5.042771818592916
41.11789744650109 -193.47287180932386 -5.0504112985921905
41.224132867097964 -193.38821616669784 -5.056945098746355
40.3773502837019 -196.73227282631805 -5.0212157154120085
40.55883069747172 -195.95962609726143 -5.068522888295729
41.01876680644358 -193.74669974648916 -5.032063837386213
40.99612227229336 -193.67104385163086 -5.036603986878123
41.06380259107395 -193.53798465195936 -5.04567653688607
41.03999850866146 -193.4823016578015 -5.049098796516382
41.07657638164224 -193.40180853825822 -5.054641975798719
41.12493155318244 -193.17860398405554 -5.069528623183899
40.31179974479019 -196.56235900641894 -5.0263415681354315
40.31650704561511 -196.42702870567885 -5.033147774424757
40.38767514895831 -196.1669732900202 -5.049619344335534
40.743417120494485 -194.34802959813499 -4.991467540843346
40.830894892087855 -194.17010491251537 -5.003461504906209
40.93002547524489 -193.83939047884144 -5.025126347899826
40.91849849590883 -193.74083052322734 -5.031261514072647
40.90565263283219 -193.65102046453956 -5.036843064582185
40.992839274859364 -193.54282602681974 -5.044735629711163
40.98776842543516 -193.43806631515898 -5.051256354942489
41.018081307547696 -193.19187566244662 -5.06750704972798
40.21678505369543 -196.56835144183697 -5.021652770369376
40.25002104132872 -196.48800442255455 -5.0270746823063694
40.244265790865626 -196.3737039735054 -5.032406454571571
40.33674288470847 -196.07762285054636 -5.051836359128619
40.34740135175292 -195.87051365968946 -5.063559509132395
40.34118251478849 -195.7959684766685 -5.067444724391585
40.696849016761874 -194.18823828671512 -5.000716741122118
40.77403205899673 -193.86180971543922 -5.022063507728964
40.000366924473084 -197.2971195151833 -4.978264832929576
40.1154656742869 -196.4572329463608 -5.022352060892914
40.17234639988079 -196.36182531048595 -5.029674258578315
40.154317520738324 -196.26891007737464 -5.033499525418714
40.177056533728624 -196.12646884277362 -5.041838759186856
40.20643512867714 -196.0326016444745 -5.048152775500569
40.76755510260888 -193.3988562213691 -5.051486767903401
40.8147758475195 -193.33717561028527 -5.055949463601049
40.809776448585495 -193.14200484811107 -5.068575071492138
39.15169560816013 -200.81520220447445 -5.066512946057583
39.8663565279255 -197.06151333830587 -4.982650345123037
39.93090493772262 -196.86873399495707 -4.99453459610569
40.09529319473266 -196.22919838332072 -5.032836437439438
40.10830627959284 -196.15098692643974 -5.037414067122832
40.095685428315406 -196.06468302803117 -5.041357976467761
40.0910112903806 -195.9736893144309 -5.046018477496672
40.751120662612195 -193.16980825791956 -5.066290654107613
40.71212093996184 -193.12148365039286 -5.068947742482825
38.741292936619054 -202.1812347413961 -5.067869744048955
38.74595864306548 -202.07687800097284 -5.066394138941091
39.98608829876304 -196.29196144187682 -5.024511567017361
40.012738113629 -196.2337156292951 -5.0286827959060565
40.061951174038946 -195.90221550183924 -5.048474227267237
38.99043110981734 -200.6926066486228 -5.058049080521939
39.939858716575365 -195.93146910316398 -5.041233071382171
40.99612155812538 -190.8649697935704 -4.973865552385631
39.27635560061916 -198.52068214462258 -5.068742685632125
39.09329131500228 -198.99388982004197 -5.055245122701687
39.10237136907227 -198.94116741442292 -5.055856178967646
39.19982749611208 -198.50237361380817 -5.064014761208847
40.354967967975576 -193.04450817896614 -5.070521773933778
40.74022095470412 -190.98385286499044 -4.973546717087589
40.785857116133705 -190.921000559422 -4.975681294869515
38.507642037899025 -201.5369818106852 -5.049712029322882
38.930711155277116 -199.27136670981028 -5.046100380162752
38.982716651510145 -199.20513260371044 -5.048860016790639
38.97317423875528 -199.06089743351404 -5.048249222756536
38.97941129453777 -199.00710027852503 -5.048601942003484
39.023994499505285 -198.68915836135415 -5.051979519653135
39.034461080389676 -198.5723560504009 -5.053144197772354
39.08934191558175 -198.50457002987204 -5.056998388607877
39.66491825360745 -195.62843366289502 -5.045257726264014
40.258084483968496 -193.0343560189319 -5.070377959358568
40.65753856600527 -190.95856154879544 -4.976619761578014
40.71265157588585 -190.8592472864426 -4.980369230931452
40.70112939699796 -190.80320518904796 -4.983420371010485
38.87504964706361 -199.3161263999086 -5.043199589274244
38.91409884857389 -199.0723265442434 -5.044907595541012
38.949046350568906 -198.76149693340446 -5.047234477503599
38.9602837305362 -198.64275088813108 -5.048307988412174
39.01827667962907 -198.57015729909702 -5.0521819631798355
39.5562339172861 -195.71727008701498 -5.035070673427172
39.598543397634714 -195.62835343753665 -5.042102746859439
40.618619954812544 -190.9138543582045 -4.979716284343494
38.838580262640974 -198.61625797086782 -5.0410630894489685
38.843228165601346 -198.56839553186083 -5.041484932210587
39.49076378744182 -195.57408660850936 -5.040239716538954
39.533108761178426 -195.5327125873413 -5.044594346077233
39.874975139754746 -193.82542751232396 -5.014754600569366
39.903169188643865 -193.78698482214452 -5.0175726979141215
39.890541749753964 -193.6331176036776 -5.027364540038125
40.42976749808648 -191.01116815639776 -4.978944541125997
40.43646357112939 -190.940338751652 -4.98232939497965
40.575007396973746 -190.61975503389746 -4.995285453491763
40.544349277969815 -190.47544587673926 -5.003049512786336
40.54375378156817 -190.4210069846954 -5.005761642949146
38.72808716672765 -198.6270874031046 -5.034478905537014
39.80639053341553 -193.49084830172123 -5.03575956664153
40.39363584898951 -190.90136399159977 -4.985192463259674
40.409400123568865 -190.76356502316673 -4.9916780884822955
40.405536527566646 -190.688824316171 -4.995452118338326
40.440944593542405 -190.45740742548213 -5.006133229780869
37.91766388585785 -202.3504997246437 -5.045779680766542
39.759456992055874 -193.50750031410684 -5.034242383126639
39.7764352484857 -193.44160020236674 -5.03875415273108
40.35946840474517 -190.70263304487293 -4.99577240502272
40.31537064704822 -190.46662879913558 -5.008325260749166
40.32968519866047 -190.4148556812856 -5.010542604637717
40.281842978444985 -190.53898242485667 -5.005446513589207
40.29536314653709 -190.41616182376237 -5.011220415061325
40.27404391339451 -190.38639986293234 -5.013108114171035
40.193364418674264 -190.4044942943892 -5.0138917246945995
40.17917170610117 -190.32902270349913 -5.017868897461796
40.15093818105504 -190.25058298742087 -5.022264474090816
40.099012338498696 -190.3506848340719 -5.018471978562319
40.086728283558415 -190.24894366304136 -5.0236737022711795
40.01239170338157 -190.2009196241506 -5.027501297048058
39.95161909384678 -190.1443559204653 -5.031486371489976
39.92656798000964 -190.08666828964994 -5.034770321582851
39.90187368467185 -190.0119881659981 -5.038849107398464
39.83126493249258 -190.0236836888929 -5.0396855475465845
39.833410713287705 -189.9379275766768 -5.043774272921865
39.82965901787476 -189.88049410502333 -5.046621660906343
39.781136314600595 -190.04852395224427 -5.039501762543361
39.72410667379586 -189.96181756918187 -5.044792241186998
39.74703907822275 -189.8060282463417 -5.051796634682666
39.65603059772793 -190.01624493817428 -5.043484258149581
39.672422509437254 -189.9541345842619 -5.046167754315364
39.71640218942701 -189.8038931551749 -5.052516546467655
38.611782357483676 -194.59540874438787 -5.064092656647439
39.54178910541052 -189.80005922680434 -5.056058383908084
39.614147331858334 -189.693423332267 -5.0597428085098635
39.171138365152494 -191.19181823635498 -4.996422944565573
39.537698558081274 -189.71794581380544 -5.060054150870049
39.52270540617026 -189.60529254692722 -5.065681473400339
39.097841565793736 -191.1238741301774 -5.0011586141206426
39.41087045133596 -189.7091698241143 -5.0628605523737615
39.40620180984981 -189.60196843107306 -5.068029633949386
36.91732938917506 -200.9112478107464 -4.993783527919287
39.3045157634416 -189.80726768717014 -5.060205983370534
39.33404002479979 -189.66994703759207 -5.066172960394718
36.84724290144432 -200.9045512273018 -4.992369142401523
39.21731468493063 -189.60677586609498 -5.071314964884671
36.789804590388925 -200.9516387640214 -4.992403456060452
36.80217812481031 -200.92012750233033 -4.99191799553285
38.83215281691039 -190.98477756669723 -5.013043607718538
38.95686941141892 -190.5490085549617 -5.031457745753517
36.65485883425391 -200.7259965872235 -4.985334424809682
36.57845049902473 -200.7142912678563 -4.983984200324076
37.79665373785818 -191.79899889602308 -4.99375977388735
37.87727626716053 -191.70698713208395 -4.996642186227603
37.693371507079604 -191.88877430293988 -4.99139308883014
37.76825971729615 -191.78632715582947 -4.994881036058421
35.41553963310085 -202.33012498929398 -5.019535664264463
37.436448446288615 -192.17866575844624 -4.98235627798029
35.91071915005078 -199.03472995526698 -5.0598218017751355
37.47775490512679 -191.7885700411819 -4.9998810251131
35.87005474918473 -198.9806493072688 -5.05638141295194
37.24146297937092 -191.50115400529498 -5.017147060635169
36.985227271746275 -192.54893432925903 -4.972834752732081
37.22192012194007 -191.5085432429235 -5.017107778430139
36.5314502405985 -194.04548100380228 -5.040394750615729
36.52671108999323 -193.99150558364093 -5.046144300938497
36.46996930725664 -193.95356341402075 -5.049380614991452
36.51570888523674 -193.9009888843731 -5.055786359249527
36.83621358556551 -192.36765644657405 -4.983633071676149
35.497194606213846 -198.0682624065884 -5.0030736728895135
36.34114225238753 -194.01782333406607 -5.040543384276163
36.36268477524326 -193.91475257397678 -5.05221808852197
36.33871575028509 -193.8650517972075 -5.057421901078138
36.72229386487841 -192.3069549046148 -4.988193742147673
36.28389789370263 -193.65670932165182 -5.006377912020652
36.34255723601017 -193.39028067702537 -5.027211037634974
36.433908405913805 -193.14734563529174 -5.046060149846921
36.549301252320234 -192.5369115473875 -4.980262341068575
36.61994838545097 -192.2680029125076 -4.991531633138321
36.63714351066357 -192.12716630263114 -4.9977221996226655
36.66068089076971 -192.09250767814987 -4.998951478446863
36.135934578483 -194.08333519369253 -5.031172090303481
36.14406767896643 -193.97454447481172 -5.04346234097953
36.298262035318714 -193.47304882975018 -5.020848954947176
36.283706585073304 -193.40724306072372 -5.026125947734534
36.41917941661519 -192.58489784565984 -4.979971593953475
36.44498389996738 -192.54086091522646 -4.981613302514485
36.50803457293326 -192.4746495680014 -4.983729238963435
35.97878678418579 -194.13824309743453 -5.024095919254838
36.056702387038875 -194.06845387045024 -5.02617866083432
36.0642530827775 -193.967133415543 -5.043843563610345
36.33593982128753 -192.60492187079444 -4.980247879827743
36.38147990675385 -192.55582679101977 -4.9818422718276505
35.8817405232254 -194.2559856613875 -5.032348617805826
35.953372513667446 -194.14688565387732 -5.0119861420937
35.96714732538662 -194.10421597399088 -4.972364992956923
35.97153247969285 -193.95353074547404 -5.04511881468681
35.998105250574824 -193.86581364808015 -5.055166226465672
36.01717352590034 -193.72349909317592 -5.071433297943266
35.99773824153384 -193.57393365469636 -5.0144454471047935
35.76544497145621 -194.33892714939378 -5.044956249521424
35.81599896086725 -194.26828657737875 -5.025676293769073
35.8993147947046 -193.80222773601812 -4.9968863325628705
35.96331659919711 -193.67565057257426 -5.006556714867093
35.70330121905481 -194.31783204282493 -5.05088378155777
35.710990225958675 -194.13137153228817 -4.972009841663877
35.69658874195112 -193.54997531513624 -5.018775379701546
35.79142935174251 -193.03775188658162 -5.05898753575011
35.67411775684589 -193.57153001394164 -5.017259976155559
35.77503337233851 -193.01071321883296 -5.0613003848222435
35.77498303756317 -192.6946695804798 -4.983296447318744
35.46789693001863 -193.82387232963475 -5.063348102837656
35.52982351385691 -193.4070701879423 -5.031956211074939
35.560238503655434 -193.39628573269263 -5.032489678210061
35.61400253759033 -192.92548888446237 -4.974617849879815
35.65691290111257 -192.73214952147114 -4.982902898627268
35.76176729017334 -192.6619335665401 -4.984923605428575
35.59224591349807 -192.9408023095353 -4.974151341111842
35.56679995027938 -192.81576547932897 -4.980075106579773
35.59645743112161 -192.74703276403065 -4.982867898950745
33.98860222448081 -199.80012266566428 -4.99419779902536
35.49772404367664 -192.74732796549225 -4.983865711623187
33.943032558080084 -199.7444925830343 -4.995083073756337
35.100647517999136 -194.27845000228797 -5.019307469254452
35.05134618248187 -194.17317026447546 -5.032601187229416
33.86554415724376 -199.7285265761853 -4.997890606037806
33.838965768831926 -199.63309876260666 -4.997228943385204
34.99273734095263 -194.15790191500892 -5.018704846272819
33.75435907866918 -199.57978934479715 -4.999773315686606
33.78176998147018 -199.57420836612977 -4.998541616499486
34.93171854442916 -194.1285415187866 -5.004691424044223
33.51856901461185 -198.93294562795418 -5.001628859918372
33.47535490256866 -198.88715735414013 -5.003408858759891
33.43245825079239 -198.8531398283522 -5.0053758405831825
33.637177592651824 -197.6421041200736 -4.986464254105301
33.666320377855016 -197.55658633285037 -4.984564603017489
33.65353491312037 -197.48159374695385 -4.985602053763185
33.946348601774886 -196.0792131044449 -5.021708691759279
33.95393602427332 -196.01991379196159 -5.018803122314549
33.32495162465536 -198.89021651949676 -5.011649737571971
33.33462426210765 -198.81576585983294 -5.010466856049978
33.33961525921166 -198.70265525286413 -5.009281937784434
33.318802647863734 -198.61918148826484 -5.009902528780301
33.560532591836754 -197.75385088988892 -4.99159128588281
33.604533151624146 -197.45645252413772 -4.989143319377969
33.81393681024563 -196.23269069058568 -5.0267091741072285
33.87194465367751 -196.17808379097522 -5.022099388917387
33.92066880927358 -196.1090407848538 -4.998724324114116
33.94284259844707 -195.9719254937274 -5.023308847010556
33.92218963509119 -195.88063097234354 -5.02834544279578
33.89487202508281 -195.81731486939228 -5.040493270554771
33.28913258066341 -198.58211799204463 -5.0114360434763565
33.5152264962384 -197.5005888983792 -4.995328356739386
33.78509673715598 -196.2572044028713 -5.01796562297288
33.85201348544263 -195.78953601924277 -5.029114504734102
33.13334790549674 -198.67344138487547 -5.021378920363606
33.73850550108677 -195.74479918350022 -5.023534461303422
33.0442325949667 -198.65139407459662 -5.026812007097836
32.98371707111348 -198.62748877565897 -5.03056944335565
32.973127197653554 -198.58593205536286 -5.031149621933424
33.28021205094009 -194.89356606752435 -5.047290214146351
33.30986154523424 -194.88495967434764 -5.046207681481349
28.06406801754736 -201.5989988857917 -5.032608925217497
28.08807037481819 -201.49562693836543 -5.0347482416304015
28.076925239037124 -201.39942165812397 -5.03842972576664
28.03432537859273 -201.34941304815442 -5.0421792575944835
27.99538417775971 -201.29449293565546 -5.045963711248221
30.10672998783126 -191.09699928297235 -5.072265523502161
27.89826441395985 -201.26275371829186 -5.051909197011774
27.784743421665453 -201.26334004511972 -5.057633281093896
29.268286342754234 -191.59150604216902 -5.0433548213044554
29.299139129477012 -191.4876121916846 -5.049072657542289
29.374717549770104 -191.35097445499017 -5.056639435922918
29.403115329988996 -191.24402942132357 -5.062456121147242
29.382455508140325 -191.13471671676908 -5.068112474747761
29.223750494925717 -191.5309482179427 -5.046390969313204
29.254126398323336 -191.42846703760145 -5.052016929265113
29.291144581535754 -191.35808639881384 -5.055973745869071
29.284789067149323 -191.2092955354284 -5.06384934955879
29.285700778501635 -191.11385294832743 -5.068906580607105
29.336329690260207 -191.06874767624598 -5.071488307471533
29.163380161693805 -191.4453698449075 -5.050772156839619
29.191536164321214 -191.32361509725635 -5.057385054881645
29.04177369357269 -191.4822226855504 -5.048252999029839
28.938505465294007 -191.46474171926903 -5.048782586916232
28.821414052732194 -191.5206598159615 -5.045235918548055
28.84584917720005 -191.4705092510493 -5.0480681547129524
30.23991230187694 -179.18125834094155 -5.037740243964962
29.72134425953758 -177.9012055332845 -5.051764485337243
29.647775791048595 -177.87729578214555 -5.051836381293119
23.113170136205973 -190.65714627411992 -5.059308708740457
26.165766975593726 -176.3321554215313 -5.046323691601916
23.01763546793511 -190.72041657747226 -5.054901707306602
23.075591927045444 -190.69263915225386 -5.056976475645396
23.110047168845806 -190.58109468724462 -5.063794404268448
23.080635293083816 -190.46982099159104 -5.07015741913667
26.073652942730796 -176.31046298637116 -5.045560566251203
22.926055227565357 -190.76100734203234 -5.0518682987508425
26.10955350563337 -175.16296917936884 -5.0635069777579815
22.57935269958315 -191.2899200562327 -5.017776672977849
22.58388074801116 -191.21597423572155 -5.022269317302048
22.269758132460126 -190.98137625498617 -5.034045595414356
23.451501795311927 -174.08406204360756 -5.048842908959715
23.509227723596926 -174.0104458144948 -5.050970173837801
23.374598940414145 -174.12303194660174 -5.047196675146592
23.55332649476238 -172.41724566460573 -5.077645442670453
23.606790829307016 -172.3266584759249 -5.079836198553153
23.34170679595485 -172.40603789530388 -5.075217536442048
23.399674202192184 -172.31916074010246 -5.077440475523379
23.117891617417392 -172.9445797762292 -5.0635621659678485
20.008065928868433 -172.12605604570786 -5.030432824030968
10.533953014545407 -190.2630936895288 -4.988320291240541
10.47829774975293 -190.15991836350122 -4.994368975365948
-4.810960449094971 -187.88233558760922 -5.0152951767130345
-8.992869188635304 -187.4076193982857 -5.011688274893818
-8.993670296145446 -187.2470321464087 -5.0218893375779095
42.9923479835865 -203.54575001631144 -4.897150347502139
42.7905835525544 -203.27436651911034 -4.897421433495516
42.71964434536824 -203.14619008105234 -4.89823467846821
42.45014360878671 -204.13887798476972 -4.867254201350031
42.44832616088262 -203.86938456286148 -4.873108169346531
42.443461016070195 -203.77450131488163 -4.875116768460336
42.67348875506351 -203.04659569015777 -4.8992634849507555
42.3568554512494 -203.8760058091922 -4.870289366544468
42.40120460546255 -203.55351242651975 -4.878799193098156
42.35729350714177 -203.61444849927207 -4.876107775966113
42.36311946038794 -203.56491398156064 -4.877458760812388
42.46495958396811 -203.08275580717373 -4.891744604599203
42.35440288516908 -202.9126244824597 -4.892422695646131
42.15342825674583 -202.94666236345367 -4.885316446592294
42.05250308300016 -202.78461407114406 -4.886075352282674
41.902510478528384 -203.40384967405475 -4.867471425888617
42.13899661765879 -201.8483594042646 -4.912150542743521
41.64160063236449 -202.23395328031822 -4.886393033063962
41.45432165460077 -202.30462966850806 -4.87897825692871
41.486231924186626 -202.26993669275606 -4.880731849225402
41.51038419001666 -202.1370463406085 -4.88456830962376
41.34897684304616 -202.23199538318565 -4.877414031121923
41.30597154720158 -202.22946862100213 -4.876226063386115
42.390857228747024 -196.74661827626966 -4.871673238515118
42.304418968422 -196.68462071932157 -4.8740052325334124
42.437457368617295 -196.38970013246222 -4.892121725121117
42.394987721957776 -196.33666370332142 -4.894596149930873
41.492375988012185 -200.22326906801896 -4.934884327171521
41.53679530331165 -199.93546816134733 -4.945330778031561
42.27253460822503 -196.6556529650473 -4.8753727578057875
42.20501228942107 -196.62118708345594 -4.876363881621836
42.294962551355546 -196.4689779969873 -4.886014641028695
42.294114868209945 -196.42148446379096 -4.888566376661129
41.24005289108131 -200.91578416693525 -4.90642842882726
41.4694098601842 -199.9174575201709 -4.943390856875121
42.15325534565641 -196.58873921391674 -4.877699405302898
41.36864478731075 -199.73790918642553 -4.945190829547988
41.417004995724184 -199.67983169739284 -4.94890444004555
41.406086665330456 -199.55298564784735 -4.95260108896293
41.43769636977834 -199.51679624384022 -4.955020923254035
41.03025676412564 -200.75640891805506 -4.903504449276641
41.37225799099067 -199.42924284217224 -4.955339439123076
41.225285333630595 -199.47200728629576 -4.948251080552393
41.27289268091531 -199.32004273642255 -4.955106838989458
41.26935473593522 -199.24641316910052 -4.957427067790225
41.29745896653144 -199.03221032182392 -4.9659684273414
42.747486716192704 -192.2173870777955 -4.8711200780532895
41.22291883726603 -199.21681748249114 -4.956635560892543
41.22395425333805 -199.1217126054222 -4.959901592602948
41.238198808963055 -199.05098839699858 -4.962920214058
41.27346925819593 -198.96500174792936 -4.967370601266177
42.030472785986525 -195.33212145247973 -4.947554260685328
41.149027751297915 -199.11513046712872 -4.957117042483518
41.17760237366193 -199.0541679488203 -4.960397892725943
41.86806339057574 -195.51485709274453 -4.935015224087071
41.65984190982192 -195.81311773139112 -4.915408134666543
41.73867508591743 -195.4527287331128 -4.937213258151651
40.82665676430331 -199.5036323733912 -4.931981583219362
41.61988003389312 -195.86399619580627 -4.912098987377795
42.26968561322963 -192.38674734117384 -4.8728943959492055
42.27604766847626 -192.35411070434878 -4.874548941382982
42.39188160617408 -191.78493769286615 -4.900207022442841
40.921740217543245 -198.69494099962773 -4.962703277532335
41.47497292794288 -196.05179158502102 -4.89967599145865
41.58385115531619 -195.37271529211898 -4.9400336786193755
41.63455278043748 -195.20330055551668 -4.950527567118474
41.70647537762057 -194.899903328657 -4.969285968215566
42.34006128977948 -191.87653655625604 -4.896771894685534
40.83358842423929 -198.4639516017142 -4.967470485183277
41.331083712204986 -196.18353579737177 -4.890665235849663
41.40718742216211 -195.76284032572912 -4.915305026543902
42.10060620643513 -192.29853254861837 -4.8809223351910145
42.11499774252353 -192.1619753885061 -4.887480404319172
42.19174091111058 -192.0467756843088 -4.891647018176912
42.18659295838641 -192.02065882026778 -4.892892411365512
42.17408810544791 -191.8471168935071 -4.901719484376887
42.25468085372338 -191.83084362247496 -4.900986834202397
42.27074967722463 -191.5570943299595 -4.91401105632575
41.45129400563906 -195.0112502281003 -4.959682380370412
42.02407059393166 -192.1952216260259 -4.887834639867843
42.12483795164957 -191.8457693702189 -4.902968404994199
42.158879236723585 -191.6715159049612 -4.910664249767179
41.146193710490124 -195.8927400468872 -4.9049170549750585
41.32771658615276 -194.98443154607125 -4.959813753805285
41.91073159497545 -192.3255773573797 -4.883693649758941
41.96578559890176 -192.11297633372405 -4.8931336081090375
42.00805293350854 -191.85201886868828 -4.905115310405825
41.01831279217768 -195.92485820247265 -4.901577002323505
41.92817862868274 -191.92934902558378 -4.902834268848057
41.963946000738304 -191.48110547130338 -4.923990991148331
40.942506000328216 -196.1167447894991 -4.889791255667739
40.985267287171325 -195.9418594480694 -4.9001114819771665
40.9721596314115 -195.8463059142539 -4.905502244935599
41.03499839217227 -195.62214015294742 -4.9190827910928245
41.78990465273262 -191.80398208351275 -4.912010315133323
40.79150199208712 -196.11194585081557 -4.8882271499730034
40.848867648054735 -195.987541023657 -4.896029344461747
40.88499007462477 -195.82441274592378 -4.9056056515923085
40.999240218077226 -195.33145231125704 -4.9354537861165735
41.01749732431362 -195.09419252272687 -4.949663923584738
41.01903142518845 -194.96147513464 -4.9574314293055926
40.77999484738679 -196.03778110061353 -4.89226808723131
40.76941853716338 -195.96421526430458 -4.896300974811957
40.82297254679445 -195.6406159936843 -4.915394575103465
40.95991914532759 -195.00645211530835 -4.954064140125774
41.70026649506292 -191.5932738350555 -4.923962298335383
40.57232171602849 -196.2847399124602 -4.876089042018447
40.694576947785016 -195.73658924068704 -4.9084280249557635
40.80692086247497 -195.05980826118738 -4.949106458970447
40.889689443765974 -194.95833154271673 -4.956214136053241
41.62075791426179 -191.2100540212713 -4.944077278955644
40.66502911447773 -195.21704471667138 -4.938153221357854
41.41554768010954 -191.7809397371608 -4.920844696363856
41.52646790694907 -191.3421136173352 -4.939639024071519
41.55540469784964 -191.22583560365163 -4.944781388622086
41.53017807435113 -191.11558826639052 -4.950570798417013
41.42637625148755 -191.03395667327717 -4.956396148294776
41.1640636996198 -192.1382628309512 -4.908646067966013
41.380834852528515 -191.1021590080574 -4.954191202106181
39.67864445466914 -198.78318804264674 -4.911196626511251
39.68333846745754 -198.74214640160895 -4.912634873049666
40.211122209630325 -196.02415257572568 -4.886338550113577
40.44541917537718 -195.18330569733376 -4.937653175314848
41.015980469974934 -192.20339700093788 -4.908413681371733
41.02658421599771 -191.98164127461277 -4.918966462081307
41.25823823720833 -191.13405300390738 -4.955112813393699
41.25546791720774 -191.10495520209827 -4.956411938019909
39.62288579414237 -198.64216444027232 -4.913429037199324
40.22386967850004 -195.5449996017835 -4.913890836366084
40.26164962385286 -195.45953528222043 -4.919246426180756
40.236560980996195 -195.3225411091208 -4.926961009894269
40.27975189308661 -195.25835445709362 -4.931248123184662
40.88692243451648 -192.25752716414394 -4.908576630130542
40.9676553767376 -192.16670705811575 -4.911267918031356
40.94523411375875 -192.00762239592885 -4.91950936338319
41.19511144472585 -191.05893586506195 -4.959924435054858
41.16505639204152 -190.96777365123702 -4.964938584839108
39.367197947700525 -199.01142227631433 -4.893550690111737
40.094579486284715 -195.68377105089854 -4.9043916129860055
40.22376944587799 -195.21940094060412 -4.932809907205363
40.23878070109474 -195.18557149215056 -4.934983336495452
40.89637521527676 -191.98922777665257 -4.921387189619629
40.89174493359072 -191.77154983376008 -4.9319673972889
41.05893050544881 -191.0078480708085 -4.965267874285917
41.09458375818248 -190.94477321914235 -4.967689281692788
39.28678966424918 -199.0223090028454 -4.89047980047695
39.319460817329464 -198.99266813593167 -4.892382300942631
40.12221793822475 -195.16460749378814 -4.934849795625347
40.71935791383034 -192.00471837236756 -4.924116865720468
40.972452824914306 -190.9836996915121 -4.968440740604035
40.98060571215163 -190.92758991708303 -4.971071057416629
