ply
format ascii 1.0
element vertex 835
property float x
property float y
property float z
end_header
77.24272145360051 -152.54196632639264 -1.6241992856510605
77.32891405292057 -152.55959082456883 -1.6268915950178622
77.44562114434942 -152.56278131639064 -1.6194081234431386
78.32506825214895 -152.66224329000318 -1.5799566667090814
76.55355831035274 -152.43062853579676 -1.6483160434083177
76.85104015775214 -152.45122129266943 -1.6389178300906806
76.90766754861441 -152.45909624448913 -1.6338889063296862
77.24487043388626 -152.48626382086903 -1.6163118820511282
77.82234912529178 -152.44974652820505 -1.5943222394953849
77.84365469148808 -152.388644371454 -1.6007462563885044
77.98099085231763 -152.3634321671487 -1.5780776267894885
78.0572796475595 -152.36193416000313 -1.5741146172665736
78.14081197671521 -152.3912624975693 -1.5781911947342189
78.88374654033291 -152.43852160644352 -1.52596425295979
78.96835902683424 -152.45718306982977 -1.5199639621509768
79.00621012260896 -152.47305628591545 -1.5041500201268798
74.83103167584062 -152.07076092061118 -1.8157025161353877
74.88983456092882 -152.03756175241324 -1.7820513304596362
75.05498099084016 -152.0216482306103 -1.8019550157324908
75.77389541537144 -152.07522576720135 -1.7152987195875151
77.80804439469321 -152.2486565183184 -1.6033787649079136
77.87105611424467 -152.3142393032404 -1.607136206567555
77.97648713856768 -152.29632618760192 -1.5707918332593125
78.05676344184512 -152.29316225965673 -1.5655302747219513
78.12502490127942 -152.36050680571464 -1.5712782267625547
78.9981816324272 -152.40813511299936 -1.505424083605312
79.05929244720721 -152.39530415951458 -1.5080579124047904
79.17990175781398 -152.4196295873996 -1.4946227039880653
75.16684628885402 -151.98983745476465 -1.766550948664844
75.7973351713895 -152.03004642328986 -1.7129086671045766
75.84937452617376 -152.02553498375053 -1.716000966266483
77.79994751015589 -152.14156485376466 -1.6028229156668987
77.90886874362265 -152.17973737216352 -1.5831324369847064
77.97015546154029 -152.20710319768824 -1.574453865392153
78.05309351086623 -152.20400000168905 -1.5683886584562885
78.27240889543344 -152.21522320012528 -1.5514287990085855
78.33873772656679 -152.23947246939593 -1.5453428808268588
74.80506697566733 -151.8106032456838 -1.7900211523739977
75.17745677291165 -151.8231066486481 -1.752421670909479
75.26564443696181 -151.8827916689418 -1.7458701621320527
75.79627011005643 -151.94542808645863 -1.7216333630576712
77.80441526258717 -152.07796547053658 -1.5967083209696489
77.88606579581142 -152.08453981759916 -1.5849991432273198
77.94433547947499 -152.1016362031811 -1.5715693517892766
78.09467976921277 -152.1157647391844 -1.5598960002825681
78.16990779102804 -152.13593360512286 -1.5654227760334267
78.28687336736469 -152.11744973751738 -1.549265252043159
78.36974240570503 -152.1101122455939 -1.5444746891030436
74.91803886500664 -151.77671232106735 -1.731953012143146
75.16419317307798 -151.80605683060966 -1.7635328924974432
75.63154939180286 -151.81259104682368 -1.6999130478367812
75.67199274739282 -151.7787781914394 -1.6906469393711574
75.81331637846051 -151.78770458723545 -1.7043585130683323
75.8605232650337 -151.79355497516386 -1.710579267811946
77.7967269857085 -151.97906401337286 -1.58183902416738
77.90575687315828 -152.00456043633346 -1.5769353623108155
77.9675577694115 -151.96798291687475 -1.5664328971831298
78.11563824622444 -152.03096688116474 -1.5539126550814666
78.15541349250242 -152.04319742409848 -1.5581342564871388
78.31413480487846 -152.04079671395283 -1.5475626352695075
78.36729551280263 -152.0354350566349 -1.5432691139353483
78.621664498836 -152.03496759605002 -1.5390953271207346
78.66216895003974 -152.01951945732998 -1.5352204773542795
75.81865585602898 -151.70822308603107 -1.6961880242364828
75.87488783162622 -151.7240817581936 -1.7019530025226057
77.75007899634295 -151.8551825268254 -1.5870404119745847
77.80941389559813 -151.88246071611778 -1.5808434611439397
77.87852069202333 -151.88593781055397 -1.574067635519938
77.97112915736818 -151.902836987826 -1.5760470830337254
78.48841193396927 -151.9218389928428 -1.5558974892475765
78.61339741828375 -151.97853287380008 -1.5325854482753423
78.67180011320656 -151.9629797573312 -1.544328101299877
80.41831201045814 -152.08107117270436 -1.4369498989450191
80.48878066633795 -152.12376490867865 -1.4404148007041284
80.55925488715621 -152.14309795292377 -1.4530756975941586
75.45670808093438 -151.57880004572314 -1.703023557108484
75.88453363365021 -151.67118830293558 -1.6969794908939217
77.74170497182674 -151.76837957533863 -1.5781528162108505
77.80387595885044 -151.7763168642225 -1.5752473479697369
77.92198078942917 -151.78618015114614 -1.571421236894531
78.00817688728205 -151.80719016772065 -1.5694792618435358
78.0604257289171 -151.80354412398478 -1.5618017703550113
77.735103677552 -151.7245839213925 -1.5772255913945668
77.76872452077191 -151.68734705259348 -1.5739705029756696
77.93846945622825 -151.7182054723516 -1.567153038991832
78.1363239773919 -151.71377591720244 -1.5569863094081526
78.20748215063234 -151.71433565227878 -1.5540938815143046
78.30466158621606 -151.7246920137671 -1.5502742879660807
78.39468113211841 -151.7104526303941 -1.5448382220979904
78.77627170569971 -151.7361025638362 -1.5194073559718748
79.01229968156134 -151.78741746583523 -1.522797939880104
77.87340542490364 -151.56270819300218 -1.5710700458578142
77.92025599812139 -151.5699896089416 -1.5682505748110418
78.0469839061175 -151.61136722337793 -1.5609105388789732
78.12387422325388 -151.59360691989258 -1.5575442108135702
78.33572843328945 -151.63909705712948 -1.5464732904903307
78.43394636734989 -151.60673068799122 -1.5406455631191567
78.49876904523484 -151.66190525981435 -1.5503423447429023
75.9313526720427 -151.30597828175084 -1.6901472480341986
77.85651932262371 -151.53403535269746 -1.5695133642595378
77.92289961061779 -151.47732974558215 -1.5668523559723968
78.12981270447453 -151.5144664818064 -1.5566266166449434
78.45755495271453 -151.57828531525064 -1.544775864624523
78.50519371537887 -151.5793967869505 -1.5373572715771662
75.65797112787577 -151.16141042178978 -1.7219754974554704
75.88739590616821 -151.22204470626323 -1.690285811949047
75.92243559274581 -151.2266114475528 -1.6914791057867842
77.94900848296007 -151.39981134533747 -1.5677093329358365
78.03516680569574 -151.4055882964079 -1.5616498870830995
75.58120745085641 -151.11315601287893 -1.7327957391479738
75.64373339318172 -151.12536456414213 -1.7234255283101867
75.60201460837843 -150.89376232869245 -1.6998910727351424
75.65115883641067 -150.92288688857056 -1.6937827961636327
75.23971260694604 -150.74339492061503 -1.7574940616825987
75.29662831247416 -150.7570246001788 -1.7270571447538496
75.37265626093644 -150.75794787516583 -1.7132242963209467
75.62523619712255 -150.80761821266395 -1.6982557237676086
75.65264846038954 -150.82865297733213 -1.694425595893685
75.22976155414246 -150.65948034300843 -1.7283505557419452
75.47629437465793 -150.67920727206734 -1.7082776313694419
75.61187345509701 -150.7176380464777 -1.6975477204748128
75.15787160076448 -150.56504211742293 -1.7583150607103066
75.17660529437465 -150.57357836282156 -1.7485558666034153
75.44112549936423 -150.59290369918958 -1.7091069596219441
75.46737175868695 -150.6304095669126 -1.7081546487213046
75.61403560233364 -150.59558680261554 -1.7015239578147323
75.65322548426168 -150.63034290043902 -1.6926784954075813
75.49721271214038 -150.38784159948838 -1.7043233403254214
73.71417225087646 -155.4394832321028 -1.7335792599148712
73.82017277900644 -155.46149208487657 -1.7672055807264582
73.88742231921152 -155.49163014053124 -1.6732231499342127
75.80850212292928 -155.61909621756794 -1.6003058580985572
75.8501731058825 -155.60290525922338 -1.6137698384464745
76.51693444596675 -155.68826636680578 -1.5627188973033883
76.58056662593565 -155.71632926524913 -1.5624286983933615
76.74902314775314 -155.68114185908462 -1.5647345210317611
73.89228746744739 -155.33276769222365 -1.7513810314297498
75.82564849436912 -155.55103064502165 -1.6261940906263883
75.84242018715055 -155.5572376211391 -1.6076258327044963
76.51336214987343 -155.61563658169737 -1.571023675502276
76.7961978667805 -155.61473942360547 -1.539707025397019
76.84565807186854 -155.63250443992925 -1.514647430066202
76.98186683116671 -155.64402981629297 -1.5582937009521198
77.80220708755006 -155.72307187304185 -1.5183661659565804
75.87386253751338 -155.4274036026884 -1.6043019983078617
76.52267026521073 -155.48387647440876 -1.5689073959101894
76.55905789764871 -155.48245303207284 -1.5839931783171566
76.7904483957263 -155.53975288598343 -1.541378079167963
76.89522674587604 -155.52930911286018 -1.5417586745217045
77.00272800647181 -155.50748450149518 -1.5310982914549767
77.05004757195563 -155.52518923703536 -1.557208029614488
77.76026576515359 -155.58750604260615 -1.5185407902704597
74.39450558736449 -155.16646960742108 -1.716686850225409
75.80569630237642 -155.3328928870439 -1.5981497660615034
75.87759297024553 -155.3553119316033 -1.6245508179157793
76.53362621961469 -155.40680324374685 -1.587019718325113
76.56711497542854 -155.38988535540076 -1.6212718049724923
76.80093116855755 -155.43269896708165 -1.5249818234165389
76.87669085600213 -155.44926462613185 -1.5340022312703268
77.00815753127871 -155.4462437095139 -1.5303838433816885
77.08615117670887 -155.4246221184275 -1.5564309785696253
77.31620096974865 -155.4163314431258 -1.57382803765574
77.38957605644326 -155.46596564691728 -1.5596969030605963
77.70544715573345 -155.45465619645663 -1.5360639572576857
74.41966203978821 -155.12862883991613 -1.7173421898684076
75.8088972922281 -155.20636733596123 -1.5838099093937386
75.8735616630111 -155.21959112896633 -1.623525332103568
76.5524295227572 -155.31769197524122 -1.5843876824559746
76.56922645391849 -155.31915392827864 -1.5834714019554528
76.79996813581577 -155.3546274194364 -1.513651627629681
77.12686896449239 -155.3102505773519 -1.5522009888678525
77.31282517846742 -155.36808990401124 -1.5658732875010144
77.38871514366576 -155.36743058984604 -1.5673042208967307
77.47941360361331 -155.38738480792762 -1.5746976852366554
77.65232885939359 -155.37441625244932 -1.5264876529260576
77.71823144048263 -155.3816179707 -1.51744179936645
77.79363276320181 -155.38671542392615 -1.5187790537984633
74.47750407027334 -155.01692103749522 -1.719406409135734
74.49378666130185 -155.01833833196255 -1.7185181760408563
76.63072137428057 -155.23102968409083 -1.5954219279349684
77.31993917320116 -155.2745856792289 -1.5619405981680692
77.41016911604655 -155.2461965997389 -1.565892279495467
77.68277376218677 -155.3044348110418 -1.512845178960565
76.64601979820631 -155.1131711331622 -1.5808951720980118
77.10414269789051 -155.15718310847367 -1.5405189871119354
77.08121485923724 -155.07987225064716 -1.5330065290401467
77.10991080864737 -155.04655405788583 -1.5409802542230016
75.5322123113912 -154.79840007243195 -1.683703897258246
76.6686115955317 -154.9129287038119 -1.5636356834535428
77.15655207746374 -154.9010636265015 -1.5523137405566214
77.20362700228063 -154.923012792576 -1.5580661635646262
79.35113781097037 -155.07555602231037 -1.4739950379339217
75.37675076307855 -154.69956337359343 -1.675167643788085
75.42171002885594 -154.65244485682746 -1.6480305398503474
75.51784264389083 -154.7399386998676 -1.6731209001612135
75.61634085512036 -154.71990680906362 -1.6620641008566206
77.15886658858973 -154.86414056461274 -1.5427647391203028
77.20689703614747 -154.834494399931 -1.5558112659836913
79.34254658526845 -154.98625681202995 -1.4618805351794437
79.52059064757236 -155.011119171759 -1.4377756749882644
75.4096006186206 -154.64393060816616 -1.676435850600887
75.63231357894696 -154.6404133139647 -1.6451223104999717
76.65730991184148 -154.66428802367355 -1.5951963409671057
76.75247081567798 -154.6786249638804 -1.5674910065378749
77.184850772362 -154.77924454907256 -1.546676733887983
79.18277321360515 -154.86350491263173 -1.4696329361372964
79.2505157780803 -154.90989450631434 -1.4730107038181854
79.3466142338576 -154.91842673914783 -1.4452188487087128
79.41305244223676 -154.92333745098512 -1.4283642776738656
79.55026445355752 -154.9570189050374 -1.4352988497418724
75.49998878632952 -154.5280963076524 -1.625320889565961
75.55654874854396 -154.50434075814584 -1.6346016186876215
76.66422132989256 -154.6350834113936 -1.5910268066991065
76.77914802259063 -154.61323809869916 -1.583406827446369
77.28200217081987 -154.63940305460955 -1.559613880632754
79.17297039263423 -154.82506854831746 -1.4785521224225224
79.3575618436735 -154.84290044845667 -1.4213640296259453
79.44953955992287 -154.84631901293932 -1.4249871091600639
79.51525144939887 -154.87174125544018 -1.4599036077850633
75.6017367197128 -154.43815399485084 -1.6162237207147216
76.70840731270175 -154.5175372350486 -1.5299792236393877
76.80430380417697 -154.5347893383702 -1.5805088468409147
77.30746293977487 -154.57167949223998 -1.5787390085592428
79.00568044240832 -154.66494832023213 -1.4828501066442916
79.05784893233955 -154.7090036768484 -1.4798957294742543
79.14686259333969 -154.75432826299325 -1.4834243909462133
79.47921838961092 -154.7556547602443 -1.4628650313144287
76.11265625981692 -154.3596050730025 -1.648605781127956
76.23201368230893 -154.38316290860365 -1.6425828109125766
76.2677449725736 -154.37264150686875 -1.642637575970221
76.83212255032409 -154.43539675088195 -1.6098448725102072
79.41527061280424 -154.62828851854388 -1.4577709717862228
79.47027194338456 -154.61317082067748 -1.466009611870572
76.24032374058083 -154.27959524866256 -1.6242290721937445
76.29081349455464 -154.27918120648775 -1.6393577262468446
79.39540264133912 -154.5326599545021 -1.4718436204932228
79.43535884236937 -154.44399902172844 -1.4389121547140247
79.50114063693955 -154.42108238422358 -1.4264389389901768
79.33579404127532 -154.31571685963337 -1.4265361740153655
79.41078474704794 -154.32315754254205 -1.4218692221841926
75.39619600614324 -153.8577376316142 -1.6713598891106294
79.22570328535399 -154.17707393361073 -1.4201829027569899
79.3094044923767 -154.23516314653503 -1.4213659386483704
79.38529932518718 -154.25662079256736 -1.4178956393440567
75.35488327162513 -153.75828539745703 -1.6753542188145476
75.43830937362209 -153.76157796174977 -1.6727676574246535
77.50394721230667 -154.00288995277197 -1.5790452722898152
77.75755768889532 -153.99699769776043 -1.5571515659324289
77.81430234039844 -154.0003272501814 -1.5523126716563316
77.91007562872078 -153.98410572537233 -1.5521140030987284
79.26142693270546 -154.10822511060988 -1.462170249849863
79.28998906583601 -154.10521851312689 -1.4274212280435792
75.44925448195397 -153.7265215524136 -1.681569640327749
75.50778482768791 -153.68375170532448 -1.6876403970245033
77.64330148438061 -153.9159388470567 -1.5534874732634578
77.93413540383916 -153.8994000945621 -1.5475325075358544
79.19966044512354 -154.00673233855892 -1.4541680002709159
75.53280094328328 -153.6167025543878 -1.6737081510046776
77.45393732764872 -153.71945902882857 -1.555034140774282
77.63742309490412 -153.81669306452278 -1.5654790944791828
77.94072784423412 -153.79368811568514 -1.5510451678318875
79.15850712941578 -153.8609346002209 -1.4328987216141815
79.21782442049275 -153.8882736075098 -1.4224463831476262
77.3920333895181 -153.6286987289904 -1.5358462395216406
77.44783226985149 -153.64985349492815 -1.559689873855669
77.90843328854683 -153.6497205993609 -1.5560790381598548
78.19418448101491 -153.7191993149802 -1.5369011345099186
78.23770439960823 -153.7508545157419 -1.5390908572689053
78.86549487921361 -153.73341576172473 -1.5009691973584391
79.06540928705556 -153.79309906758334 -1.4396313187332235
79.14926764843749 -153.82493682696764 -1.4513801024396238
75.48701747281652 -153.37360174434502 -1.6816008481382099
75.55252542316569 -153.37558473162656 -1.6653693954835103
75.65076161938276 -153.38182554814514 -1.672289300428392
77.28873797479909 -153.55458629269 -1.5846529727197507
77.3793205032058 -153.59240300963734 -1.5346402404313686
77.48160619796626 -153.55888336633407 -1.5398187803959056
77.52984416172686 -153.56980989346968 -1.5368980929411362
77.90594315434653 -153.58933903828614 -1.544241884452724
77.92124106498196 -153.61552163721794 -1.5475955365587137
78.08039942058306 -153.56629477472396 -1.530052778254908
78.14585041290903 -153.6083024243533 -1.5395759475023594
78.8190017565222 -153.6751873833807 -1.4966861005136045
79.02217451842161 -153.70794480171315 -1.4288752868017098
75.49853147352107 -153.3153603991833 -1.6614520882816046
75.53772279819663 -153.33255164199383 -1.6673193794932533
75.64795337884533 -153.294748643406 -1.6070049446611971
77.241076965273 -153.46241060606306 -1.5822918649851407
77.48485296599642 -153.47678275981716 -1.5259503949230937
77.52317222602333 -153.48488779643304 -1.539846449316454
78.01229247143743 -153.5252896997897 -1.5328316038269656
78.04166827491177 -153.5381641334047 -1.5276370703666373
78.20185000714008 -153.4886536984787 -1.5384756200954393
78.84136051276457 -153.58370636265104 -1.504337710018414
78.05983632450966 -153.37461717559373 -1.5348275085727106
78.84042217186743 -153.45827681469063 -1.480860980614652
75.82224938041925 -153.08566681422468 -1.6721447026253957
78.05897494309261 -153.34312872612747 -1.535962368825631
79.00402161023392 -153.36689163801307 -1.4906944146451773
78.9743512810674 -153.27816930382502 -1.4963014012158873
75.9360196039612 -152.89771245577668 -1.665607401977299
75.992446070631 -152.63045737235257 -1.6622537956485388
76.79019014199588 -152.6685481560751 -1.6116483458408815
77.68931415013931 -152.79349503015135 -1.573171381835859
76.27136544287309 -152.5628441115958 -1.5919394695884046
76.30302724522002 -152.54961938014264 -1.6098110579884701
76.42397530338754 -152.56032961113468 -1.5793471298006443
76.27463055877023 -152.4181371893083 -1.5995178777019938
76.4954054311532 -152.49190257632742 -1.6314952426629086
76.50804317436301 -152.5040625811209 -1.6257412297332463
79.16995802420112 -152.655866653042 -1.4635028340102547
79.20746935585134 -152.67467508796938 -1.4634520857157842
79.29553978803581 -152.686237091091 -1.4043505606784192
76.23150368230272 -152.35553265399417 -1.5894122563758692
76.33751331415725 -152.3727973639456 -1.6236171076038994
79.16448232068802 -152.58594640492933 -1.4528104678452307
79.23469117541062 -152.5848469520429 -1.424861463914824
78.98040811605199 -152.44719406646573 -1.500500202493759
79.091452790996 -152.45014750419645 -1.48563026983467
79.14231722494898 -152.50057533706897 -1.472337702415506
79.20433557469795 -152.54547028656071 -1.4679630180010814
75.55760470007284 -152.09538321985974 -1.656555622827356
77.97219240213555 -152.26539476925356 -1.5560847304777279
78.99113187263927 -152.41731488998545 -1.4999695891538711
79.0483636395407 -152.4073841366887 -1.4978991444138972
79.14026446493837 -152.40950170780505 -1.493241691215522
79.46916478843264 -152.40226649998502 -1.3853652813780601
75.5960694013046 -152.0474831506377 -1.6513700766186425
77.83002736619635 -152.20667611625313 -1.5087951832560111
77.95158919678008 -152.23167934995735 -1.5509960949720178
78.03040543389137 -152.16131344028847 -1.5573251343474352
78.28738576947129 -152.22196247203897 -1.539404565620556
78.33818192443728 -152.22712769934506 -1.5371807070654802
77.99841885124553 -152.14796141766578 -1.5564029393519272
78.07766970773751 -152.10907845149728 -1.5524570945854577
78.16331278511433 -152.14264178115994 -1.547297919967799
78.32204923127019 -152.10867410461668 -1.5402749131593994
78.34400638673634 -152.10977278979792 -1.5366464874263053
75.78682713512531 -151.78776492791897 -1.6690366876325569
77.79010029650863 -152.0119332477115 -1.5687936133057652
77.85992988898063 -151.9579019227587 -1.5628457065398813
77.97286833118015 -151.9658509310183 -1.5594162131559206
78.12330900709792 -152.03295724261304 -1.5481830189732373
78.32852032900394 -152.04939239690233 -1.5364806081145683
78.35345649816277 -152.0378953623016 -1.5339770206417207
78.53234820812597 -152.0342472316942 -1.5224896245614064
75.34059935626033 -151.72271965522754 -1.6819580475682487
75.86859028394377 -151.72977086451633 -1.666373823397374
77.76816704010241 -151.83587739115725 -1.5730242316021443
77.88575291160898 -151.93369054927655 -1.5615789227800994
78.01274335396641 -151.891105257304 -1.5503582323280996
78.3376763534146 -151.96637255385465 -1.5294665962322807
78.37506462058401 -151.95938638657026 -1.5316073958923822
78.6462194746081 -151.9989711999251 -1.5232365095712017
80.44178182059674 -152.12480035025365 -1.4106116653537413
75.4564627873672 -151.56565207920082 -1.695488796771662
75.49942349300382 -151.58096856548943 -1.6871944734325504
75.85965842744774 -151.6068335846135 -1.6755873857819468
75.87830748184184 -151.60851834549302 -1.6620985692053412
77.73928634716239 -151.73744517210753 -1.5709629861951728
77.79314993220443 -151.76728516172943 -1.569234265551036
77.89609351112551 -151.76735414679433 -1.5620021748151212
77.99934164106344 -151.8053815097559 -1.5506380353950138
80.31778709170442 -152.03180601892728 -1.4260639876391177
75.47591091581744 -151.4999903647488 -1.6610725364360794
75.83151342549853 -151.51959893502914 -1.5836677355897744
75.9583760893212 -151.56183208140197 -1.6527061005598085
77.66635011458321 -151.64616718126365 -1.5627137913443496
77.71966452162543 -151.67880773698653 -1.5652827224192762
77.79448817475742 -151.67956671318123 -1.5633942898018967
77.90721646407695 -151.708970632426 -1.558362923343326
78.02989800784961 -151.7465448126631 -1.5555532965477306
78.13934032478197 -151.69979331710098 -1.5466620214560862
78.19673911070328 -151.71891285139503 -1.546079155450104
78.31236330581115 -151.73366569259576 -1.5426210338050454
78.37517153326175 -151.71775663713524 -1.5384140141051623
78.79482736889933 -151.74469071793717 -1.5102694137996806
78.91276487755596 -151.77486778083076 -1.5073082897834442
76.00317795096079 -151.4115212207898 -1.608525481720686
77.66858547339706 -151.61156400874128 -1.5681403996187164
77.72411928576261 -151.58015406502784 -1.5594554736031685
77.81675531410039 -151.5831074623463 -1.5598084067517262
77.93770190736706 -151.5917500701404 -1.5568552292656568
78.03094376026772 -151.60369155969042 -1.5548149052200513
78.12202631605278 -151.61546327902687 -1.549340955977218
78.26453865787659 -151.64256698348976 -1.5324312892329854
78.32641175552594 -151.64268618956376 -1.5382002339903813
78.42179964630522 -151.62320875460594 -1.5351488644930713
75.54988602137047 -151.3081928776528 -1.6140648213365165
77.67302364171161 -151.48624927023963 -1.5518851975024752
77.70918790413067 -151.4925474730112 -1.5573658400756667
77.84527152406716 -151.49061664042463 -1.5595020176407215
77.92701316500414 -151.49290837275993 -1.5596306213600593
78.0509377189515 -151.49454943440978 -1.552421722846431
78.10134208451994 -151.51759628550914 -1.5524633646839023
78.47571924795828 -151.58768891154259 -1.535293936302783
78.48157506820492 -151.58737820627155 -1.5320077987389809
80.64581644604549 -151.69004927200638 -1.3303323434204732
80.70596128653943 -151.69325201181204 -1.3141124552434564
75.7959009435159 -151.1744769093401 -1.6585208767970645
75.85994719562588 -151.25712598702162 -1.6785441929917158
75.92209487952256 -151.18878909045793 -1.6682063663917157
77.69178277070576 -151.36908786805714 -1.5474654164341217
77.72290630776058 -151.3825893473479 -1.549699411804426
77.84880593737893 -151.39437331886873 -1.5571715401197048
77.93356448391599 -151.3842536235834 -1.556771098867295
78.02972015237738 -151.3892976094431 -1.5502950453697348
78.12736707530378 -151.38723486390003 -1.5398826012983613
78.23831780268583 -151.40243335131387 -1.5374747090681589
78.51155799570411 -151.4004892511371 -1.5225959591157772
80.66131581931477 -151.66883373856987 -1.318624879389284
80.71261987952457 -151.63118874902028 -1.335396952284007
75.90535852203524 -151.11027803296497 -1.6694358998161105
75.92159998214102 -151.13710841188805 -1.6515727712157937
77.75746976021817 -151.29022159899665 -1.548221224753875
77.84985174541376 -151.29963318432797 -1.545338103142869
77.93774787703269 -151.26983475382215 -1.5337644149528664
78.04303875266719 -151.2798644399784 -1.5393144493728128
78.15369821254089 -151.34783472560835 -1.5424257632776075
78.23069037291785 -151.34855248727985 -1.5331749341863974
78.46428941735056 -151.3371746542856 -1.503034680036679
78.53336415307595 -151.3801249970138 -1.5164651292800317
75.69908761324696 -150.96695249693363 -1.6699291530186686
75.77097826458716 -150.98362549879482 -1.6694880835224803
75.83106208952609 -151.00846328627122 -1.661566068570624
77.77816994451601 -151.1974420024463 -1.543431191679499
77.86105565842796 -151.1683731248391 -1.533494806905022
77.92383964544312 -151.1989884488739 -1.5286256994803655
78.04121666425651 -151.21838848999883 -1.533151530180004
78.11449831671288 -151.17636233846997 -1.5183885043414838
75.61467045876779 -150.90174979980316 -1.691106197603723
75.6649931203853 -150.90578139133197 -1.6848762704846987
75.77440641285379 -150.9591016183511 -1.6566185801912132
77.76343578995288 -151.04747334674786 -1.5309660475646716
77.85039654458858 -151.09762806863128 -1.5256884443705876
77.95467902567434 -151.05459094926883 -1.510599724781897
78.0784644922437 -151.1224121752558 -1.5144544824715411
78.1382329675775 -151.14516165699712 -1.5160374751952923
75.30415714096843 -150.74533366624718 -1.7019460001026538
75.36288887043784 -150.76770561781407 -1.7047740109343348
75.50799068620513 -150.76952052575967 -1.6953236330076014
75.57537612831817 -150.80710598821952 -1.6847531520002088
75.6731758096376 -150.80254945579068 -1.682086887680521
75.78038799671197 -150.84606887945347 -1.6707006476813575
76.39165260484812 -150.84516087374178 -1.6088623426386346
76.45856476336387 -150.8671776191354 -1.6091470860566095
76.55456583421831 -150.89342935657933 -1.603721199743108
76.69402817730969 -150.89361967207296 -1.5852705566951295
76.77982145375363 -150.88173165292008 -1.5833150583800004
76.87271561574074 -150.91297016394248 -1.5769548735237313
76.96876578693322 -150.9173997803017 -1.5767952773028946
77.07771743186849 -150.91964198724503 -1.5694923743634592
77.17808532944439 -150.9215117245695 -1.5723695725535545
77.28823854289595 -150.924560813871 -1.568967429040839
77.38165907343445 -150.92895409050175 -1.5585558155168848
77.47182723917764 -150.97317051477793 -1.5456619107056295
77.77706034400582 -150.98953799976067 -1.534193471280968
77.91002792507986 -150.96822146056255 -1.509440299040838
77.96887524735251 -151.01428180956114 -1.5105308371519246
75.4901548723974 -150.70900973559645 -1.698613303957278
75.63346747452614 -150.74070287491736 -1.690840771025774
75.7168427647976 -150.70442905683433 -1.6737470987075582
75.78248757148678 -150.70704581286816 -1.6704101899085284
76.31456804117705 -150.78435936811582 -1.6079758498843546
76.39150646788369 -150.7462456170575 -1.6021885133259568
76.46803576231079 -150.77188846933115 -1.5987651198682618
76.59223162942804 -150.7705795501059 -1.5927307905512174
76.69162137727957 -150.79591397621263 -1.5920606095486114
76.7947163620637 -150.79800438374147 -1.57626735089051
76.89168911832952 -150.81091177858872 -1.5753925848500803
76.99081150814801 -150.7927167205796 -1.565979577885487
77.0952710496107 -150.8295101196626 -1.5586038985447161
77.17471264579666 -150.8573290973719 -1.559668484925676
77.28186877530919 -150.84064374922275 -1.5566246003152528
77.39819128586556 -150.84228891419292 -1.548870604510141
77.47113328269498 -150.832630318293 -1.543405764839516
77.62096259406704 -150.88173945905834 -1.54280620004515
77.66327219068262 -150.8814994769627 -1.5404178983611985
77.74435928383312 -150.82868168539244 -1.558443641321277
77.91431470660874 -150.925931963551 -1.5187165438296615
77.94329800865185 -150.87881271077978 -1.5204549837427765
75.4274199807403 -150.5757978109636 -1.6917844234866584
75.45974825958764 -150.61210889029428 -1.6982498403190538
75.61395358111359 -150.58399263146956 -1.6876607678576019
75.71533249218862 -150.63003126148564 -1.678519701795135
76.22755259077091 -150.66393451828367 -1.6141633607835055
76.30410171386632 -150.6307252327822 -1.6016589006247626
76.38990180793613 -150.66690691474182 -1.5979757546902127
76.50972194943627 -150.68152804209225 -1.5931703295379247
76.5902764682321 -150.69339846488154 -1.5875213794669116
76.70859077081545 -150.68529556937585 -1.5831599357835018
76.78895537040295 -150.69761574791315 -1.5717758299143894
76.88679043771154 -150.7012463761537 -1.57318588360256
76.99784071025951 -150.72161652802407 -1.562724477566455
77.09169939857873 -150.71771321734448 -1.5596016407027464
77.19831074829112 -150.73977593687033 -1.5556659667712749
77.28079580634245 -150.74171361838197 -1.5488976284002403
77.39107343691396 -150.7424650834666 -1.5476417974688634
77.49834938337384 -150.75436511493407 -1.5384815287060651
77.58999969318705 -150.7474620765561 -1.538064825688898
77.66265953130463 -150.72414130198598 -1.5399230548177636
77.77601092835165 -150.77544206583516 -1.5542727965630159
77.91112376602369 -150.80849011019768 -1.516383175878586
77.95034844546544 -150.8205011163598 -1.5183322593110287
75.32450224040028 -150.46833147333504 -1.6896729231796566
75.43676440499601 -150.50414350219387 -1.6908032270490407
75.5203384582444 -150.4951822990064 -1.6902983230334194
75.60607674654781 -150.48638157863564 -1.6803343014297303
76.20524113883366 -150.50159464412724 -1.5937944852891497
76.32678726266944 -150.58762683693405 -1.597338818328344
76.39644570951546 -150.5673255279508 -1.5942966406674928
76.53521812004436 -150.56364379921916 -1.5970754860862715
76.6009147932433 -150.55201190176032 -1.5823499056065033
76.68886238490627 -150.6348096045841 -1.590746231408799
76.79397771030439 -150.6002993590102 -1.569841666548955
76.89915606835996 -150.65257770909844 -1.5700883492786541
77.0031375563503 -150.60495945738055 -1.5576501391877098
77.09158837017735 -150.64316681152863 -1.5627967936235398
77.24207760511034 -150.63198819240787 -1.5554743977349137
77.3154093867207 -150.64028444426543 -1.547099149099385
77.4028355624803 -150.6496128867646 -1.541316436654853
77.51747853301077 -150.6484667297918 -1.5332041191654364
77.59334120832321 -150.66165232376352 -1.5364876041361837
77.71201431598652 -150.665927909261 -1.534743107712034
77.78117988626911 -150.6724549831151 -1.5399185013248706
77.86493384663449 -150.71817956710467 -1.5551399078962915
75.23648544974196 -150.33330411472602 -1.6999181009863003
75.28184004744348 -150.38980212232315 -1.6886502343747227
75.51889534686626 -150.39675160593103 -1.6914859254001988
75.60433856951464 -150.435627100424 -1.6925231665530318
76.09020137499391 -150.40523863095206 -1.6033419647299416
76.21050746679317 -150.44404290696113 -1.6021724350479043
76.34291317943473 -150.43437836089439 -1.5966538418876373
76.38269589896755 -150.4605578063258 -1.593965384491459
76.50245985477895 -150.45500593795052 -1.5872774214448986
76.6201703997017 -150.49063768021313 -1.5644050827980749
76.66687142877034 -150.4826201432083 -1.5627497961377965
76.81068500985059 -150.50353716365598 -1.5694225820440826
76.91114979060168 -150.49094139336108 -1.5589065224049836
77.00424202209501 -150.49799138778587 -1.5522285113652228
77.1122536558773 -150.51204756156608 -1.5450633673258158
77.2490125461688 -150.5747490347734 -1.549019534185677
77.31340341980507 -150.54001290986892 -1.543827659615877
77.39920117767159 -150.5666738725738 -1.5484944202895814
77.535349486808 -150.59360722191792 -1.5365705841115909
77.6086628902686 -150.57919677351413 -1.531221884841505
77.70685664025308 -150.5759420592198 -1.5281662088556998
77.79095704166076 -150.60833667987401 -1.5293961715562998
77.99754105348691 -150.5667493869962 -1.5314671393573278
75.48846067346612 -150.33702249501746 -1.6958365701320242
76.04230347577574 -150.37857071831593 -1.6089498013228551
76.12579665310481 -150.38003697571378 -1.60488400599876
76.17601060292561 -150.39120856875815 -1.6080950133920893
76.34976348562638 -150.38738510879602 -1.6022237194746487
76.46287751832011 -150.40478412998664 -1.5908916053598212
76.84157290792194 -150.43506478638744 -1.5738903323398343
76.87628948556014 -150.4216845870901 -1.5414901719866738
77.04339709525561 -150.42801047377887 -1.540761105684322
77.10267626758346 -150.43304395754927 -1.5389312432530557
77.25320191423592 -150.44543926779122 -1.5370737884879362
77.29555481148824 -150.45702167516663 -1.5452336672569236
77.42308980091863 -150.45465469991197 -1.5291021738769013
77.73357990146762 -150.48007143335445 -1.5115442065328004
77.80996177510382 -150.4463295250251 -1.500540597199982
77.96793707302814 -150.44868871833913 -1.5142836628903658
78.0367232137033 -150.4993307007841 -1.5284215481780254
78.08022697694926 -150.48248197488576 -1.5321158967426833
76.62716663892367 -150.246284109233 -1.5706372524495822
76.72654355078812 -150.2499182775385 -1.562692233597927
76.82656971732968 -150.28687491764543 -1.5424986761625823
76.90563990115697 -150.29816421564465 -1.5372027013292877
77.04345110105344 -150.29796303081855 -1.5342067370182166
77.09462214004277 -150.31300807295884 -1.5308603506447678
77.24748399654759 -150.33085147661416 -1.5280662761182056
77.32335809445193 -150.32542532501765 -1.5179546570226676
77.4286077339589 -150.3320316149605 -1.5162236280498516
77.6273508575795 -150.3674041393064 -1.5056983335776826
77.76140378970345 -150.38752267213678 -1.5041401615677654
77.82598539390395 -150.38196051409815 -1.5081972611800718
77.9092078786058 -150.36406782752732 -1.4931095903956912
78.0363861279078 -150.4127007740824 -1.499807963296336
78.09321965220087 -150.39506706511773 -1.4948383992477823
76.569967523198 -150.205441398275 -1.5606997219727872
76.65506002755872 -150.190512469418 -1.571306321360075
76.72204678463125 -150.20433124697794 -1.566097047333649
76.87322648930547 -150.24691228554494 -1.5486419461429013
76.92704045919822 -150.192006956826 -1.5371864728779594
77.07313352521315 -150.2376024962206 -1.538731502709393
77.08577220629996 -150.25837208521062 -1.5358081131521142
77.25663385711015 -150.27662674802247 -1.5317213281849775
77.36291307726103 -150.28550950996976 -1.5267511451166411
77.45453923664509 -150.26672076690997 -1.5077834288152747
77.52145342701334 -150.2177096821729 -1.5000575374956573
77.6359850336601 -150.2545408394129 -1.4935642268231433
77.71437620792378 -150.24908383605927 -1.4875420417763747
77.85049712315524 -150.29378931607923 -1.481857368312674
77.91941559046172 -150.28480967655256 -1.4879354977343386
78.00089122078728 -150.25972327828458 -1.4798080554251705
75.85429117320501 -150.04590224607514 -1.6050383394529957
76.55988650081075 -150.07459100581528 -1.5784764408280862
76.63977112963745 -150.08359866089123 -1.5657522384789289
76.69665106122743 -150.13512023318603 -1.5543569630575842
76.95120491193128 -150.11555794824153 -1.5296957264909143
77.45533668026842 -150.16906673330107 -1.5188683953903848
77.53469887759316 -150.1544690860521 -1.5060805580214236
77.62655602128358 -150.138917685687 -1.496078913569486
77.7200891808146 -150.19239847879788 -1.491574073471931
77.87553629572317 -150.23004692056918 -1.4859274899950952
77.94675961102696 -150.2055856686308 -1.48263634447365
78.03563251859308 -150.20343959518624 -1.4673241349054513
78.36807392680251 -150.21196588302416 -1.4479709680511923
78.41117607105464 -150.2022978959518 -1.4507954129226812
76.65875083523568 -150.00081804409902 -1.5526660143563253
76.97647969982683 -150.0435631558272 -1.539896347726295
77.58370968325131 -150.09708864620444 -1.494828676019289
77.60946318653113 -150.07776790965048 -1.498174208389816
77.81194884773353 -150.0761108446695 -1.4785607677756838
78.05268498430128 -150.1343586462851 -1.465787338095804
77.85159964347761 -150.02680700985005 -1.4785598173855181
78.52947952444978 -150.01651197501693 -1.4438617221491645
78.48150969983543 -149.92572922259566 -1.4429896292633742
78.54248997949335 -149.90067095693513 -1.4403240664161947
78.54200693941294 -149.8807907175689 -1.4440058031013752
78.02348663973163 -149.5609656341017 -1.4703560638067144
73.92925441492628 -149.1519939960553 -1.754182901915363
74.14538050422044 -149.15202481520757 -1.7170212810622303
74.2068852411089 -149.1794408456362 -1.7147324128315364
73.71261127936499 -149.02902375561752 -1.7829134522652397
73.8494509566496 -149.07586754563934 -1.7620218659760292
73.96247479659058 -149.04542175712555 -1.7474084086606378
74.02848126272977 -149.0753667447549 -1.7312601362696214
74.10888520050612 -149.10865199295733 -1.721090308640737
73.67542264795321 -148.97001398342658 -1.7932993239644066
73.76685795900869 -148.92773772852468 -1.7858573499791337
73.79064136735136 -148.96696669943333 -1.7790540975421196
72.95212491692956 -148.44257556403122 -1.759521827586494
73.03616562404144 -148.47056318151274 -1.7429155294292253
73.16531134121202 -148.44500402517966 -1.735643701871569
72.86597511464463 -148.40487376478458 -1.7766526165337984
73.00392725547486 -148.35347929706808 -1.7505546542909796
73.06728898360942 -148.38243908779097 -1.7468477506502014
73.18660644470332 -148.38826782917084 -1.7436330936164945
72.98536890034079 -148.3164979387025 -1.7545892559439265
73.08283247196366 -148.24117520551368 -1.754528232349801
73.14595294100354 -148.2595726817985 -1.7535408287294831
73.93827689582338 -155.45089804179617 -1.6644960721061977
75.16208771480339 -155.62200567823942 -1.5314349586108573
75.80659718444524 -155.6231219476551 -1.5268569659012208
75.88411939627659 -155.63396976125333 -1.5508518853560738
75.5960969231615 -155.51158101988497 -1.5449579109175784
75.79117341912095 -155.48419618611885 -1.53313877258035
75.83765375126956 -155.57343656722307 -1.546099390673962
75.23205474990746 -155.4082620835562 -1.5027476141358274
75.63677781973284 -155.3794444719955 -1.5604129300743919
75.67653942416354 -155.3954488083448 -1.5512041638882348
75.79841703207418 -155.46267170601627 -1.56103640555638
75.23280909548171 -155.23580855956374 -1.533737258528602
75.6309448194224 -155.34134487494026 -1.5498256801494121
75.7048060079158 -155.32895389382023 -1.5404322990400137
75.77443059456444 -155.33075370449808 -1.5273616049694854
76.81680378705744 -155.43857306072815 -1.5074089634183827
76.86828816853213 -155.44305410980908 -1.5046003523527849
75.24723762518612 -155.20424061452098 -1.5120403215637672
75.78628349446785 -155.23807724600266 -1.5312855846616908
75.32461229141495 -155.06395069121015 -1.5058648089884341
77.4462948820976 -153.52338190098678 -1.4803339102302975
78.99152213012992 -153.65395742850853 -1.3483471085245697
79.04467801994011 -153.72976833824097 -1.3662311916495913
78.95722810888483 -153.62679837840466 -1.3476913763483889
76.21951131690098 -152.4215827060909 -1.5340847650613496
79.31792441176275 -152.6706452090002 -1.3799630373993008
79.26473564959674 -152.6091464290145 -1.3713962353571811
79.34150231247197 -152.58633142235303 -1.3505542044717536
79.41491636626522 -152.61196725273768 -1.3244557049812222
79.36676635632737 -152.5296060017184 -1.359461940336875
79.40939740090097 -152.50922593909584 -1.3614776771717163
79.40046170363273 -152.42272483729144 -1.368118783006245
79.44375065827116 -152.42982516970875 -1.3622955413043076
79.3553059360552 -152.3397496390742 -1.3745357084193313
79.42196394044079 -152.35661524386484 -1.3786168972491255
75.66587497999251 -151.32590177726996 -1.536120649576918
80.70040016327947 -151.68098654672158 -1.3114790122649296
80.66677446445729 -151.6014858476903 -1.287984912114677
80.69787989352693 -151.61487918762631 -1.2910784517697436
80.82515759967866 -151.6354218676098 -1.2458533542080568
80.88789290961235 -151.628986631849 -1.2448004311168614
75.93568575918377 -151.15927270614415 -1.570604487823652
80.7260263610514 -151.56459378501603 -1.240286690415082
81.86313673828552 -151.38545944247053 -1.1646219882488587
76.9224681141648 -150.32518387231582 -1.522659514863097
77.03759163630654 -150.28577425465502 -1.5164397932262543
77.25802585892981 -150.36752246068565 -1.5053517117175295
77.31069895606139 -150.31980443850208 -1.498889835524697
77.62222371097708 -150.36033337248963 -1.4797183952081594
77.73800720062951 -150.3417114149857 -1.4711959780860089
77.77910641327946 -150.32851502382806 -1.4761244261877549
76.93738663708633 -150.1723573058547 -1.5217029285206651
77.54259431221918 -150.2297813587703 -1.4763657940939423
77.60098888624879 -150.25499258345423 -1.4871618387327032
77.73898484327148 -150.25077741191882 -1.4665797005570271
77.79823702634371 -150.2295263878834 -1.4653387665468227
78.02265497427864 -150.2482830323561 -1.4548438064458171
76.70949706751114 -150.06126828353706 -1.5222938188851345
76.81007820112441 -150.06757509371408 -1.5061902608748992
76.95065952964865 -150.09238245759437 -1.5170532045554888
77.55055839473222 -150.1409564144316 -1.483991925106805
77.62755724729277 -150.1649836362807 -1.462105470122449
77.71598835957946 -150.17379286498934 -1.4656908488924787
77.81134223026501 -150.1903262745869 -1.4608033621430316
77.89306875080848 -150.19637809379307 -1.46884131688175
78.04536278172748 -150.19065435794786 -1.4572715855188862
78.34578011529089 -150.20859135351444 -1.4323332532675583
78.41774827741398 -150.20780184378071 -1.4364849252577887
76.76026261107498 -150.00833346997277 -1.5236830152003293
76.96004332224413 -150.04683284104613 -1.5155201018430668
77.54288067746995 -150.09125728833286 -1.4858897629185015
77.6642399011757 -150.0846254078524 -1.4648185209391364
77.781290524828 -150.10974923337199 -1.4713697502761331
78.06895998544364 -150.13775805793315 -1.4578166216566042
78.343603039698 -150.13113648419323 -1.4274371096170886
78.44940131786817 -150.1232293319512 -1.4317856322911287
78.50092965334653 -150.10988467940012 -1.4324635450990866
77.54113842423075 -149.90969062031263 -1.4679799044566977
77.64140283744597 -149.93511511409216 -1.4552952018457785
77.75164931334102 -149.95553971501715 -1.4663119136142873
77.86421760045671 -150.0286398117375 -1.4654667818250975
78.29019246697028 -150.02580983977157 -1.4228730448390956
78.35908886278764 -150.00655253050505 -1.414557814034452
78.47983906285519 -150.0598708939668 -1.435081726810058
78.53896845727812 -150.00677731655 -1.4265616887603978
77.20184176423204 -149.7853527142519 -1.4653358176588684
77.21766571428053 -149.78096317265786 -1.4691409131741264
77.50603040427954 -149.85262793267353 -1.4466818741233505
77.54387722164375 -149.86511591594063 -1.4681118002292581
77.6646298453711 -149.88858112369755 -1.4631276442703447
78.337958735515 -149.936759729901 -1.428433590279254
78.45414394053078 -149.93686870571017 -1.4011848843899253
78.53622858771668 -149.97768898154823 -1.4346471610055966
77.18733337431233 -149.7317181735795 -1.456162611020591
77.2221680637515 -149.75970094586185 -1.4659513712070815
77.50545548508717 -149.74714252369384 -1.4419821827218966
77.55673123779987 -149.7463794221005 -1.4432473461148903
77.95316904110663 -149.75615197916738 -1.4494518535453393
78.20277657222779 -149.77731318938808 -1.435359519635596
78.22683589907699 -149.77191388202067 -1.4385991722651386
78.55200186191037 -149.82989850137278 -1.3871778057724042
77.19725286888402 -149.64647933275228 -1.449997828038102
77.50326866520159 -149.69365587667602 -1.4490933745956533
77.60716275641285 -149.69163279408863 -1.4470054446409086
77.96643982441994 -149.69874309525142 -1.4538032141759019
78.0680338872558 -149.67105307309268 -1.4418244639380398
78.17042285878506 -149.70072230270858 -1.430383969550818
78.25188045043791 -149.68528616117274 -1.4241054070380545
78.57995505944174 -149.72043230815515 -1.3384362386117281
78.67491968832589 -149.7604225255471 -1.4100002085951424
78.75736001310133 -149.7104386162409 -1.423040031714803
77.20282878729458 -149.55293985882005 -1.4567692157078922
77.4976636156576 -149.5566858475474 -1.4472260769339487
77.61830019658544 -149.57420974065585 -1.4671238502527992
77.67680118791891 -149.56039171753662 -1.4565297362661727
77.82263730515311 -149.59390167713676 -1.4172444438566525
77.88399108100961 -149.5520757711188 -1.4209007525647388
77.99895050376408 -149.5775827009735 -1.4283102231697464
78.1106545933927 -149.61796183768288 -1.4378960263178606
78.15684902933873 -149.61633275119675 -1.4312782631273415
78.28845524439625 -149.63002670887923 -1.4114560721838545
78.3677403139784 -149.6055686159254 -1.3896780683633836
78.53440387619612 -149.59449356150344 -1.3876233430960634
78.5689393300359 -149.61426522064838 -1.3788124343896695
78.73047810386194 -149.6231959815748 -1.3807813004139935
77.21749327200368 -149.43096810121898 -1.4675598669466203
77.53493186572378 -149.5012897178592 -1.4774791946521662
77.54485624237326 -149.50211919606357 -1.4770150913965383
77.71896284939766 -149.50136241105983 -1.4623478189395274
77.81898348395521 -149.46085102145864 -1.4118511786411674
77.87466855504772 -149.49048261276556 -1.4261492738406785
77.98566363070246 -149.51351640291617 -1.4280993547693206
78.04492821298791 -149.49944312416383 -1.4221219084068288
78.39517043458237 -149.53418354902013 -1.3941361021794139
78.48812536973182 -149.54304498459925 -1.3808102529576813
78.5786589423091 -149.5599535623554 -1.3801937836242515
78.6956325094325 -149.5410100881598 -1.369372726942475
78.79703841575807 -149.57429138775885 -1.3818267555740322
78.84307432707463 -149.52045909576938 -1.3234933348267448
77.22447081831928 -149.34360013373313 -1.4651538456359656
77.81933845400317 -149.3893108799793 -1.41293526580107
78.07016476379356 -149.38683445001595 -1.3785095496155493
78.41735350357837 -149.403124898808 -1.3475925387041792
78.50624915255052 -149.43378810859403 -1.3564931080756146
78.70324127563708 -149.47571793291362 -1.3607799149039428
78.98136721894441 -149.4252023090365 -1.3478820101923474
77.22592926659618 -149.24135174728562 -1.4595066643295775
77.83417591446047 -149.30561281403774 -1.4062890082982475
78.08475111548148 -149.3367061384368 -1.3705303356371086
78.43943706550974 -149.37427239598392 -1.3524287798419574
78.48370331087081 -149.34504308983307 -1.3518379693606541
78.73963774721061 -149.39936313885823 -1.3383897901930908
78.91285469105696 -149.40309098574932 -1.3213696936570378
78.97446911088875 -149.3913197626564 -1.3359941319677486
77.20710040091649 -149.11683296642065 -1.4512706858312687
78.15597387784226 -149.1751527959788 -1.3640440410003283
78.49498521258761 -149.27251154327243 -1.3501878550402593
77.24874365364089 -149.027041088224 -1.4554455135623703
77.31895585765771 -149.03470012557855 -1.4518153958438558
78.45540475490968 -149.16133391225566 -1.3450640723614582
78.48294454703202 -149.15733334896166 -1.3448620148834283
73.3093175979323 -148.56982678732075 -1.7222648446552267
73.34510987962267 -148.56892398509206 -1.7150030705858057
77.21427720904542 -148.9408084113136 -1.4573707521854713
77.32146380363343 -148.98057278098477 -1.4497691357156413
73.07621612018914 -148.47880644677676 -1.7350622859957814
73.31673723068639 -148.48744481027072 -1.7218111554114552
77.2161139603747 -148.8613811090523 -1.4432378542875532
73.04815910507924 -148.33739471858144 -1.7421821223784864
73.19575181001625 -148.39381167705136 -1.730236784665427
73.3036304780001 -148.37108345756516 -1.7092015774889213
73.18618614660932 -148.2906270271587 -1.7247290979907017
73.28253148146847 -148.32265998012988 -1.6913480687260396
75.2504536190775 -147.82571380270142 -1.5674360815814592
75.32593965244043 -147.85336665947983 -1.5625026520286955
75.43941259639635 -147.8532525743792 -1.53083619279706
75.24532584483323 -147.7420706146874 -1.5713786919201538
75.33786937242476 -147.79025236048818 -1.5686060205403984
75.42502414923572 -147.75696286315397 -1.5399943456826084
75.19008427253848 -147.66467301606127 -1.5865202129462725
75.21078315850148 -155.65052857296592 -1.4384646799749854
75.17361212992333 -155.58901206073153 -1.439870544096762
75.17152638841009 -155.51687396727255 -1.4110010639790298
75.42392968686676 -155.53414919165735 -1.4146892683596015
75.46233631179595 -155.47655249757395 -1.4189595745865158
75.22377256289676 -155.34933039736168 -1.4105382016957753
75.48760792509518 -155.4027812765446 -1.4334758818967424
75.24203716414128 -155.26299358683212 -1.4351216975840644
75.26726896577148 -155.24422232290033 -1.4402315787704978
75.24114369908976 -155.1963982594155 -1.4379894071359394
