ply
format ascii 1.0
element vertex 814
property float x
property float y
property float z
end_header
-7.980247263929374 -10.518690677612222 -0.8344123620789096
-7.6751563254279755 -9.16761775680857 -0.8943636042011496
-7.685998599751974 -9.114104624571555 -0.8960622454948298
-8.989595735239394 -14.957272191475248 -0.8852962373955204
-8.917393973027668 -14.873945400924372 -0.8765406836124321
-8.467369683922815 -12.697078412351328 -0.8296894229900522
-8.482211856704653 -12.639558707285177 -0.8254076254098194
-8.177129544695674 -11.175488423001003 -0.8140357529546993
-8.195525124703035 -11.134896969542774 -0.8128424506302598
-8.08303679486843 -10.53199061741217 -0.8276302110917872
-7.997881541777561 -9.902073312542408 -0.849859848116372
-7.970796015375641 -9.832174033486119 -0.8536471695867569
-7.918000278489296 -9.63521068073411 -0.863399586551479
-7.898214992338686 -9.55465617881544 -0.8674739305807085
-9.060449250699564 -14.955708845168099 -0.8836509406879676
-8.861329252121942 -13.672585246413824 -0.8738588784637131
-8.639494661137492 -12.614198833414557 -0.811459764956889
-8.555051358613863 -12.310759292426324 -0.8046117847536202
-8.13216645872115 -10.488371831830968 -0.825433829265227
-8.144181294470975 -10.42250645139913 -0.8262080732489537
-8.150493899696254 -10.334023617348091 -0.8280344658711333
-8.088704003240142 -10.251719740480429 -0.8339230520378789
-8.006623299664309 -9.844745519575724 -0.8511902461046745
-7.9039170766115205 -9.040448928420773 -0.8890898719478879
-9.115048057105188 -14.932100277161876 -0.8796041297484347
-8.904768655823892 -13.683691962954109 -0.8718113562221274
-8.89822275622441 -13.648403901536497 -0.8687881144703878
-8.910559626312505 -13.551753298428114 -0.8585419861044394
-8.67350020798558 -12.565481880472538 -0.8062748119196231
-8.37906632252968 -10.357911659793341 -0.813822476515795
-8.007598770695433 -8.783691228757554 -0.8974811785610219
-8.11753501518808 -8.685816986387534 -0.8985044899702173
-8.207131170389957 -8.745070494483704 -0.891712352917541
-8.257258669516142 -8.688456837807928 -0.8930719528916875
-9.53477014216881 -14.890175261729059 -0.8669838134701128
-9.550323482924666 -14.73833181964178 -0.8467821048676899
-8.321012770473164 -8.698321438391176 -0.8902956133996677
-8.335075942141186 -8.685805475063628 -0.8904589156043381
-9.65144300820609 -14.785169779202814 -0.8513408170862304
-9.611953742232124 -14.748391762198905 -0.847087946586889
-8.39793921527931 -8.668826149811968 -0.8893460255750268
-9.768057847995635 -14.93587232990667 -0.8703430106762701
-8.624485985181806 -9.174781129418806 -0.8519907749777293
-8.606920043315974 -9.086916322983189 -0.8575156199150932
-8.541998657152476 -8.7301877780802 -0.8808538090521767
-9.881426202460059 -14.906410879270544 -0.865220632144184
-9.83395849612512 -14.737079671243755 -0.842428804289516
-9.858766239957756 -14.685901147658058 -0.8351940048246289
-8.700982688478858 -9.156450812821802 -0.8501612146842198
-8.685247889823831 -8.86567599316065 -0.8678627568203291
-9.948301622870833 -14.72826513622994 -0.839937168714757
-9.942603987278524 -14.683282134964681 -0.8338123806968596
-8.766945414431982 -8.851256573902933 -0.8662118297369159
-10.062723772539048 -15.024086416221758 -0.8811079137277328
-10.100820394158587 -14.900801559934534 -0.8631440779851879
-10.049440653177362 -14.811878050725337 -0.8507156227156453
-10.036045443288298 -14.7252201839967 -0.8386472508285053
-9.99826271211304 -14.661240071523276 -0.8301862139304622
-8.837561532726866 -8.826118803390514 -0.8656999156679868
-8.854462677075286 -8.747794613605397 -0.8702773973222455
-10.245980706062134 -15.09779850369518 -0.8921686647364799
-10.166136647005988 -14.924363663209515 -0.8663628793041107
-10.16523516353224 -14.846576015443194 -0.8550819602056208
-10.169064655479179 -14.719421461517427 -0.8368525665790449
-10.093998588772685 -14.599294347362996 -0.8206640686780873
-10.016551152168617 -14.144376389167606 -0.8567339405324063
-9.99273392826812 -14.017554509700474 -0.8401247808280629
-8.944472121211227 -8.830529996047341 -0.8623833477851917
-8.96023335132864 -8.729137499013484 -0.8687159537706689
-10.393314186143385 -15.391464155759278 -0.8215289596096421
-10.274225654470765 -14.818100856404328 -0.850688041003046
-10.193168733927255 -14.712885466043305 -0.8357689919869238
-9.359087743717199 -10.155429491086771 -0.9020479281579428
-9.056840120378713 -8.791157537952078 -0.8621378163665733
-9.036522081056011 -8.711089982883188 -0.8680241876457462
-10.467036273188086 -15.070406038093417 -0.8894269626959703
-10.382208896304705 -14.84660813373281 -0.8549480774402014
-10.370589470826694 -14.752912226050093 -0.8410418626574185
-9.18575122420232 -8.816583459299263 -0.8572547688656136
-9.117702127036454 -8.676443246928848 -0.8686244119061948
-10.68098642035396 -15.685884908682382 -0.8704338462283232
-10.518420186082325 -15.220850554559046 -0.8038086203466321
-10.504526850081941 -15.04442480076194 -0.8857513795374579
-10.518894096855693 -14.847709315721538 -0.8556475417036286
-10.270911872553786 -13.856742244567679 -0.8844412213043593
-9.282474992255862 -8.821021022998732 -0.8548800808200065
-9.282261979267497 -8.779774864953513 -0.8577964117522391
-10.706365351612014 -15.687831248889799 -0.8717404303808788
-10.649437981242084 -15.191721035612561 -0.8044871551592916
-10.639070409467788 -14.980337004384062 -0.8772425033198039
-10.61456741031879 -14.950341726303316 -0.8722798762776341
-9.417336040395885 -8.905382883843965 -0.846101872115379
-9.345886763647536 -8.83680376480632 -0.8525034049644412
-10.858184929454817 -15.556679235130021 -0.8608035731987093
-10.752270252429048 -15.067034604562878 -0.8927230903443015
-10.724086978711897 -14.992923767939647 -0.8804331980411019
-10.683124345803918 -14.94207502992024 -0.8718121266370534
-9.503050046844358 -8.954357573643309 -0.8409811711965826
-10.916435151080526 -15.562907268224247 -0.8643078150523106
-10.882696352319515 -15.402202870566239 -0.8412001047940412
-10.77110581420244 -15.047292028665943 -0.8898995280237683
-9.62394919246698 -9.016545554314854 -0.8343076249563914
-11.075724434842801 -15.597779106104971 -0.8767143193297088
-11.030760887176678 -15.571372531985833 -0.8708821988554589
-11.028033302232236 -15.33489623385715 -0.8386691936140176
-10.942036588991042 -15.086026718207455 -0.8857603120373594
-10.732212436941568 -14.118086254255166 -0.8979086112345863
-9.78988790656971 -9.136587999273678 -0.8227628903676009
-9.750117825960766 -9.051451410600272 -0.8297518216292399
-9.676638158481502 -9.023325915725742 -0.8329975223015842
-11.219743462979551 -16.072726170197097 -0.8233315583081998
-11.22738184749056 -16.045851839032466 -0.8209899615204727
-11.19204240005205 -15.684350823568447 -0.8946812497523543
-11.08788601828411 -15.612852249360104 -0.8794054334021367
-11.115093695438372 -15.547987207270882 -0.8719110176347251
-11.071524994588552 -15.323956776468938 -0.8392456585730834
-11.034737984241735 -15.28150691371831 -0.8317893744086846
-11.055171151099906 -15.05162198792944 -0.897201219209355
-9.803065946917872 -9.12992157975502 -0.8230226596019683
-9.820907588927934 -9.05794064063959 -0.8283756103517069
-9.80435796441355 -8.986257812977062 -0.8340953879617874
-11.224853805772158 -15.441912103996515 -0.8630473857222553
-9.935274221527036 -9.053137910191209 -0.8275052755936552
-11.259437847352789 -15.432533315884305 -0.8636025638004854
-10.000689512538417 -9.020428642751867 -0.8295927052422085
-10.027450537922302 -8.95216316965665 -0.8349842608065635
-11.496115393065535 -15.706947123686492 -0.8037184758726139
-11.39888888628242 -15.342468433757654 -0.8588660139422601
-10.190821761463958 -9.10650620495417 -0.8215767297841073
-10.098530924745498 -8.973188159413304 -0.8329828159198187
-10.066001990544759 -8.945818944573883 -0.8353012130120256
-11.52191324901777 -15.692262110582696 -0.8039785125645987
-11.5685727253539 -15.582802731296752 -0.9027441038101076
-11.52108431453353 -15.46596822166514 -0.8833495223608082
-11.487158761492836 -15.39442480310893 -0.8712635494612211
-11.47061220515209 -15.287167894765599 -0.8553169389945015
-10.29484242102209 -9.235644210709625 -0.8105619829549408
-10.241149066535034 -9.167461592446628 -0.8164282586160815
-10.250306630424397 -9.089400739475296 -0.8229242148507918
-10.24822467029752 -8.946373161605887 -0.8350601565953112
-11.628126489751708 -15.715533855802681 -0.8140319355565674
-11.641008481465692 -15.484539445229354 -0.893579790159256
-11.613286663288218 -15.452296454590254 -0.8872475052513066
-10.364168070620357 -9.251120494598565 -0.8092508220784862
-10.348384896722022 -9.046381291206485 -0.8266729814050818
-10.313896102621399 -8.933205471106339 -0.8363946748383989
-11.75455783187489 -15.613655848373707 -0.8124846667463879
-11.734712577478335 -15.491345825807752 -0.8799440352704488
-11.719437754579184 -15.439281156519472 -0.8924029801749503
-10.552611445474437 -9.621392465409066 -0.8979829360783188
-10.443540686536942 -9.136414331567437 -0.8192829043566912
-10.453797700348726 -9.023987111852536 -0.8291598187296925
-11.816345950517288 -15.585493949643048 -0.8141066583835161
-11.834879458536957 -15.477929113276074 -0.8488110156600538
-11.811290746245453 -15.428066911789154 -0.897154549168231
-10.614705919246694 -9.574518508947886 -0.902472226625518
-10.560984861418088 -9.079968730442898 -0.8250290593084036
-10.53138101539333 -9.01541601473457 -0.8305740116306455
-12.008044049805381 -15.666408612459866 -0.8375647105766426
-11.92179981312567 -15.462309807353886 -0.8190049423853181
-11.903125722380862 -15.417377087835686 -0.8526726873726569
-10.773076512032643 -9.590890163849535 -0.8989852834344831
-10.711878471196544 -9.257837241267488 -0.8105935568939306
-10.645198920390724 -9.116610080802618 -0.8226203116520185
-12.19248049424262 -16.046875353954594 -0.8932158621054156
-12.04875365235357 -15.720351248566375 -0.8465739819860725
-12.072330444561441 -15.646894495191146 -0.8405955675026493
-12.001936248022094 -15.531457944099689 -0.8226497331823003
-11.989184687919057 -15.502647084462463 -0.8185477953141272
-10.89905054617762 -9.641720081212451 -0.8923297760947424
-10.887709477501131 -9.587108782878612 -0.8990334005723688
-10.759510887433658 -9.304644871566715 -0.8069877286107254
-10.72270369786482 -9.153431774086366 -0.8202274884635568
-10.719537460834317 -9.06092713003014 -0.8286957827974634
-10.701812816827712 -9.017509494040304 -0.8324134779865192
-12.205255082292371 -15.682947602985378 -0.8552975425455908
-12.160574718128812 -15.627705453531746 -0.8456910859640241
-10.876829630347505 -9.256137030005483 -0.8132538344803073
-10.854428377808437 -9.153303264470306 -0.8223992230950198
-10.808284861220859 -9.086654171121317 -0.8277432043029086
-12.257843630339089 -15.678285550614632 -0.8591360621881694
-12.236632028123239 -15.649498776252145 -0.854304239215043
-12.275665396547465 -15.523388589761296 -0.844051788585809
-10.995069096072887 -9.300071897789309 -0.8114301676587647
-10.977195276348935 -9.250845871606508 -0.8157446931355086
-10.990003185418452 -9.097962196755109 -0.8305436572438525
-12.414339459945898 -15.798346200920486 -0.8853450373518944
-12.379754854471411 -15.670669765978914 -0.8686743875284828
-12.30551615734209 -15.509129281512525 -0.8450272414001819
-11.104536564055522 -9.184320339703957 -0.8252647094089556
-11.038606774333145 -9.123192734480641 -0.8293759144791988
-12.47259960746001 -15.835772720751857 -0.8943746219224383
-12.522108996196318 -15.765163966582133 -0.891188660141257
-12.470930787637093 -15.683011155241793 -0.8778867978114628
-11.327241297327099 -9.828786514689272 -0.8721047206000496
-11.318344719830801 -9.782786695940286 -0.8779865428376827
-11.287353095970245 -9.697858332783314 -0.8885301136700942
-11.21525420686074 -9.422931323205017 -0.8053215960296954
-11.194042505212177 -9.248416797397368 -0.8216456038631289
-11.182860359557273 -9.210173440084084 -0.8250775390908323
-11.383981459956987 -9.756014260092853 -0.8829504005065218
-11.389320904165084 -9.714093900983155 -0.8886182775159748
-11.330709103727648 -9.601442940261894 -0.9020993962977089
-11.31864725537028 -9.474176284332414 -0.803541411344723
-12.75908663436657 -16.088422216063574 -0.8233167753321551
-12.760985798491463 -16.01230949392971 -0.8180508027114811
-11.497644808280395 -10.005821912409669 -0.8526135573489003
-11.503582709407308 -9.834289257921826 -0.8757316740929462
-11.53971640551382 -9.771345419579982 -0.8852883561576875
-11.453328751267371 -9.442201616871689 -0.8117349811699688
-11.429322103066157 -9.368554470883243 -0.8180905275723498
-12.943742331403184 -16.303927597726084 -0.8546416290054977
-12.900857887166413 -16.184475952985533 -0.8423758867322308
-12.865257109839217 -16.06152682872619 -0.8305528460724867
-12.810884719820846 -16.001740573104286 -0.8215753437978811
-12.82412657370173 -15.939523145232895 -0.8182594258939864
-11.576581711225886 -9.891312342265476 -0.8703989882644537
-11.616467580622146 -9.827601205330042 -0.8804526663818999
-11.609464612544908 -9.763005573364222 -0.8889481741747428
-11.586317739223752 -9.56228222656629 -0.8053111739718303
-11.521439019443385 -9.42699019091611 -0.8160659328516413
-11.535141006809676 -9.356370429851067 -0.8238201119226287
-13.066170646569622 -16.524371520185927 -0.8810089577792106
-13.073962040037198 -16.436823408278507 -0.8754359017762082
-13.054833834208777 -16.412545630482743 -0.8719918446817043
-12.98408976820899 -16.303651498341583 -0.8581078468323109
-11.778206441838003 -9.94566547300957 -0.87117652841522
-11.730546194558826 -9.89887384439111 -0.8754108171917379
-11.703870048246207 -9.84075752821872 -0.8821909934672497
-11.659141314872043 -9.60515168747143 -0.8043803027746047
-11.689019600709937 -9.492332972532038 -0.8173536072650258
-13.121156308320332 -16.581269037901627 -0.8897976120763209
-13.176021303373624 -16.397531555393513 -0.8815175780024915
-13.12643516114512 -16.365823630738685 -0.8749098348980082
-13.085433767876712 -16.281609469419546 -0.8653295536743707
-11.851063190798882 -9.934194122936765 -0.8764032367033932
-11.830620224521262 -9.894809901088594 -0.8807808445345608
-11.763218681684371 -9.663676482096491 -0.8037199391284581
-11.77899068539574 -9.574642411650016 -0.8137044019767644
-11.73915290908572 -9.520431321766395 -0.8171349110666165
-13.2514351416157 -16.523720575162216 -0.8970548682147935
-13.224955203834991 -16.32143437847127 -0.8803542035395572
-13.207947677017279 -16.25781517646714 -0.8743592060148533
-13.013728976510851 -15.096748811938184 -0.8662829453197832
-11.927045947121886 -9.852672734769046 -0.8919538998628433
-11.93301543595007 -9.733958330048594 -0.806285732229106
-11.874396507564787 -9.668341426820568 -0.8095149602443525
-11.854698402150191 -9.609674768136674 -0.814413802968392
-13.331008389635993 -16.39829771736002 -0.8951428918394465
-13.324781898217537 -16.330734299472553 -0.8897795536733439
-13.048727613744626 -15.105214220191865 -0.8706828074013411
-12.101974466647063 -9.99843065943871 -0.8829840896598605
-12.049317069239478 -9.928812655385329 -0.8890859063334648
-11.98885499823723 -9.855335340745565 -0.895329466007837
-11.984749638480361 -9.629789231666432 -0.8204425798580285
-11.99306589895243 -9.585556807806388 -0.8255440447474066
-13.424487202009391 -16.354805547786206 -0.9002943223227389
-12.174206513842972 -10.308927337480466 -0.844941377543229
-12.21269937127616 -10.189461985829908 -0.864692593376334
-12.191178927552789 -10.121092968144564 -0.8725666150109657
-12.15590412597838 -10.018584167220524 -0.884186317932589
-12.170786371530383 -9.83958472584622 -0.8117836250657415
-12.145628967145852 -9.732692086655259 -0.8210175147883169
-12.06753431824323 -9.618825620290174 -0.8272213224230773
-12.30425340170608 -10.069996799491305 -0.8890015236487006
-12.258233855249047 -10.002955239204915 -0.8944456513227628
-12.222055289918446 -9.890496167575476 -0.8104334627313441
-12.223796528719005 -9.810323767923421 -0.8189575592950357
-13.75076203408467 -17.063762038050864 -0.8146581486644985
-12.396222604343885 -10.169117839413698 -0.8835722868802511
-12.336657206019607 -10.117452310501465 -0.8852501758489469
-12.339193385151976 -9.86869004810745 -0.8223745482094658
-12.302619506235413 -9.814537613928987 -0.8249067812805496
-12.49256328555415 -10.235219176595411 -0.8839045686670502
-12.48065495270525 -10.206346516898801 -0.8866605165402881
-12.498245815467891 -10.052971587571346 -0.8177432431558496
-12.465201090939004 -9.948267686305885 -0.8254042947718487
-12.414191810658805 -9.893359730019116 -0.8263996069280649
-13.872813195649428 -16.63709326068181 -0.8078370894960343
-12.613640114960006 -10.217705083624985 -0.899340142128082
-12.5614049992544 -10.163045510755175 -0.8831139565321607
-12.56296617118328 -10.041703126067162 -0.8252508662487932
-12.520741953948267 -9.947011840631149 -0.8308089307655543
-14.059352297090175 -17.04372988746701 -0.837560418918758
-14.076325801055857 -16.98515743208103 -0.8366022350615321
-13.97875708282947 -16.597967615392204 -0.814427247203475
-13.94486991303949 -16.5213614560335 -0.808934849423293
-12.666168544965066 -9.99917758568995 -0.8402493642027032
-12.611745504046212 -9.965847538876204 -0.8379644079481949
-14.165828979724113 -17.165383601202915 -0.8502272685079205
-14.06074989736318 -16.68800937099444 -0.8240502144907412
-12.772116008543897 -10.008660906455098 -0.8508422405947355
-14.248159007740892 -16.723589055334582 -0.8226705236135694
-12.930537551451406 -10.120834625428602 -0.8583657744717527
-12.887889283707484 -10.04286402665241 -0.8608457413946233
-12.84764834794159 -10.022959773193236 -0.8580590215956725
-14.369041101296917 -17.03814704502588 -0.842832490674164
-14.406845787822679 -16.92473319988357 -0.8413063788699172
-14.349532828831705 -16.778981939682197 -0.8318251775302261
-14.341749004632161 -16.75217655151286 -0.8302888534025233
-14.311313827593766 -16.589006503838064 -0.8220690192140423
-13.03536985302681 -10.119325435448504 -0.8717020722272415
-12.978915164496781 -10.084238699296478 -0.867921631430677
-14.468117565988782 -16.79209700440642 -0.8405942184458453
-14.377690310209452 -16.61172295331866 -0.8275442348394417
-13.09935735514751 -10.116654801574136 -0.8803237433901557
-14.55057694661075 -16.733911893700263 -0.8441198740753337
-13.283881202305004 -10.29065465506161 -0.8900698155956581
-13.254397434689785 -10.193920157609345 -0.8944638905583446
-13.208128352970608 -10.103473475534766 -0.8823760572897222
-13.210627095129034 -10.030425841544645 -0.804461186075472
-14.719070672087016 -17.170823638301155 -0.8723011146346255
-14.701984691484203 -17.06581442494137 -0.867128180578395
-14.67761469517777 -16.751251226664 -0.8535330530276949
-14.583004597907312 -16.642921511132997 -0.8429221313703434
-13.417077502362373 -10.470954169212657 -0.894849269363172
-13.381138750980469 -10.360722266612967 -0.8985046287676814
-13.345474806557348 -10.279347015050357 -0.8636627404051648
-13.300499406453891 -10.206932881696613 -0.8254895151590691
-13.260597430014391 -10.120704050523377 -0.8053148727117724
-14.860253326947003 -17.304033277125754 -0.8871076796848052
-14.87943699676187 -17.26520563157998 -0.8869682332604133
-14.734890643277605 -16.812173564088756 -0.8598127557987751
-14.731772022527974 -16.774217519427943 -0.858124717949566
-13.446042174274499 -10.473908069035238 -0.8992134985678503
-13.426713390720362 -10.375503095339537 -0.8732219366050137
-13.43740759966855 -10.287484751061863 -0.8190592500055942
-14.954557488461214 -17.315871974783356 -0.8940694894977418
-14.894100606992119 -17.251918357430682 -0.8874453220050901
-13.56627220276629 -10.403553475817377 -0.8309753179088432
-13.560933351864783 -10.35378704743496 -0.8327535319804276
-13.54556531021056 -10.28334451696536 -0.8341551353381251
-14.99625232970029 -17.166677350638253 -0.8912572088051233
-14.986743872846041 -17.11609623378544 -0.8886435576126122
-14.970603861577683 -17.005230323856487 -0.8833103136890719
-13.783613195836674 -10.793756793455183 -0.8468082150627857
-13.62936018525954 -10.446995036237224 -0.8379929721377724
-13.647894849716838 -10.348192468008119 -0.8454567723631488
-13.590931094502809 -10.24880733204568 -0.8422699249262989
-15.110781606313328 -17.102809683706205 -0.8966139592516978
-13.825748401566479 -10.746362577639008 -0.8552611305645156
-13.805323482218428 -10.600856465509922 -0.8577156080213133
-13.832086454928367 -10.509201111728414 -0.8656300149379746
-13.753017110734373 -10.426703376949774 -0.8572308956016262
-13.73358665188684 -10.362951603860258 -0.857248717803299
-15.161354928942329 -17.112396647216713 -0.9004012379031828
-14.158391704115187 -11.752929490915925 -0.8528181791276446
-14.123054050945237 -11.668131664739573 -0.8551275619772181
-14.141821413767824 -11.588012456792324 -0.8589020335001024
-13.966955306395313 -10.79353312576203 -0.8765383107009674
-13.939775994721082 -10.699179999841304 -0.8753048866181353
-13.901658245093294 -10.584584357832686 -0.8734430635744432
-13.860243893639254 -10.503794115472077 -0.8702353025898096
-13.850147055955444 -10.410049575589417 -0.8726017014128007
-14.252942219365892 -11.823501809140707 -0.8371773892159973
-14.21439683313615 -11.796936527555404 -0.8303422532736647
-14.164940151724808 -11.534028298450693 -0.8541876648313014
-14.178188120157104 -11.481346213575472 -0.8844661130866945
-14.072251277901053 -10.85535244208691 -0.8748175719679346
-14.020070805993262 -10.809691579871926 -0.8847909371258906
-13.982473244580197 -10.659543257282893 -0.8835720396512439
-14.007479449075529 -10.598576124106797 -0.8897771502292574
-14.346091489462175 -11.840034560789316 -0.8525850388062948
-14.148978086182828 -10.88189052079038 -0.8388913955203299
-14.331408893210444 -11.331737700295463 -0.8405231754178182
-14.57164579325163 -11.224590692666759 -0.8763069106896562
-14.488650151126427 -10.726559685704416 -0.8603993849785962
-14.650605951713262 -11.213100685101779 -0.8883793393041155
-14.630717210851744 -11.174620256562118 -0.8848100039080803
-14.531654840657556 -10.668837532459328 -0.8666586520069156
-14.048442347957588 -8.331304709100447 -0.8442489363035212
-14.686992862838741 -11.134253265801455 -0.8930013733502764
-14.739168699848168 -11.046270411651648 -0.9000203805251556
-14.722905590494824 -10.954684250896108 -0.8966283065590932
-14.702085615400708 -10.845200001143708 -0.8926510533138308
-14.68001123368791 -10.751630842794532 -0.8888476764886175
-14.605054936641327 -10.693297573506557 -0.8774890628588492
-14.746556705762687 -10.914422700290938 -0.899901288412809
-14.724684876651684 -10.851690899439475 -0.8960938589952364
-14.715065251521391 -10.71555987313247 -0.8939102791546424
-14.713604981725918 -10.658416081974265 -0.8934683193626758
-14.20695163702583 -8.07556228670234 -0.8686230904914283
-14.920875671632134 -11.071368118406188 -0.8165355513160669
-14.885260049845488 -11.041320982363908 -0.8112205908298364
-15.046941803320646 -10.304180695619518 -0.8114120203222331
-15.059322123059776 -10.09001265067919 -0.808194654741683
-15.259517608659678 -10.753277983681672 -0.8489221410200312
-15.246285134149957 -10.47533229732846 -0.8396446088629574
-15.22111446142428 -10.477309515748 -0.8366520247358371
-15.190547488010317 -10.371764861199052 -0.8302683808940322
-15.370458469385252 -10.686597742370118 -0.860634039506342
-15.302368105853088 -10.516308087632279 -0.8475584006600438
-15.270808208106875 -10.426507654889917 -0.841345784443241
-15.300336126488457 -10.34012255297083 -0.8427020005088001
-17.04352535409587 -18.402239149197275 -0.8109663540334175
-15.472030880751358 -10.703388521218963 -0.8736578236773485
-15.465767222773643 -10.583115958243457 -0.8693861926126731
-15.400475004226367 -10.250533892069265 -0.8525303991356781
-15.356840020063869 -10.100228805712891 -0.8436122680671774
-15.530124094394285 -10.701161513948577 -0.8807562607335139
-15.491615179441524 -10.536094107674195 -0.8712200092949143
-15.547411933903824 -10.47658805381691 -0.876392535177066
-15.432548416588702 -10.192849849430514 -0.8549430837251915
-15.449385072832493 -10.109998676855405 -0.8549380144909464
-15.473197252192925 -10.017592188792324 -0.8555605055818112
-17.234527154567974 -18.544259208789352 -0.8211048271993404
-17.227817449521265 -18.494796070611372 -0.8201688594178579
-15.621375407067717 -10.718863266431251 -0.8925980798714168
-15.578299005681334 -10.415070233804922 -0.8784560446109344
-15.538762557919107 -10.266664176331 -0.8696716221726793
-15.564240767576818 -10.20260743621262 -0.871094001281589
-17.380009994848148 -18.630034485956003 -0.8285023129149425
-17.362479532280638 -18.568548893572512 -0.8269276264093275
-17.309733586999336 -18.446002755098178 -0.8229422047770711
-15.668048940415465 -10.336253864690951 -0.8872657743813135
-15.639275488456898 -10.25627161559499 -0.8816008897232891
-15.605915891646776 -10.13706363743059 -0.874455782646919
-15.613237801853499 -9.821347534053627 -0.8676577191636282
-15.539546508453746 -9.459504668681324 -0.8516020183506982
-15.994766875824206 -11.544195777696862 -0.8289704991291701
-15.73726159688288 -9.870753849830688 -0.8836433132183855
-15.685349956671978 -9.832430974942827 -0.876514616249539
-15.60748449902976 -9.65402700651384 -0.8633058629356523
-15.596446530873193 -9.548175324819947 -0.8599146241789635
-15.594658754784586 -9.441425011838302 -0.857642362604502
-17.540245101060968 -18.622215565311734 -0.8351658092669553
-15.807207475928248 -9.857758425798558 -0.8917204225190711
-15.690881230916087 -9.561172928168258 -0.8711871038321292
-15.676802457521525 -9.39984489023664 -0.8663649245872225
-17.605549672699617 -18.61052117183849 -0.8377143709065412
-16.238974275874032 -11.291988366354332 -0.8393232486157204
-15.884906817691096 -9.778519218920477 -0.8991230139088007
-15.764873470392228 -9.408873061830644 -0.876750157231587
-15.811779194842934 -9.321927230387608 -0.8804502061186643
-16.347694458079417 -11.38402776269313 -0.8541257254444726
-16.30568425707345 -11.333895181268431 -0.8476866393189935
-17.87547177979689 -18.84449520934595 -0.8523802291577678
-17.90413043885941 -18.7472961305551 -0.8521044686879262
-16.378565469465677 -11.390564916921987 -0.8573752613921768
-18.005578099481703 -18.921691091796575 -0.8589262630730099
-16.34346327084362 -10.366047703419982 -0.8042775466574583
-18.135160433339003 -18.949773057978362 -0.8646434285631521
-16.42150067780184 -10.287489220271743 -0.8078196893372479
-18.25026023734014 -19.00459092617918 -0.8701917994940503
-16.50276754547918 -10.280843391526005 -0.8150724499601296
-18.34033148700545 -18.987885782038113 -0.873558441736018
-18.35814590733157 -18.91849326992883 -0.8731188029570169
-18.463249825796417 -18.959418994005542 -0.8779826628764806
-16.664187577070198 -10.234025937230063 -0.8278443336578388
-16.622178499300315 -10.13818894586225 -0.8194195941340917
-16.63283182812026 -9.883995365276062 -0.8085098613976777
-18.54645637788702 -18.956874000473434 -0.8812244240574698
-18.51589050796778 -18.820030264385334 -0.877669649721865
-18.443026648213582 -18.705904138242364 -0.8728749287343928
-16.69153241186134 -9.869234012637186 -0.8132705942779457
-18.599517750412364 -18.94597102405435 -0.8831335849734302
-16.809141894959758 -10.055673289263982 -0.8329097347535497
-16.7853442032456 -9.769552675166093 -0.817314471502595
-16.78589990938404 -9.498699733618658 -0.804836158264565
-18.76117431095039 -18.96909556087541 -0.889793974860968
-17.072768971637622 -9.558178499501452 -0.8340680043289197
-21.11226183049331 -14.656537265514153 -0.837871064015936
-21.139821267067127 -14.580780319612321 -0.8354308802490755
-19.199952202305703 -4.734082433569945 -0.8166630933236605
-21.299091616389923 -14.582463531338755 -0.8395081325377927
-21.313814854004995 -14.552497022944316 -0.838676444902117
-21.878750634860776 -15.4064813446973 -0.8880556504181405
-22.062332685291974 -14.535046026244993 -0.8568832937796629
-22.068948380409957 -14.501419124818678 -0.8556582117947515
-23.380007533947705 -6.759928371068776 -0.84389392932127
-23.41264749470379 -6.792606395743005 -0.848030048794439
-23.705613000748073 -5.9141292072652005 -0.8101639791320236
-23.81291104821436 -6.044216435207438 -0.8251494469998698
-23.786884264558765 -5.949397717123721 -0.8174577696671516
-23.738143297357155 -5.842689315248123 -0.8075505285575463
-23.97143399700375 -6.034991245628837 -0.8343696509941159
-24.190720799297452 -6.230570230929594 -0.8603986551023659
-24.147358616815207 -6.0982948634465695 -0.8493628073039866
-24.216295670794633 -6.27064000177694 -0.8645766578963435
-24.193417500311895 -6.17577334124622 -0.8571378514367448
-24.21793270546089 -6.111332895481016 -0.8545042287173054
-24.207115708946343 -5.98431665075218 -0.8457728530376063
-26.650901668862026 -13.148400724000522 -0.9035254763591606
-26.56260524865465 -11.997929560702223 -0.8391617874826627
-26.860730699398545 -11.526906744925014 -0.8196721394346218
-26.837108051427837 -11.478539722336349 -0.8161987732417662
-26.918594771229422 -11.318506208552867 -0.8089502679138507
-27.34175541573194 -12.490489084316494 -0.8853318632865492
-27.072514558541673 -11.409590938174475 -0.8180533453084881
-27.12428889098303 -11.193449646168606 -0.8066425696504926
-27.775361180355084 -12.001302740139113 -0.8690197803810389
-30.304056293201192 -9.969209581987336 -0.81123051698355
2.9133159365535732 -22.210336556407754 -0.7852067811670487
2.6871134741545077 -21.96193678458065 -0.772961627776631
2.6916619135816138 -21.715767805744107 -0.7532595426484138
2.6443857110805986 -21.61272409667378 -0.746706303368519
2.525656721714837 -21.722105771303685 -0.7592798547412952
2.6147343025456955 -21.522674223198273 -0.7405675437774899
-4.47021699531556 -9.954240366982454 -0.7942036810575395
-6.132378103885769 -17.391934925649974 -0.7065662356197402
-4.603608366167424 -10.058853788908717 -0.790236183756142
-4.60670089925344 -10.03076104833885 -0.7897769559198677
-4.7743559840375065 -10.172749545630861 -0.7849761726943046
-4.939229680934104 -10.366577324573031 -0.781107328461043
-4.953355340533125 -10.246253720909298 -0.7789116246304465
-4.856512091245385 -9.502982976141155 -0.7766708465519324
-4.789951208414042 -9.44481137660258 -0.778848927895712
-4.793728308170735 -9.354852425484506 -0.7785456688748742
-4.804835005096177 -9.223313222601941 -0.7780605715781156
-4.742109796847501 -9.05219381595059 -0.7803573727220681
-5.126804249518389 -10.316862110109142 -0.7730070348370001
-4.833385936955188 -9.235606010873495 -0.7770957993353877
-4.83792668512926 -9.16122540207484 -0.7769712699463456
-5.1626360091619095 -10.463196213953802 -0.773662149423826
-5.145520125234383 -10.376492326513425 -0.7730730143882723
-4.906341846003855 -9.05284850070793 -0.7749229555697723
-4.917025410944586 -8.820459026740249 -0.7755711728616856
-4.9089397232978484 -8.720076037054683 -0.7764669746890087
-5.335377841764101 -10.554988638847249 -0.7681652528668396
-5.286651575610698 -10.44761453144714 -0.7685014367147498
-4.986563372313954 -8.810521555333802 -0.7734650601341231
-5.156258148995831 -9.099723223499886 -0.7666183422637894
-5.1235440444345794 -8.973897172738132 -0.7682306858833254
-5.6316777083585565 -10.971612290678957 -0.7637313877382794
-5.206136461535167 -9.06277126675457 -0.7651745649371585
-5.704712923206673 -11.026365867782744 -0.7618757629840232
-5.6949131817646 -10.699488076557245 -0.756034293430364
-5.862072385504687 -11.00617899322626 -0.7549022530665515
-6.327634382632886 -12.804645920754012 -0.8012800551814004
-6.237056531569448 -12.703530834286958 -0.79993154022458
-6.290184537452997 -12.641452949749581 -0.794280651003657
-6.24713660169984 -12.353102630466752 -0.7822179937279812
-6.03052122945926 -11.386953221479125 -0.7568790694901038
-6.004548498189559 -11.246777566462196 -0.7543695742000428
-5.9481501277126725 -10.960611446144082 -0.7504260111834883
-5.947220576125564 -10.87925858215229 -0.7489192150597798
-5.51845944965239 -8.896409455425514 -0.7566062103560668
-6.391536404398865 -12.771254195554636 -0.7965772154241633
-6.391227761634796 -12.721040211118973 -0.7938867488685368
-6.169608274505484 -11.43620331683842 -0.7522629573745935
-6.117594777529657 -11.323630727216733 -0.7515059639421193
-5.998916645394187 -10.835671797861979 -0.7460515486104163
-7.092768986993038 -15.62327554853428 -0.8030224846047685
-6.447644328196724 -12.739739903255268 -0.7923471773174433
-6.45193946730145 -12.62102972783371 -0.7859312084303631
-6.284451095533025 -11.586093322114216 -0.7516079846880497
-6.204106635590185 -11.312979664514666 -0.7475769857384017
-6.183086954524485 -11.206467376231968 -0.745888660099666
-7.105038689756246 -15.592947131826186 -0.8001449928104661
-6.604101785009351 -12.96986632743268 -0.7982301573396315
-6.594505095604452 -12.911913149181233 -0.7952825556766802
-6.576311282617737 -12.67953306033746 -0.7833308596371589
-6.601768142225023 -12.582235876135437 -0.7771926835625664
-6.416149943990395 -11.671023701195194 -0.748465878522778
-6.346401217067669 -11.534057311180096 -0.7473862427750269
-6.258464038780416 -11.238208958805107 -0.7434565306943359
-5.888398501170487 -9.215731050377862 -0.7428927187962485
-5.915592188129624 -9.173964096436539 -0.742381570137095
-6.761217050018821 -12.922254417798756 -0.7883864062591579
-6.748130410131737 -12.86607131400211 -0.7857486422932936
-6.6647889907670965 -12.486653951850816 -0.7696292936116936
-6.559027483924075 -11.853515149469427 -0.74820273805516
-6.526189415098505 -11.798941856544172 -0.7477958274886585
-6.515599910540676 -11.70763707643025 -0.7452851686339431
-6.424428223358618 -11.445553757050787 -0.7415898029429001
-5.932134237825546 -9.210568277354454 -0.7416086699358085
-5.928721708942588 -9.154283471784098 -0.7421575432611742
-5.801450136993876 -8.224132873398666 -0.7573329420002453
-6.9374408637620375 -13.27979887113243 -0.8027359427388416
-6.855924632867619 -13.205382257947685 -0.8014760965460679
-6.727888015720603 -12.545180275212534 -0.7696444149369378
-6.706224975642115 -12.124438940620006 -0.7517840753953391
-6.59221148916776 -11.996257460830721 -0.7518931361212874
-5.972542117306555 -8.560507751724252 -0.7478419111463155
-5.990587901187219 -8.509988716660846 -0.7481275163437209
-6.98659775096319 -13.285762988947448 -0.8009622173533574
-6.947570408139783 -13.232296455257286 -0.7991551987248201
-6.86420609004128 -12.824422565192334 -0.7781722871274483
-6.704193338975723 -11.8539151959443 -0.7418262425979038
-6.6873300904646875 -11.774276764463053 -0.7399106831720786
-5.909654725507845 -7.885661649614899 -0.7609151364639847
-7.00529811203699 -12.603104793997765 -0.7600012673347878
-6.848573437308004 -12.071765260030526 -0.7433482692009502
-6.779912162488903 -11.921864586081279 -0.7408397786563989
-7.054103003099982 -12.335659719751394 -0.7450824511028213
-7.016932419793572 -12.224984868306892 -0.7419829547692537
-6.983524745840881 -12.003294590715264 -0.7347667981627396
-6.051455523598218 -7.492300408946942 -0.7668462462639499
-7.361906528504153 -13.492028388089327 -0.7989383586226685
-7.120975461629941 -12.357897073834986 -0.7430532489221217
-7.023903644716149 -12.117020000900766 -0.7372924493370488
-6.099861480845679 -7.496804787327521 -0.7659345180893854
-7.2404800419506685 -12.483578838689168 -0.7434917204980305
-7.242515310237181 -12.294651564306534 -0.7348004388965657
-7.215343888817565 -12.26637045902853 -0.7348178372069698
-7.115996336090679 -11.839912505170838 -0.7232514954542943
-7.506477908707939 -13.109760791601442 -0.7664148252184133
-7.327754097428927 -12.385907436245615 -0.7350069606669252
-7.354230074139848 -12.335484854052591 -0.7315545547865244
-7.275919378153534 -12.193243767909015 -0.729057344774723
-7.272897267958487 -12.158537024656205 -0.7277994531541855
-7.169836595802975 -11.768122528270695 -0.7186323002493242
-7.81372976024249 -13.687409582628291 -0.7945301295792163
-8.126651601933311 -14.759654631334314 -0.7229780094490648
-8.072434924739833 -14.608838241788124 -0.7092863354584114
-7.883884690499873 -13.638198005190585 -0.7876967088914819
-7.615905459838938 -12.430420008149989 -0.7240488180512179
-7.576716052477967 -12.024953210289825 -0.709264700868569
-8.252527150466216 -14.798779643223119 -0.7267278033750219
-8.193066323034472 -14.689818436481369 -0.7165664070793157
-8.154148466598414 -14.604388863570312 -0.7088124853022731
-7.9536173736862175 -13.637527701562604 -0.7847190977346434
-8.268118493460673 -14.746332781985421 -0.7218319882593982
-8.246814473526056 -14.627066921000273 -0.7108135004557138
-8.311809161822069 -14.560870073092659 -0.704768147148076
-6.902951444158844 -7.716034678846246 -0.7466847638480034
-6.863076098320394 -7.644348965222184 -0.7493022968437456
-8.357882986461178 -14.55452106040769 -0.7041756030397531
-8.26830725760976 -13.856082141979956 -0.7901547728030156
-7.0443550106230495 -7.881105232640029 -0.7396652745296293
-7.03178128997068 -7.768385944071427 -0.7432881662636046
-7.3525285127761135 -9.03903842801718 -0.7054694187311773
-7.186274045757694 -7.8493729438027335 -0.7387029099982698
-7.056135427560223 -7.6557988235300165 -0.746430728607178
-7.215290005833323 -7.810417307177517 -0.7394546461539899
-7.259470640856002 -7.770726535370151 -0.740202136449977
-7.410267016593426 -7.871215350303679 -0.7351995420522349
-7.417765804399721 -7.811832992123257 -0.7370142494556639
-7.4204703637863405 -7.748277470148529 -0.7391624701616317
-8.99248799771804 -14.954825014276258 -0.7452520884599347
-7.608540237956859 -7.90821135526094 -0.731713584214184
-7.641564957176796 -7.909639504193216 -0.7314154670691649
-8.939163864096663 -13.62098106965716 -0.7430585092996899
-8.428307370524024 -11.161941033832427 -0.7963762259766843
-8.42559931647811 -11.069547336073295 -0.7972027416660867
-7.743849579718178 -7.966551086664375 -0.7284222554728588
-7.748839221004443 -7.873706212041664 -0.7316475479334512
-8.980819970192181 -13.620439114426167 -0.741361565300025
-8.479685510501634 -11.1294178954468 -0.7930071735753642
-7.847980551452234 -8.027445749995053 -0.7252947784726903
-7.878926825279437 -7.965600208444853 -0.7273105991069962
-7.8418374006571705 -7.7265005951803465 -0.7363445600303067
-7.9074023412833 -7.682198950184044 -0.73767925114737
-8.186870614375323 -8.268869535380912 -0.7138127998262629
-8.033260725563874 -7.742611972004203 -0.7347585724746709
-8.048529810269148 -7.726942370905601 -0.735228998452425
-8.282491813869445 -8.34394516508976 -0.7104182941234491
-8.10507524426093 -7.7433658442789195 -0.7344008499021266
-8.167507120835452 -7.698142881352622 -0.7360853927977277
-9.666441788470486 -14.870409879447697 -0.7430726894934575
-8.826490128081872 -10.560472923040747 -0.7818330543317107
-8.39886485640952 -8.411048311231724 -0.7071121117082464
-8.316424390893065 -8.350812914333186 -0.7098436814668561
-8.250134008796575 -7.815298143544878 -0.7310548894729489
-8.264796557723827 -7.728614856488303 -0.7345963436689901
-9.763017661110192 -14.682197681085693 -0.7235426900122032
-8.851437163260488 -10.53498884186212 -0.7812030269176783
-8.876588591884369 -10.51087797673941 -0.7805482694785782
-8.41118340355961 -8.028221524622122 -0.7218905224485749
-8.328241009411036 -7.755969048929349 -0.7334053713862557
-9.806583345620947 -14.695184187287916 -0.7255034862351646
-8.923328148078713 -10.049177331616336 -0.7953471504093085
-8.469422747457717 -7.901629675342003 -0.7270435070410021
-8.39997725048666 -7.780822917838656 -0.7322899553004273
-8.411531622021272 -7.709225174686092 -0.7353234101718774
-9.953186288332827 -14.644919475767995 -0.7218543578012833
-8.990398547891688 -10.048888521810797 -0.7921405826800372
-8.96255376160018 -9.980874881305908 -0.7965573008473803
-8.57754848521959 -7.770792121876684 -0.7327628485231888
-10.06074132207121 -14.752541721209507 -0.735688218444458
-10.020651262647792 -14.651629623199208 -0.7235708219698814
-10.039540525010548 -14.527070784590292 -0.70991016293633
-9.94478866559245 -14.22882333364453 -0.7744672999644968
-8.639266738574053 -7.9219226734448815 -0.7261930589691676
-8.63398604253155 -7.880895623610534 -0.72806780719564
-10.150417842020651 -14.692667420324604 -0.7303468036643576
-10.088798272985587 -14.64598416366906 -0.723968088433896
-9.271037884645079 -10.165176103399382 -0.7737555694412666
-8.842654236827341 -8.094306556944716 -0.7189863161949291
-8.780472334979674 -7.958881681595092 -0.7248650288251515
-10.310952164152512 -14.863345531062272 -0.7537132322485988
-10.275751013683863 -14.778644319924238 -0.7428085058303998
-10.250280151887683 -14.693967987967849 -0.7323132745204973
-9.33931479115951 -10.163372113466139 -0.7707683620149424
-8.988607957971041 -8.195478343575932 -0.7147560294190284
-8.972361077003495 -8.108686217189774 -0.7186510860364388
-8.82873279132438 -7.87240791331095 -0.7290038139846203
-10.37529279557287 -14.943736892661228 -0.7650271310030204
-10.370946885050078 -14.880600610950339 -0.7572168327864109
-9.380883301407252 -10.130699759309834 -0.7705774915281155
-9.38255858886047 -10.089287193519375 -0.7726107884414505
-9.008241573131253 -8.19121647630004 -0.7150857183444111
-10.492997305506744 -14.95665068791295 -0.769759243802521
-10.501035852652578 -14.839853728160097 -0.7555080259668286
-9.145169766821207 -8.1067490596527 -0.71967037697486
-10.66072143486415 -15.142751584375866 -0.7985584220924247
-10.625051039621608 -14.975340034451058 -0.7760064695856725
-10.57406565856368 -14.945974832208913 -0.7707672390887457
-10.544704407761357 -14.826723398560423 -0.7550630579753832
-9.272863079617492 -8.468974107662046 -0.7033184720856929
-9.312146140618522 -8.275162787762955 -0.7127092083508229
-9.257571630427634 -8.17597805567586 -0.717137561521854
-9.216428823742646 -8.096509456279733 -0.7206980641217671
-10.706530882532059 -14.979766393127333 -0.7791911132854042
-10.670172849691044 -14.934674536326733 -0.7722707536514845
-10.858109678987836 -15.042085690214716 -0.7926107524212339
-10.811616725424742 -14.98906427952514 -0.7839980084787259
-9.673439930813217 -9.456150921458955 -0.8017182090775202
-9.526845025369163 -8.4763140171973 -0.7046367024557932
-9.464835787148765 -8.411717866337789 -0.7073403760808302
-10.940140048792259 -15.046188033982663 -0.7786636039662655
-10.903025466083221 -14.915081536859631 -0.7777188772228284
-10.89109463299988 -14.898437210990984 -0.7751049754918742
-11.10982030366226 -15.393288675310826 -0.7454290760106446
-11.060833261080013 -15.36286564881593 -0.7393048898361286
-11.077318007807207 -15.246870861815458 -0.7283871004250927
-11.049474657199019 -15.142107159424217 -0.716024982758609
-10.981065462346974 -15.063952390423111 -0.8003339964153964
-11.373805807674001 -16.15087906159588 -0.7147166304933911
-11.356526816315903 -16.141656160526516 -0.7127006548843238
-11.294904330399474 -15.729378178322595 -0.792341669433124
-11.22861466407009 -15.609096539438859 -0.7753533697065379
-11.258694006315343 -15.551750546557532 -0.7713592078847151
-11.189267809065068 -15.277047482785578 -0.7383607883397154
-11.179579339697103 -15.23078167749187 -0.7329949456557111
-11.183537481206667 -15.131759682928607 -0.7230193001403558
-11.412385829794804 -16.09417950570013 -0.713671566835687
-11.455962421767298 -15.984226228182052 -0.7092361152748842
-11.349044637707788 -15.745485998124677 -0.7976779875048146
-11.375587739490875 -15.719189887229014 -0.7966941974221811
-11.264817230955575 -15.465743500118574 -0.762784894072771
-11.309294905385949 -15.411809589148552 -0.7600511592653137
-11.262014788457938 -15.28733541071583 -0.7440228813332217
-11.242766742545662 -15.228194223647666 -0.7366746467356448
-11.502111153273894 -15.998186377157538 -0.7138329803646956
-11.495678735014222 -15.860015825103867 -0.7034297577540051
-11.439235078841204 -15.731519548212805 -0.8023674345680917
-11.447062733350402 -15.699791518233784 -0.799567970257863
-11.377538773705586 -15.379005908544652 -0.7611058479960509
-11.529909691994705 -15.656278166609452 -0.8007669738772962
-10.19982066872032 -8.677883324580813 -0.7034861627809703
-11.644808902970597 -15.570781946739881 -0.7998986652608661
-11.63255627449161 -15.355243561647676 -0.7761420039430939
-10.242660643021424 -8.67890581053583 -0.704327978095734
-11.722669139819171 -15.499004292496997 -0.797920140387659
-11.70589344967845 -15.382464127931499 -0.784305041925639
-11.66945992772345 -15.340264486371662 -0.7771873320673812
-10.356711021219475 -8.654727327949736 -0.7082227522909204
-10.362792383090568 -8.559014286096044 -0.7138608195764994
-11.860196017790129 -15.477475009102081 -0.7048414764548597
-10.428312625747198 -8.53648677116573 -0.7168630282300621
-12.041286276887577 -16.19371109831432 -0.7709276548436279
-11.941051679235276 -15.63732166476925 -0.7228259155383996
-11.96063782720165 -15.561804873481904 -0.718959677322837
-11.931798317197428 -15.466111934558901 -0.7097705984056725
-11.94454435412138 -15.391227273854268 -0.8031321804499687
-10.577567818347353 -8.626186905992055 -0.7156843626184863
-10.520795911011 -8.55295458393865 -0.7184414279232925
-12.083063193890231 -15.905812702744605 -0.7536296637609302
-12.047364586039942 -15.830419737461636 -0.7452790697806103
-12.019047683603539 -15.571285212842952 -0.7243818363687378
-10.611075920422874 -8.601418525500032 -0.7182027805684776
-10.613158902629927 -8.524902585007071 -0.7228454789544974
-12.134129446303143 -15.490129675964283 -0.7279157889837277
-12.157421169858875 -15.459165479456292 -0.7276231806096188
-10.807901385282493 -8.919749445645724 -0.7049909980024186
-10.808106827756554 -8.867244180663034 -0.7082484874275448
-10.799770984149564 -8.797262709421442 -0.7122491713149636
-10.80356516451046 -8.658800911352097 -0.7209112141638616
-12.282678073030649 -15.91152611241733 -0.7704658932229564
-12.313305336859889 -15.798208616981384 -0.7648902308938437
-12.271631614850586 -15.710162911960744 -0.7550790511942574
-12.209090279322558 -15.433744275936247 -0.7300411677921848
-10.897252597067139 -8.713570497056194 -0.7208178034600425
-10.839325966854432 -8.653209005697631 -0.7224993584962378
-12.408616684230786 -15.733478870708714 -0.768193979917052
-12.39234068134307 -15.688004359322633 -0.7635374311548843
-12.342865458855197 -15.597865741095209 -0.7529353141534888
-11.039599932749178 -8.903258888123027 -0.7142948828110312
-11.012315050768574 -8.797944785459922 -0.7198961588272816
-10.957002861882259 -8.712588940331532 -0.7231193317849196
-12.525855666887622 -16.074075390639003 -0.8025146571090869
-12.506379116509054 -15.99175432219533 -0.7949207706620285
-12.532140541068852 -15.831503985596298 -0.7856083170388809
-12.448491945439491 -15.692917291097071 -0.7686122669421209
-11.291741148758895 -9.50235399022389 -0.7999466295273082
-11.13300544389137 -8.887627827707904 -0.7190397144148717
-11.095288071388225 -8.812529862696637 -0.7222771531064988
-12.618137622520706 -15.933526546537914 -0.8002346820666824
-12.594356365174871 -15.812258403766574 -0.7894916920789062
-12.6111864697551 -15.78695777176705 -0.7891055090319969
-11.40879969545773 -9.642735451320645 -0.7900685006242367
-11.346149625931398 -9.574660139420274 -0.7946164518684862
-11.190994658949185 -8.88067480797231 -0.7219647387778811
-11.219126186542077 -8.754598484187676 -0.7313842715730162
-11.199461777579991 -8.723160041186013 -0.7325501038413954
-12.798493654516951 -16.410002737095777 -0.7155156144789087
-12.767023850320042 -16.289505699288107 -0.7084992795206381
-12.810958646115315 -16.094132057910087 -0.704796207209434
-12.680799075874784 -15.806168818780161 -0.7964394678042291
-12.656985633138573 -15.759299418191357 -0.7910273047173052
-11.435330858956997 -9.618249394912906 -0.7934449222824699
-11.351160052254071 -8.924445491341931 -0.7264598042469048
-11.274050902487616 -8.79744651995458 -0.7311221995199187
-12.913203511347858 -16.271972029630845 -0.7195403256324716
-12.851651870217628 -16.220839374224727 -0.7127504783336301
-11.53214656218337 -9.244575093379199 -0.7142889220377489
-11.45334019241013 -9.097324800096203 -0.720039879879506
-11.470232676652733 -9.013235978703158 -0.7265207053559015
-11.418678588089158 -8.929243386477063 -0.7294789383279766
-12.992664684406265 -16.242780687449162 -0.7247611795446749
-12.997418055566545 -16.206880723563565 -0.7238049664804517
-11.679768925153306 -9.662201075684365 -0.7995835014341117
-11.65880926067996 -9.62404640280252 -0.8024276323188335
