ply
format ascii 1.0
element vertex 841
property float x
property float y
property float z
end_header
38.6432414652313 -211.38974552350223 -5.085467592531064
38.627900972766966 -211.2814168187088 -5.0838368455944964
40.13310397212379 -204.43488193048313 -5.056050619701463
37.505126510417305 -216.42832648061528 -5.03649693737189
37.701602778110505 -215.48983143716822 -5.078674674885123
37.71920702839144 -215.27870303246507 -5.058859602811528
37.87254478609981 -214.38031339441991 -5.040464724209276
37.93526761316071 -214.2966113976225 -5.04628111120419
37.93296487847154 -214.22183159191465 -5.08221165009115
39.69197701971995 -205.74233777963715 -5.013432424057478
39.7467765338719 -205.68789773831054 -5.013145596144071
40.10898183717829 -204.01731310878648 -5.078742082324055
40.118474217972214 -203.74631301446144 -5.092183097409307
36.628640410697116 -219.64660346373702 -5.02965512584224
37.22585069438883 -217.1350785982098 -5.099962454115276
37.40359242006819 -215.95196543975263 -5.021097841023575
37.598498475414786 -215.43118526939904 -5.085096044980829
37.719800816523545 -214.58200642069892 -5.084010068538536
37.86016554883961 -214.1990519576958 -5.090921249549213
38.40459990336785 -211.32859490975653 -5.09880139446403
39.23460241924543 -207.80456560585867 -5.1026335912381535
39.630597137617926 -205.74855002102373 -5.016511800082451
40.06779174569489 -203.88455875586166 -5.0878348305170285
36.553917131304395 -219.6324615574101 -5.035222433801452
37.35490721604292 -216.10026999061088 -5.033384686811779
37.4662708161943 -215.2682723891556 -5.087209384289428
37.502570157546344 -215.24231861159095 -5.080832419436338
37.65541940096607 -214.6724619030202 -5.1030023107951115
37.68572984775393 -214.5713008639331 -5.087719198964792
37.670542397309596 -214.34923917810943 -5.0667434993991645
37.732164357848816 -214.27125450681072 -5.049353128573784
37.78889303471798 -213.93469957341244 -5.069065769385429
38.64476802427882 -209.9757042371135 -5.042497747481933
39.5166198985251 -205.8216861061144 -5.019130432307693
36.48371111477788 -219.52521464492557 -5.038547920731819
36.551619236864894 -219.439619822368 -5.031456443345941
37.56904192025419 -214.432598082304 -5.0907451931216885
37.64458965411723 -214.18768284244888 -5.05467533004311
37.623609406075815 -214.02920100608745 -5.043119393630614
38.52598059914833 -210.11370008243372 -5.033773834564173
39.41164416347971 -205.82210222251027 -5.025008177453579
36.327905855203795 -219.69895610219325 -5.054553658204606
36.419559399590646 -219.59290357949814 -5.044975922741662
37.50463692626798 -214.4981302431562 -5.107315475015712
37.50534475598738 -214.29406661191325 -5.087317705115485
37.622485679429246 -213.8843258798917 -5.095106801735297
39.3077493477884 -205.8124516135968 -5.0313683271113705
36.27500453883273 -219.69196894372385 -5.058568377809322
39.213867431493156 -205.81328552150657 -5.0366245587380565
36.95509263978976 -215.95775112647348 -5.067114958975354
37.39598455410386 -213.82272630902636 -5.066370502307932
37.43365367900551 -213.7648437364248 -5.055143971536677
37.43435209715975 -213.69889829476526 -5.050409221296186
37.52210736198124 -213.4613374675587 -5.075993509799847
39.12375942232048 -205.74164051486906 -5.045419879933431
37.33703020481985 -213.70710026813856 -5.069522362650018
37.32433438193216 -213.6638694053229 -5.069318337265283
37.34008754879626 -213.54155136101954 -5.064166550377599
37.33412115800177 -213.47767703279416 -5.05671312701781
39.042692678957785 -205.63402733263928 -5.055575241821832
37.216834883506756 -213.4990711464946 -5.0144943786941365
37.29806538466931 -213.46043230045652 -5.06313772736093
38.20123270900723 -209.10513608634253 -5.052187160056114
38.98404768292427 -205.57454464462614 -5.062000593444541
38.9425336955377 -205.03083103862176 -5.092329182483345
36.67577496900218 -215.15878138288318 -5.064776486983555
38.813299517861736 -205.35863394663568 -5.082834917437433
37.83278714696392 -209.23993668360714 -5.066298840447827
37.76999929510252 -209.2434459085037 -5.0705260414522355
38.488479843785235 -205.30089944897028 -5.104574413916183
36.31855978702398 -209.57058424322565 -5.021783667469217
36.14104408669166 -209.59881162931308 -5.032042126912733
31.15166827384948 -230.78973062339634 -5.005124986622079
32.167859976547994 -225.3381871112039 -5.006742770703003
30.908276827613967 -231.0075564130176 -5.019200037088998
32.02581237983361 -225.39422381066603 -5.016079121425141
32.10016980102293 -225.35904541085202 -5.011010376735476
31.96706108232724 -225.39680028728125 -5.019967904416269
39.26159679498624 -189.02266469829326 -5.070755298715083
39.19196777263168 -188.38174573866505 -5.085404912905778
39.11320785914112 -188.02490427583277 -5.095637680215603
38.69855010678066 -189.18062610197765 -5.1005132804851305
39.03569734122088 -187.43442992249945 -5.1099054339822985
37.95154943491488 -192.12897460557113 -5.094300209467248
38.950314330981456 -187.3640734594644 -5.115803439390773
37.8160751989209 -192.24779552489267 -5.099943643955387
37.878718613929934 -192.06844411583523 -5.099488605425187
36.06150958317736 -199.35869747602564 -5.077874870968882
36.10413726599855 -199.331318335102 -5.076148597513988
32.863925070570836 -210.448243452341 -5.019966451663251
32.89820219761224 -210.34398683600924 -5.0198105569627955
32.91918993276105 -210.2476588618406 -5.020136192551039
32.94994599005416 -210.1544308592564 -5.019927393494855
32.98041270985122 -210.07240552974153 -5.019557839563416
33.05052561964254 -209.8535217439472 -5.01898838577055
33.07399441302708 -209.80240915494466 -5.0184904136918655
33.11098997899876 -209.3722291922694 -5.01299868014193
33.157598858401386 -209.29043686877378 -5.013570164898393
33.595840086738484 -207.09237036027554 -5.051673763304111
33.592943308543134 -207.0316195472291 -5.053176977285533
32.755686852834884 -210.46715400141028 -5.024779256584899
32.826199068035855 -210.37587550645964 -5.022737992720631
32.929333185711755 -209.9308600104991 -5.023781898218411
32.91137648060237 -209.85044881700773 -5.025637010661195
33.09173418645546 -209.18460134428855 -5.018963255789922
33.271061678055744 -208.36625864793214 -5.0339931300592
33.26545413322009 -208.28583211777888 -5.036267924177475
33.479455730011296 -207.19852290001592 -5.054037742446763
33.52498090715349 -207.1127073064148 -5.05413623359012
33.541011025686124 -206.93782341359565 -5.0574490922496445
33.177782207057874 -208.37177683932373 -5.037469669295797
33.19413799289277 -208.1691901510962 -5.042008403152858
33.18663654235824 -208.0667961676193 -5.044881869552147
33.17586583044896 -207.9773564039167 -5.04755474646113
33.39547193460143 -207.22566939750254 -5.05684863623106
33.51237873287128 -206.86873877239134 -5.060205122263045
32.57130038223856 -210.45077220128957 -5.03363845396119
32.553930185647545 -210.42107028620333 -5.0348533405045135
33.16397158913198 -207.9351242309159 -5.049057154355222
33.12597676598712 -207.83778128631076 -5.0529850390002515
33.282209237381444 -207.24299159939648 -5.061058962780937
33.32456062743807 -207.2124336771895 -5.060056908937559
32.41264451840228 -210.7365364288047 -5.036769777406635
32.43028251035615 -210.65714024946428 -5.037160279156723
32.44027777319688 -210.589717706797 -5.037704746607746
32.51585479201472 -210.46848685465753 -5.03596186381214
32.58461053606294 -209.83983787797834 -5.041264402004558
32.72527664131215 -209.24641513434264 -5.030801185416573
32.80579660959351 -208.88706909400696 -5.037900444197898
32.79231460069064 -208.83480864065257 -5.039826933262152
32.8953420944519 -208.54818544300008 -5.043676572428591
33.16162629958443 -207.31164410384665 -5.0643184273208215
33.19597151570691 -207.27092045974274 -5.06390266535687
32.32583220868581 -210.77106762595736 -5.0402728615034285
32.400930985313884 -210.51492830999925 -5.04063606788324
32.39778203020344 -210.4661376545069 -5.041497541855912
32.698421909622176 -209.20395367539967 -5.033033018180934
32.74729593048303 -208.9507511691623 -5.038339218321277
32.73665912412017 -208.9006740471953 -5.040109491358386
32.73460217308681 -208.7687055552774 -5.043832315303422
32.71776637333131 -208.7280239731825 -5.045547330601239
32.82546374997238 -208.18976117505082 -5.055772642850196
33.07339015774551 -207.32132826522547 -5.067648727011146
32.29966549901095 -210.45793812540478 -5.046220787284098
32.76447304794016 -208.42797267917595 -5.051883699500807
32.75078950470542 -208.23156411649143 -5.057581154538922
32.79718200979235 -208.21675392249446 -5.056171058908132
32.689307103366154 -208.0577945116735 -5.064466677724513
32.56137113137742 -208.19148412656432 -5.065865770382092
32.575670799758576 -208.15381449874695 -5.066324608541313
32.43276545241998 -208.2160315935881 -5.070137010562676
31.91944890742873 -210.38784478196933 -5.0649874882713695
32.341387592026415 -208.28467798826748 -5.0717777798666415
32.39066080876326 -208.10437786873084 -5.074716508140021
30.006841668214918 -214.23645492485807 -5.06016492141719
30.018091297540604 -214.18738394235226 -5.06108508986487
29.86864339121479 -214.40461970224325 -5.061192903024051
29.94659806418737 -214.32540037630307 -5.060187926352045
30.00730172608157 -214.1267892722629 -5.06350998295481
29.97950116825992 -214.0530612417535 -5.066971419311191
29.769542316229543 -214.45865185204045 -5.064176993656898
29.93700399203257 -213.9971964688498 -5.070575174276829
29.90013962098211 -213.9555781625311 -5.0734200667587
29.857956703296455 -213.93081415407815 -5.076200762869795
29.748539741367416 -213.91494417969116 -5.081487404544566
13.740863340291323 -209.31992819997495 -5.0324603084361765
13.64518740723419 -209.21888293557961 -5.035506943888746
13.888973445706895 -207.85500879510533 -5.052776890840775
13.93350236365372 -207.77121249269422 -5.053214275508834
13.59731280978766 -209.1251560031383 -5.037383999514173
13.718130254752328 -207.90917046272142 -5.054273943799688
13.142154205895864 -208.34677028632026 -5.055022617097608
12.12145940965782 -208.65021361129328 -5.061407117267524
12.141220788423666 -208.46495565026257 -5.064227131027252
11.8987851079026 -208.70878671526938 -5.062531048650122
11.986200698018433 -208.34281367478846 -5.067584279492186
12.258077395290762 -180.25499867919154 -5.079207263002878
12.384650177440822 -179.72386509800563 -5.073625440781611
12.114301672327851 -180.30635577761413 -5.082379576464308
11.089703980297163 -175.31857280216752 -5.0735838660773585
10.904270729392543 -174.80863907889483 -5.07415767711248
11.303665810902121 -171.35413355060726 -5.036739708192724
1.8709734644958615 -214.77769864243456 -5.020707088588674
1.8395796102002038 -214.65018566839342 -5.02425591485108
1.8067953221735849 -214.52633907347206 -5.028677142423331
1.7805123136201004 -214.27740705241249 -5.036115948078773
10.828219840251936 -172.16176602063365 -5.055419351629425
1.7284967208750288 -214.40402538129686 -5.0325108481744305
1.7425890051409851 -214.1431328201349 -5.039795237456494
1.7632575847360314 -214.0113337851865 -5.043768536794759
1.6647866879272115 -213.8919049734602 -5.047635784126951
1.5727231463919153 -213.77340909347407 -5.052361087520678
1.5382997568068006 -211.97839639854493 -5.099677612834595
1.2865027482815634 -212.10475319987876 -5.098626242739371
43.2281652518815 -232.41731144339275 -4.956246642072779
43.092698104570125 -232.45279910956026 -4.963286984752066
42.93109413283922 -233.0720238155862 -4.984942506829841
42.976430681041336 -232.5813522089368 -4.971608246128331
43.011423860160775 -232.4024790882841 -4.9659543257598315
42.50758642361905 -232.7493308172176 -4.997661997722336
42.48449551314029 -231.8405303504246 -4.977833276826533
42.401268522306474 -231.78487876322313 -4.980461348670909
41.9374059013986 -230.30968126815037 -4.968708742185299
41.87531426646091 -230.31834578686235 -4.971865657442831
41.76281107943942 -230.39790058513222 -4.979180903090875
44.17858949397303 -217.74278124883025 -4.905628713857697
44.04429084882223 -218.08033823963714 -4.916491135732593
44.10496431091052 -217.95835869930443 -4.912435651961502
44.09724660180846 -217.7345419557116 -4.9049032666179535
43.97222279008233 -218.0793838604469 -4.9162597274993125
44.02709683140582 -217.84145398648675 -4.908170358463779
43.97296507978114 -217.75167892651095 -4.904857944455693
41.25715825310596 -229.8956820120189 -4.992525050794518
43.511191732390344 -218.49032269609927 -4.931872855510347
43.564239351120285 -218.3916013859402 -4.927922993368705
42.87536620887657 -218.34750216643374 -4.92858465047827
43.099554234327854 -214.95521393821238 -4.9941062625827914
43.0117377433526 -214.76063475468231 -4.98396208570411
43.00469522089149 -214.526914212619 -4.977764804968359
41.79346801208608 -219.47599840077342 -4.997861691841824
41.88004875058642 -219.2348502837342 -4.9836452088468395
42.19279361497932 -217.9406553575931 -4.916246916045603
42.70729869263146 -215.25319877762703 -4.9861647667895515
42.752258000225794 -214.8509917452126 -4.973524123445463
42.83968887060481 -214.68882309494163 -4.973056577876253
42.85853329511229 -214.50918601316312 -4.969408640664439
43.11782895551594 -213.1420522733825 -4.978477309677358
41.752102678782215 -219.5129306107146 -5.0007186842990645
41.83754060411941 -219.08294536110577 -4.97678144422679
42.6380570615062 -215.28232083653594 -4.984364160324049
42.61746897488459 -215.2284480381174 -4.98121799977228
42.79809107848803 -214.4965610631046 -4.965869073549724
42.78192016469323 -214.45639470462928 -4.964047459230449
41.59603731500537 -219.33289603768293 -4.9950126177113265
41.79335242797439 -218.655336429608 -4.956111804144639
42.54402042197851 -215.23528016148006 -4.978359393671466
42.505687380959415 -215.16864682654352 -4.973898081727974
42.63852033796938 -214.87466936504129 -4.968744645202516
42.58652566876189 -214.78246373703632 -4.963126526868866
42.70523205927461 -214.46849523791695 -4.960186413058187
42.82830670195739 -213.6710267605689 -4.956553995723443
43.007757139807694 -213.0711484588476 -4.972385807949796
41.70904092316779 -218.58595532142073 -4.9542423789839365
42.407296842312 -215.17452218245447 -4.9699278509541
42.51317156459095 -214.76536548585958 -4.958965147638013
42.61239235703931 -214.5201638843363 -4.9565853686067864
42.758854880685966 -213.41306047466304 -4.952542508125631
42.870126244365316 -213.1038593902995 -4.962858812851406
42.854088170224436 -213.0260415644881 -4.963070071754629
41.635509578380685 -218.53780213284907 -4.953230994219944
41.58143906636878 -218.47473706122918 -4.951128617959149
42.20822667422851 -215.85838102843303 -4.997218542830178
42.347095365340195 -215.0227863204564 -4.96094080916929
42.52055578036389 -214.3179860984838 -4.946662869019682
42.69499790379177 -213.38610088363106 -4.948632030637816
42.78504725385368 -212.81491006253324 -4.96287933551383
41.480428589512236 -218.8054862194055 -4.970238652929749
41.483940274501876 -218.47727883102294 -4.953257213499581
41.49395534499697 -218.44657285302205 -4.951467733421499
42.136352451144376 -215.4962896974893 -4.974971033757527
42.37364743777164 -214.69907885789158 -4.94997590053121
42.3402955344083 -214.5497997335364 -4.943489803532421
42.488761195051474 -213.92307791328366 -4.937842042808722
42.63645933248747 -213.373913536489 -4.944954387663321
42.61827203323556 -213.2898011718064 -4.944354366747435
42.69723138368428 -212.7185676368726 -4.959518693808424
42.79025533983517 -212.34413915984626 -4.978029939835966
42.83320667804159 -212.30076104051426 -4.9825507074330675
41.42660211007489 -218.50828834916007 -4.956081359910058
42.09050126351552 -215.2458239599944 -4.96052573119705
42.536520607588066 -213.3932657378707 -4.938492079863678
42.48812433906743 -213.24681436977534 -4.9363371885581016
42.6531995522765 -212.7431480947863 -4.955951738735772
42.67224406829958 -212.6474051630195 -4.95988454476414
42.63916052399077 -212.51622287094924 -4.961804485614408
42.7275753147613 -212.34874525011574 -4.973696451586647
43.05476192335326 -210.76498189757302 -4.930065738905427
41.213932592367236 -218.7616646373736 -4.97439396028884
41.214762412407595 -218.70147409561446 -4.971169408706224
41.99484537204989 -215.46840004032646 -4.96865076411452
42.38430460589443 -213.2597523688629 -4.929550554639557
42.43544059982769 -213.08017849366414 -4.934805803702582
42.485210797353695 -213.03722625216798 -4.9386911349016085
42.564783708403176 -212.8029373273763 -4.948590563432445
42.56711733998348 -212.63832951577032 -4.953150906521543
42.58075905178493 -212.52082195713137 -4.957788267722565
42.59592862879346 -212.42908850437007 -4.961999116027534
42.71059442032522 -211.68661861359965 -5.005109884797087
42.943566542878436 -210.8472587690992 -4.921920515549153
43.00456069434478 -210.78720014231482 -4.927384692342757
41.19487866332077 -218.58699368504912 -4.96563623335268
42.25747123395992 -213.36977086899972 -4.9208993406281
42.47994780612177 -212.7612473337204 -4.943994234846415
42.49340603843136 -212.60049709050983 -4.949409857039074
42.492206812747234 -212.51333511190666 -4.952170463501677
42.53103392265142 -212.38686673725178 -4.959243262083821
42.537156176617295 -212.30473180138875 -4.962854122340512
42.629007550741115 -211.97562925178457 -4.983890185007106
42.6207539477976 -211.9213803293616 -4.986189731591073
41.76777565323976 -215.18983493872338 -4.946020447750382
42.03584624364701 -214.23979706890893 -4.918883234904928
42.03306844354916 -214.17037997949555 -4.916901333633805
42.190276472913894 -213.35473668819594 -4.916689484460166
42.204243684804894 -213.17856925726508 -4.918645441522316
42.236134227376205 -213.07177585486076 -4.921922609683189
42.27547790665867 -212.8110630549118 -4.9292469565490835
42.373698484048965 -212.58869812158986 -4.941819596948936
42.36966106759883 -212.43263792039986 -4.946853431597602
42.42626209821371 -212.2735797237875 -4.956821462951777
42.436991101954696 -212.20107246194442 -4.9606255025496315
42.514998724151255 -211.88432040262 -4.981372839937456
42.51821628489289 -211.81148889039378 -4.985642765255338
39.782085306227444 -224.08093420832046 -4.931250802160655
41.46236682366731 -216.21580674481302 -5.002967854193775
41.65349237194287 -215.28348547430673 -4.947433199594865
41.95183165004109 -214.2787147731386 -4.915650785603287
42.09791072489278 -213.54702370360002 -4.911121253084191
42.08181967605618 -213.4409689531412 -4.909812158937465
42.05640321841692 -213.370260175501 -4.908226743864585
42.17572015475117 -213.13841812590542 -4.917207126027286
42.20331274161554 -213.09648778735033 -4.919469896798104
42.16456627537357 -212.94162793253875 -4.919259026511039
42.313232623703065 -212.2449831566947 -4.95058245870791
42.31678963632219 -212.12416832806528 -4.956269422278082
42.37300266553173 -212.06739540188707 -4.962677904042483
42.38770640669957 -211.8691234494093 -4.974076151833041
42.38419782805197 -211.81512322026938 -4.976921553768051
42.63435924889434 -210.7019500405315 -4.9249046014278575
39.712828260883605 -223.94792632810243 -4.931801511992159
41.40161841962476 -216.1658722742874 -4.998550613048091
41.63721149991472 -214.95684047610288 -4.929318472727894
41.629307598183665 -214.9012915656712 -4.926216784229697
42.092329828676924 -212.90618553738267 -4.915165646559818
42.0931741410137 -212.84231722651694 -4.916518287498301
42.25841534853943 -212.14574867783347 -4.951462531380294
42.2460814969055 -212.0630745245674 -4.954659617437117
42.329547330595695 -211.86430359682274 -4.970649160908694
42.584528214015336 -210.57582225103053 -4.933055109105785
41.35340942760918 -216.0039640966341 -4.98641493058187
42.02103214501796 -212.8447158116547 -4.911690764433242
42.22933475374286 -212.00577963996312 -4.9565051837003615
42.230165200668424 -211.6396752972823 -4.978085221786868
42.26344552195077 -211.38656551549167 -4.997603954370107
42.34903537713257 -211.3419320435209 -5.00592510088101
42.490012485159 -210.61114017586857 -4.928530298962034
42.16802584327083 -211.63316322283725 -4.974692519552456
42.21599882676927 -211.48059589386398 -4.988023278550448
42.439225245828126 -210.48446550264447 -4.937152440454389
39.44438164411273 -224.09111203270726 -4.949719003311635
41.07659395086547 -216.09558621294534 -4.989573486079333
41.829175276147375 -212.8574731774804 -5.004002430744782
41.98239008495618 -211.79153583571176 -4.953049000319237
42.138304400491066 -211.4691554919481 -4.9842004916409035
42.14167800317437 -211.4427434031953 -4.986311858667125
39.320381229182395 -223.9786531469603 -4.95390212760913
39.35269725896417 -223.82521765833746 -4.948412443276803
41.63469925577987 -213.2801715368075 -4.982683784321223
42.02516550867357 -211.3813408919126 -4.984059937496257
42.15804219114448 -210.68974863093595 -4.91611438798113
42.19713731905304 -210.4782125533461 -4.933335560071404
42.23087191033119 -210.1533361910417 -4.960536873174777
42.305810285647354 -210.11719311303176 -4.964633099738412
41.24542368407022 -214.35618610694402 -4.990062867020478
41.37494471708846 -213.77612354024785 -4.970068603814403
41.66900304876305 -212.60324322372784 -4.993808593513089
41.79973871992767 -211.69661727982077 -4.947950393841873
41.80482553610167 -211.67289570014452 -4.949877071104154
41.90629344019775 -211.46659551548632 -4.970705000602244
42.16937614643842 -210.18089752388536 -4.957378401751279
42.138439778575446 -210.11642382650916 -4.962464095880557
41.00098457736116 -215.2765089414149 -4.930351671086778
41.138826886002576 -214.55327137755992 -4.996736498124806
41.14201413540955 -214.3357120383162 -4.981561322720484
41.165308785149016 -214.31050998052325 -4.981480315847481
41.20365325629271 -214.02295857175375 -4.967228250000967
41.25352109661948 -213.94192407070122 -4.9670736424235375
41.336034574602024 -213.78382342888816 -4.967016066692185
41.313143169701284 -213.68107411868442 -4.961282668653329
41.57881148086509 -212.44523102302796 -4.990232864439165
41.69054405743128 -211.78345466138367 -4.9354845275329895
41.714155940961845 -211.69488213606067 -4.942880643841802
41.72111800846079 -211.5577421840524 -4.953078231080335
41.76672190431627 -211.46208576464286 -4.96294622352495
42.00875433513933 -210.54558535638387 -4.924800089162327
42.06886488308307 -210.20304651706834 -4.954146192558653
40.967286276447716 -214.65167193213276 -4.994296626598122
41.0096207397657 -214.4742856122567 -4.9828262720125505
41.10454221838105 -214.3690274962525 -4.981296225120848
41.14136052841021 -214.06069423576847 -4.964525653516717
41.16240639154882 -213.98728256895123 -4.9621184926541195
41.147371139446264 -213.83774751836896 -4.9535135807448665
41.17765074823423 -213.7179077184552 -4.950914151842161
41.19094026410478 -213.65419924036715 -4.949676584251844
41.23353004691917 -213.5945318503872 -4.951379179911475
41.26627904519454 -213.45552920369744 -4.950499412161091
41.25066291782579 -213.3456742776314 -4.9467941567973295
41.373958098214715 -213.14437379629666 -4.956548935049788
41.36234483399758 -213.06731313777686 -4.955341412440598
41.389389809415135 -212.89429742594484 -4.959165168785768
41.38639523842264 -212.62030062780883 -4.964583130398094
41.61709400114987 -211.8460331194195 -4.926900806395018
41.624537904923756 -211.68184756868885 -4.93839072273337
41.66392508035732 -211.51590158848563 -4.952919591781786
41.76465549522368 -211.05426960633898 -4.9969834562308355
41.84529079836172 -210.6443967923203 -4.914173177964392
41.905219623723426 -210.4457031379423 -4.931402008376576
41.96251064212451 -210.2249307762066 -4.950925399231173
41.98252332062887 -210.15556098528498 -4.957195374478004
41.99593498658727 -210.08698172743058 -4.963335415169639
40.88355368662423 -214.61182337851682 -4.9863880803884175
40.90918641509868 -214.50197401460704 -4.978962422637386
40.94334101626554 -214.4508958917733 -4.977009667927144
41.05533127830307 -213.8388927406605 -4.94613864750051
41.11294094138377 -213.73281500461562 -4.946048874944771
41.11823044952252 -213.60977657316576 -4.941747428649763
41.176613675156034 -213.55512000692468 -4.945085458452285
41.12433613943746 -213.47154403327787 -4.937945764163826
41.14140948929091 -213.3720083706065 -4.93710656804623
41.267779164124306 -213.03565191972845 -4.9460214473398665
41.26474513520848 -212.9423085555546 -4.946194891665665
41.28706437805912 -212.8950241030727 -4.948886733817572
41.50634834889023 -212.04286448194836 -5.003789111770095
41.45080167802092 -211.97852701794352 -4.985435185644538
41.46432316446355 -211.89423380582448 -4.961885939385272
41.559507973837405 -211.674359411491 -4.93503553569032
41.601102823596065 -211.46752320864246 -4.953045641663475
41.596269959268675 -211.42564460342825 -4.9561155153550835
41.656761652703736 -211.2317369529286 -4.9756329806821435
41.79735161820019 -210.59815160214063 -4.917170145677135
41.79118762202578 -210.54386592869201 -4.921570962923392
41.89105026079051 -210.20500884063276 -4.951801887549353
41.90819545811878 -210.1404095763029 -4.957677918089088
41.94309138790999 -209.84703333427427 -4.98440861164809
40.774073186489694 -214.61526816089417 -4.980936327323045
40.846907647696206 -214.5026562567156 -4.975437209181308
40.82036845165112 -214.4455926672547 -4.969312920424449
40.974547388254166 -213.76767202658175 -4.936153121755371
41.02352151621293 -213.7238314641217 -4.93819844273354
41.05355385149223 -213.67703849297808 -4.938724813855249
41.06111190348679 -213.49059092121476 -4.932784661382908
41.04462356995314 -213.4311182764655 -4.929645203315707
41.09565152278523 -213.3540459476526 -4.932471765824967
41.06747388362813 -213.2309769169885 -4.927680754964231
41.38075608126036 -211.90194670891745 -5.001315978503493
41.48541341809041 -211.3651848257222 -4.955013538158985
41.54567341647113 -211.11693227971443 -4.980106894734426
41.583632101700196 -210.99093593846402 -4.993798234705709
41.68107697043945 -210.38672381013797 -4.933513408017516
41.72600027728304 -210.17900697271477 -4.952377342608925
41.78650895658175 -210.08561206110164 -4.961347273864362
41.7786027135581 -209.87472959907294 -4.980659554200874
41.84988952343205 -209.72139876601645 -4.995477000488274
41.876041946148725 -209.6454450518755 -5.002796759406356
40.51325981833051 -215.31560927419756 -4.92636249373577
40.63847823868081 -214.76746776602596 -4.9882946564794315
40.72475107541479 -214.65550905899136 -4.981990083535865
40.688441881262655 -214.5211366728118 -4.968415071752749
40.737668703530574 -214.26191699717964 -4.950097229951458
40.93450624622803 -213.49866252771798 -4.921808784643833
40.97118387467717 -213.4160961222323 -4.983027749760739
40.98574963001535 -213.3296029238653 -4.992768008036754
41.03709168305835 -213.21449939789662 -4.959154436435451
41.007265954791634 -213.14529541149656 -4.947201406418588
41.135713303578974 -212.59532370094013 -4.939885111876151
41.112804289165055 -212.5336544226827 -4.939624756392041
41.32056717248734 -211.51406289518044 -4.9335353195379055
41.364053805187275 -211.43410310282874 -4.942579473331313
41.383568253612985 -211.3484632083393 -4.950963676355369
41.40351529124127 -211.22419105353072 -4.963069081971937
41.70398356536688 -210.03486936913635 -4.965306387279646
41.768879708118305 -209.70196565930686 -4.996916941163715
41.768687305685184 -209.63185518337397 -5.003637759040147
40.38946366003528 -215.4322890226418 -4.934875763067375
40.444568366192335 -215.30758978013702 -4.925341317632237
40.56721596018061 -214.82496233803604 -4.990807339449376
40.653570968371085 -214.5373450236266 -4.968064469073804
40.642581374825895 -214.46032185226625 -4.960850485295957
40.86062520231111 -213.4746582450092 -4.992218117761447
40.91030986194103 -213.37347861388636 -4.915880622415742
40.89047657607954 -213.25953307062056 -4.936929940211049
40.95453464531898 -212.77660992521197 -4.991948251340179
40.99515447023682 -212.68472550735024 -4.999241345836849
41.00244526601795 -212.61279989596193 -4.971843843519644
41.25303934071367 -211.52913285327202 -4.928556395106034
41.32489325752618 -211.4564936922746 -4.93855032487922
41.32809136465317 -211.32388666485284 -4.950194934225694
41.2998245443166 -211.19849436512877 -4.960236425624723
41.43547635672577 -210.90789374153923 -4.994963441722377
41.43193293787863 -210.8076733484584 -5.005029376251048
41.468994943502366 -210.457899068432 -4.924907343232083
41.52519060053993 -210.3624442524744 -4.933993841630187
42.04280169855676 -207.98635282691805 -4.973093951799683
42.02905499942666 -207.95524011010195 -4.975870408244946
40.27218223178586 -215.49601460492906 -4.940081666558481
40.31617048218883 -215.4355668256278 -4.935125598978337
40.38959292549706 -215.3421308557142 -4.9277933275345465
40.61262256002462 -214.1628955560173 -4.934936770880459
40.920851788866194 -212.6672103980972 -4.960519265415548
40.9449699164021 -212.55986621379668 -4.966190819522783
40.90877427642462 -212.50324840834085 -4.993156076396707
40.939717239225246 -212.39861067920313 -5.002061259125744
41.13717106872519 -211.6364019178581 -5.0010740049272275
41.226511317327166 -211.3919885942789 -4.938844269174206
41.1702926983387 -211.3089794392598 -4.943471975640771
41.19276316449062 -211.24426926663043 -4.9506472407583715
41.39908236373466 -210.3330393872711 -4.935556351852757
41.405743178785414 -210.25595120568352 -4.942699383451566
41.54093924197024 -209.80735682979622 -4.985957959442897
41.57266904551563 -209.73441952011268 -4.993105078121942
41.52125863252463 -209.6310006268228 -5.003181108359108
41.9249134534118 -207.9722937252953 -4.9776252556467
42.00142668985384 -207.8218711476135 -4.987164207447262
40.85532508108285 -212.55684726046576 -4.975023570462721
40.84775125040645 -212.4622888123916 -4.98662962204399
41.098062658829015 -211.35963267379884 -4.935174909630535
41.101709196687175 -211.33746034131912 -4.93739894214256
41.12367625711376 -211.12958635487374 -4.958528208373187
41.1813309690251 -210.946666531858 -4.979785495494056
41.30995866458893 -210.43520950913742 -4.925468200421304
41.368511432444244 -210.27457287840622 -4.940731094143118
41.325222780690154 -210.135723168785 -4.953572941251162
41.38980708612205 -209.73850339597954 -4.992466634810389
41.495606071822415 -209.68025629773598 -4.998307487336901
41.827368907347015 -207.86986905664094 -4.98873149409176
40.36790054150367 -214.25372129063666 -4.929054573870399
40.60684065362291 -213.36455790367833 -4.956389263466147
40.76586437340222 -212.45703452024114 -4.975593950834789
40.81370395186006 -212.3293717583291 -4.988668807578603
40.77611276305715 -212.28102782409718 -4.986521243360707
40.96153204908222 -211.69811273840176 -4.979689019065406
40.97614041376863 -211.5965881095315 -4.9908886405579524
41.04335964080205 -211.08110874559438 -4.959907027706543
41.07384429283069 -211.01208750165023 -4.968370940466088
41.09045367302163 -210.91782397866993 -4.979059718802308
41.127027403207 -210.75282364656886 -4.998532914254959
41.145092126367395 -210.68455204552205 -5.006838177936548
41.28437272369871 -209.93286380300452 -4.973161000047189
41.332859138907295 -209.7841513452184 -4.987941558381693
41.45579478635784 -209.01006401610354 -4.910809771278211
41.47520580366922 -208.890809524524 -4.919405716807084
41.53941674978642 -208.7578562414726 -4.9278428473020375
41.716872254701116 -208.15656194045587 -4.969484172846585
41.689686200289174 -207.88665850830134 -4.991770714182087
41.78214534744208 -207.82333080656437 -4.993823943113034
41.80012240730546 -207.73854773460266 -4.99995951244846
41.74165739857675 -207.68788739984973 -5.005889189551898
40.310721309690685 -214.2247230652596 -4.923744801832486
40.65137968125948 -212.49431005504607 -4.958306625189349
40.69597093357119 -212.43174900450583 -4.967272950686656
40.70282209859647 -212.28692387205868 -4.9762929771741975
40.95962461880835 -211.0056586089296 -4.964332179024282
40.98066090303242 -210.7083427863817 -4.998331840462543
40.999403425564026 -210.67869066911192 -5.00240438842255
41.13050294982286 -210.40677201537935 -4.926899678397223
41.19603660961739 -209.85615151025385 -4.9808133783653945
41.42032387445334 -209.00851379789498 -4.911887367480894
41.44233326549269 -208.75961298419432 -4.930467540995047
41.62058680567354 -207.91944662341956 -4.991374328922367
40.542152323243805 -212.50457155788467 -4.973195880591272
40.540458276042536 -212.4167444350402 -4.983048420478117
40.5544918050984 -212.3363811772039 -4.953252797326959
40.856053889634346 -210.99672901104753 -4.961242947844608
40.884690575086935 -210.69287625803292 -4.9970052736355
40.90992350688323 -210.68186582787592 -4.999111518874413
41.28963959440786 -208.96037811003265 -4.919377217347223
41.50581669572279 -207.8687642346177 -4.999178897506457
41.563841573781865 -207.84284807282043 -4.999381366961367
40.02821286257929 -214.32924196261084 -4.9970198301820385
40.47801559713747 -212.50049590221218 -4.992805459179475
40.48991978691184 -212.3309125201004 -5.004532676410661
40.80130032091002 -210.707071827423 -4.992756317276626
40.788152464437005 -210.65480625399303 -4.998670976964852
40.9471371206341 -209.9246314060249 -4.97450838257873
41.256030381220654 -208.90276066616516 -4.924924470307382
40.51086999312555 -211.75423109709365 -5.001757178129721
40.50005767289612 -211.699046931284 -5.007397620611926
40.65645448832145 -210.89031623803155 -4.966509066075174
40.67017431676356 -210.79258082369998 -4.978622992502293
40.68274213306782 -210.67082216627227 -4.993846252515061
40.97132192263066 -209.7140170242867 -4.996286568185517
41.14710830337456 -208.57649528759518 -4.95430591885543
41.20670957665146 -208.23141235255954 -4.9801303023424355
41.25047176619173 -208.1122235365835 -4.988215295464677
41.25549216625111 -208.02701467249997 -4.994940532940072
40.077982407066145 -213.19187966146356 -4.98300097142052
40.30737709456426 -212.17928152972507 -4.986564811266235
40.38049784011405 -211.9783815484133 -4.960638647711854
40.550480140483685 -210.84707986188184 -4.968643174400611
40.61497609943034 -210.80550943221064 -4.975497024056226
40.61971327844728 -210.65302794030686 -4.994479005718485
41.1904350707449 -208.18901044654714 -4.984121300528056
41.20988916532352 -208.02052436101556 -4.997083670582574
40.28313532885052 -211.75437683698038 -4.936783789263721
40.498657847225715 -210.81835409852206 -4.970877130543325
40.5131086339516 -210.73916978037417 -4.981110438798379
40.51500166932892 -210.67189233371977 -4.989689160998554
40.54610629287899 -210.57332879470047 -5.002971146939588
40.809693286424086 -209.22544270610166 -4.91344954458271
40.896735050881404 -208.84008203384295 -4.941524656150498
39.86552955205789 -213.29404335092116 -4.935148533642503
40.147317873767086 -211.87769102417656 -4.978339067733482
40.15253810890177 -211.81748086547316 -4.960026063885827
40.21558321628217 -211.75759233888385 -4.911114847843073
40.41070268216369 -210.8188751273944 -4.968708277706072
40.39832240317372 -210.69639268610877 -4.984187368291108
40.433768561751684 -210.64751232837494 -4.9911921734465965
40.46854117269629 -210.53364626852579 -5.006705016852658
40.691703927887914 -209.274067942496 -4.913513735944353
41.476981866929854 -205.66083948928696 -4.921181071680259
39.71459992798488 -213.67231493274855 -4.995325791672685
40.09458098383008 -211.84482777814355 -4.996312483951021
40.112585232371906 -211.8116252774115 -4.979400117125575
40.34261965664072 -210.70891728814513 -4.9815728946825075
40.66980701878423 -208.93575435989254 -4.941717688086322
40.731330067921554 -208.8762287657269 -4.944398665737146
41.34938448541817 -205.9290314100396 -4.914239136201263
41.37021849669259 -205.8025279177231 -4.919608424028512
40.183957777642945 -210.7776730786626 -4.970031409242354
40.25897903580386 -210.5465874640245 -4.913868007748732
40.23643663982228 -210.5280276355952 -5.004508009107558
40.6233325352985 -208.93708180390644 -4.94331246379228
40.660203951041105 -208.38951270344455 -4.9870083716848255
41.31838944625758 -205.7264946484228 -4.926122217766493
41.2649419547303 -205.60853587681927 -4.93494578163524
39.36542455781102 -214.42183607389316 -4.994437752188959
40.52602206698505 -208.7749509895012 -4.960267434144772
40.54723220887788 -208.69065539364078 -4.966386558748479
41.24264398137907 -205.4766311859307 -4.942785069095045
41.28290872146658 -205.43739007784077 -4.942708295125525
41.2926987774862 -205.24480833962838 -4.951965766186809
41.27378252451024 -205.12944688320806 -4.958824686482448
41.33272116354188 -205.03499654218703 -4.960433156822847
38.60331960649735 -217.08211658775798 -4.987632330240841
38.745689405724825 -216.6256659309812 -4.951990560603056
38.9917402167152 -215.48146357709024 -4.972367239524128
39.072009247541246 -215.2569229158168 -4.947289431354025
40.01389605794383 -210.6329761037498 -4.9342080198882865
40.30223642452694 -209.1616366486675 -4.936862449595831
40.49847199584837 -208.3272445611081 -4.998484367097517
41.12823523235661 -205.32259782329163 -4.9566749693775725
41.23429006245251 -205.16301784045848 -4.95915140964604
41.24377277461331 -205.04452923419595 -4.964732654344127
38.99707398003341 -214.96462346503318 -4.923536930281049
41.084614814207434 -205.3761787854505 -4.956333140957842
41.083938718528 -205.24235263743174 -4.96314427523399
41.04875836189011 -205.1747108327375 -4.968463281220786
38.851161806485564 -215.2475019100872 -4.958066217700416
41.011907895816314 -205.11317142934402 -4.973568686572761
37.61688991418216 -220.29997796526345 -4.97118625840118
38.51156924644575 -216.06009911778293 -4.933871004798092
38.65940989562434 -215.78172303331985 -4.907577185265077
38.76454012115109 -215.0665330972788 -4.94623970824091
38.80033652250895 -214.77817759077965 -4.994498285639281
38.808399661435345 -214.7267695980392 -4.98735416589553
38.98086373077279 -214.27408550355156 -4.979768401566336
40.520467578563625 -206.71077889434554 -4.918477460669426
38.48184471448442 -215.89438433557333 -4.926303162816365
38.45941643241104 -215.88574247593115 -4.927396765883987
38.553890445186205 -215.72135886992243 -4.911102699532445
40.4122236909624 -206.7169097492327 -4.924033498378925
40.482176348695624 -206.65478308730692 -4.923413231792462
38.369532910518885 -215.86763023867653 -4.932903460582896
38.46990972651578 -215.34553018372267 -4.993352708139685
40.28140545089056 -206.89418551913067 -4.922042006554306
40.32014338477738 -206.86568019140864 -4.921381649596496
40.3835909924879 -206.74253223381646 -4.9242189398995135
40.66394668170251 -205.24293622627513 -4.98562955262601
38.34501623381028 -215.5302867030204 -4.915255142583027
38.35539373693537 -215.33295704308813 -5.001493010747739
40.23952490259785 -206.84917178681587 -4.926581601124981
40.58613690531064 -205.17848834636737 -4.993161348233994
40.62188886071458 -204.84338241791917 -5.008378434543906
38.01194891309316 -216.66694789543524 -5.006247461534859
40.093429277079416 -206.90320359789544 -4.931767698192229
40.51379854910266 -205.20016379116078 -4.995949887793428
38.157934628160454 -215.61462613963303 -4.934849754081345
38.2385954958274 -215.24152203735295 -5.003287158319211
38.20415081310124 -215.19703294276766 -4.907596909055357
38.24512510157529 -215.09183063323164 -4.989092948866886
38.48221985121069 -213.88232015657604 -5.003293723080394
40.32509106943195 -205.22033724702675 -5.005261261063301
40.38723930330687 -205.1083331858142 -5.0075700110145664
38.050083897280096 -215.60631559139767 -4.943350625149112
38.289093343123106 -214.53032135781578 -5.0064746482727225
38.386392989291274 -213.83376159609165 -5.007122495210402
38.433264919114066 -213.82175674043617 -4.969860595163244
40.22587577605744 -205.3256144971314 -5.0052419326992625
40.30945901545413 -205.1664014051489 -5.00881987054983
37.918405463821856 -215.836684112096 -4.967449918039537
38.171527074265626 -214.29512523037633 -4.991512888081846
38.208013636864436 -214.28071552067703 -4.953289982208434
40.02152999474123 -205.78084665685324 -4.993202122597305
40.12225926301654 -205.47903705973468 -5.003093351142141
37.71497161080572 -216.198012229108 -5.005072553224575
37.800772387767445 -215.8611895828031 -4.979133624733708
37.79820563742175 -215.8121318052778 -4.976672429599348
38.068604701862704 -214.2819949432149 -4.936474669333863
38.12293373254931 -214.23446960121305 -4.964864140234181
39.982637228552406 -205.56206692645287 -5.006509292748435
40.056364349093606 -205.42405992388277 -5.009519123140077
37.76557109343002 -215.4937610049599 -4.962593416019265
38.06444896742246 -214.27566228984722 -4.936467007023153
38.03023974004784 -214.2284506243988 -4.994527255490151
38.64337766757683 -211.5029219135287 -4.981496855384746
37.96833661488906 -214.2521650831055 -4.94587634850547
39.13704729053848 -206.51175783898586 -5.005108825285426
37.46584785434572 -213.7674751954942 -4.919886851549647
37.475798268246464 -213.70210138247273 -4.916863776750191
37.41518729901933 -213.8260692118324 -4.995188712850465
37.4442388182631 -213.77500220060648 -4.971793200878911
37.43733473306579 -213.679765629802 -4.954075730785104
37.28182903537493 -213.7000312531369 -4.942783353238047
37.32720476913956 -213.65090695326785 -4.972688700616782
37.348818808970144 -213.5483744636851 -4.9622782379607004
37.339791286919876 -213.48353611457455 -4.959563986728177
37.24504739849358 -213.49301037248085 -4.944171899611911
37.28888241086248 -213.47877450390138 -4.980417225211154
32.148423805385384 -231.84003560174682 -4.922764524807317
29.20482452312584 -244.90406422659694 -4.960792105702091
31.973682993016634 -231.7038896240553 -4.936740044260006
31.941195043816172 -231.58581640612758 -4.940109896115899
31.634638658043254 -231.81145574496446 -4.958595538679866
31.237206419920767 -231.6725171856022 -4.987745979687872
31.405321571327065 -230.70061752939674 -4.988336814619122
31.185659317141013 -231.60876064956688 -4.991777182456252
31.199392849636116 -231.02660985782953 -4.998723953493521
31.175344620854663 -230.90824683897654 -5.001597389590148
32.38041540473579 -225.5749300986118 -4.988414695809042
32.3676634139533 -225.490293396377 -4.990220331954589
32.34951592837248 -225.4183924488703 -4.99274734354417
32.28261129385789 -225.38535451687247 -4.997818107258989
32.21220151342884 -225.3591058098807 -5.003049335199805
33.09997745521935 -209.56829582933264 -5.007797136876714
19.40094836678554 -231.29987370873675 -4.916103160897892
17.865876968484308 -233.3433784373467 -4.908793473361204
17.74518661707633 -233.31783087094178 -4.915462599119262
17.732016964964952 -233.19004496789603 -4.922050112595632
17.803882894023 -232.97710588967738 -4.926743898696892
20.011620356424945 -211.5626016097847 -4.923383019446993
19.60785497673042 -211.8060962098385 -4.921907781310065
19.481373873092817 -211.8685881955163 -4.921955728995329
19.578572459244626 -211.73941594046232 -4.923972624567286
19.62978668136403 -211.47667960418528 -4.9293848430771146
19.65640499765142 -211.21652608877298 -4.9347749874175175
19.481734122549966 -211.66762597789264 -4.9263632075592865
19.486424949462364 -211.269015223841 -4.935152927996223
19.53163485689095 -211.14006894718128 -4.937446820732608
19.398188968834635 -211.39545248704957 -4.933296504589794
19.498696982853037 -211.07157894445254 -4.939435260273225
19.499250308730492 -210.80362826295666 -4.9449069670929005
19.30312558476073 -211.5927963859888 -4.930094071707906
19.324418098725285 -211.3246876097905 -4.9358151087924504
19.44980817885693 -210.73094330157008 -4.946648372395568
19.505474231445742 -210.53601537459505 -4.950081149795285
20.751842266103854 -204.65668156396438 -4.978526752205921
19.36743850808747 -210.5878349090111 -4.950299006818124
19.44474611687617 -210.46466524995466 -4.951871296283911
18.89946840615936 -211.97818816092084 -4.925201730157316
19.019692786749573 -210.964849347301 -4.946327514071289
18.632452502327812 -212.1809950831588 -4.922747433276131
18.68586392577273 -212.1133865261701 -4.9241084083838675
18.605687998809643 -212.03924123855487 -4.926452960721331
22.89388921447624 -191.77889165690664 -4.922117746713174
18.668536693483883 -210.86737903459365 -4.952151082814085
18.62880659907015 -210.79305377095926 -4.953844424914744
22.5856357080547 -191.52662749713107 -4.927236438763039
22.42710325124536 -191.61960161366795 -4.931274052288233
22.255649404095816 -191.25352875279447 -4.932694254375688
15.946815726505005 -212.601248079527 -4.9390993340509945
15.793570753724232 -212.75998912039157 -4.936513592506498
15.901033684310828 -212.6812507767731 -4.9377806218079545
15.932830392674443 -212.5237763773128 -4.941520513065296
15.933152805753906 -212.44594071356093 -4.943218281001428
15.881686669776766 -212.3692192588095 -4.945963289013229
17.59152117437081 -178.5591998586762 -4.940878811594307
17.694249840411526 -178.445809401427 -4.937039739683136
17.496739118947186 -178.66832498106885 -4.944509237088424
17.066022945193772 -177.15066979808003 -4.9410069594398545
16.437917655422112 -175.85615023867177 -4.945025346468021
4.5975801620452685 -216.39352494808614 -4.94230759250914
4.527632070063305 -216.5224450469073 -4.939328784681102
4.568897904492964 -216.2790418271828 -4.946813576833389
4.462724851338223 -216.1693423281956 -4.950954028352587
12.832537256648731 -173.93608708815248 -5.021020378597307
3.081629188946991 -217.18777688329465 -4.932452194921987
2.824932400369349 -217.47337146951037 -4.925521478220179
2.946885876818918 -217.32943453846798 -4.928574292911772
2.9899968242208814 -217.06946392182735 -4.936833824388574
2.650870065668599 -217.61659084631532 -4.921931623408467
2.78802860969472 -216.96817916989392 -4.942830979406721
2.3721412650547435 -216.8931645433361 -4.949147929402943
1.7167723995585291 -215.4266398830293 -5.002376218968533
1.758913114517334 -214.91070490693005 -5.017419049768705
0.2819190959776563 -215.93924753319945 -5.001835825317838
0.25250604284348555 -215.8063361351956 -5.005710318022768
-0.7553048587560554 -216.30440896286905 -5.001103562599535
-0.756083052845014 -216.16530191906915 -5.004916538578971
-0.8976621885833254 -216.45391323142107 -4.997285930262906
-1.4151997332934911 -216.6461261362469 -4.997095957125156
43.70582443165215 -226.27612061765575 -4.801298719271668
43.5367609090161 -226.32216054247218 -4.808976441839129
44.59583527320218 -217.26428252939715 -4.895056767072627
44.46912481732041 -217.48888679665743 -4.90003374510491
44.562926738621584 -217.2698477134789 -4.894814676186193
44.3184620821486 -217.59436714011642 -4.901891554802253
44.27515168361182 -217.28850992837306 -4.8924590155856835
44.31297620626864 -217.1920156786714 -4.890095951597457
44.197229419973645 -217.40072128687493 -4.895100729997568
44.23471502574045 -217.17451056344808 -4.888854469102224
44.2738715568461 -217.09535418790648 -4.887073533897071
44.48047272592083 -215.98320423709356 -4.865581235873245
44.50968647494794 -215.89484206349738 -4.864745349771728
44.51703350131598 -215.83217416433573 -4.86397650881518
44.55632382876888 -215.63941235713963 -4.862219644967745
44.58267083747626 -215.45356077397486 -4.860734823476913
44.65917067587255 -215.29509697828183 -4.8610588067165414
44.6739934770458 -215.25345073308264 -4.86109373828324
44.0191094518741 -217.72825022631096 -4.904290544723034
44.167375484542674 -217.25994407187588 -4.890664423899627
44.19049685411606 -217.1846040296157 -4.888734212545061
44.302326633226706 -216.32621945186511 -4.868915055066016
44.45416101351434 -215.83514893816306 -4.862823267811666
44.49461864794779 -215.6318391688855 -4.860835690160073
44.528422904365875 -215.25852116391462 -4.857773283055341
44.57663356881762 -215.1969330164728 -4.858443048884326
43.972043329618636 -217.7158921067279 -4.903689860413216
44.07201692606415 -216.92858832008335 -4.880388072781219
44.21927388851172 -216.32330926860809 -4.867564365043829
44.44527727028096 -215.288840766749 -4.856174773195362
44.46030310770089 -214.99555032877169 -4.854476693222992
43.917181899631494 -217.52401233297914 -4.89706322756798
43.95327397619239 -217.10362285455625 -4.8842627043366615
44.383908214393564 -215.2366216535483 -4.854329685460254
44.34762665592555 -215.1964681015837 -4.8531989174680445
44.429710240935215 -215.05074287349908 -4.854069224048761
44.41008679361555 -214.9500967531564 -4.853064250952156
44.40603017732818 -214.90301535445894 -4.852756117414597
44.43057344937155 -214.67204644131772 -4.852754642953955
44.490477850967785 -214.43413271557165 -4.854511374968117
44.56337184196868 -214.4033412434552 -4.856576686362148
44.58522963279856 -214.17484181823693 -4.8583126102823035
