ply
format ascii 1.0
element vertex 832
property float x
property float y
property float z
end_header
11.638082782232782 -189.06973976414213 -7.595310466376393
11.690546852092139 -188.9677487433465 -7.5419902042301015
12.197544152021353 -186.21626105882865 -7.580244711229427
12.24591746045077 -186.13633968819232 -7.582539954418676
12.30553407385984 -186.00531243980424 -7.58792407793823
12.324489243221628 -185.81390897046265 -7.601330050036171
10.328344773978829 -195.17002952456724 -7.531701667466569
10.303572230624308 -195.14010205489348 -7.533247472774608
11.492407068139666 -189.17259623258207 -7.526568991116774
11.515659703512162 -189.13076569150832 -7.541149853681949
11.805849101786995 -187.92116346273056 -7.583653215985617
12.190954829942616 -185.90511830844923 -7.605138314592613
8.650501287167009 -202.55411263328028 -7.519355590620538
10.176161270766274 -195.02356664189338 -7.54288947090539
10.245306242656525 -194.85624797553473 -7.530347712040841
11.392118721467531 -189.17353929420474 -7.535074733498843
11.424274421318845 -189.0902619854818 -7.544718337417375
12.018004932883114 -186.30717511056318 -7.587986437324813
11.318867713601437 -188.90275636088163 -7.513031373100023
11.362681659790427 -188.8104815615049 -7.555679072016625
11.851758493154739 -186.48840163607923 -7.587804752683483
11.823126697908593 -186.46738921733163 -7.591912724421489
10.06822203054889 -194.91642527742417 -7.550866528451659
11.020938348783563 -189.8275462037026 -7.557012854513138
11.20957059474186 -189.05044157022317 -7.571262001871251
11.762677691070117 -186.53185796261405 -7.592041226907847
11.773001645708172 -186.4186611447577 -7.600077020277316
11.842461013183897 -186.28484616656348 -7.604633449911582
12.356884133039859 -183.61240371944777 -7.51439404388073
12.340130837774025 -183.4448255569459 -7.523213970251572
12.409315324177879 -183.42182056045007 -7.518077025235959
10.002926425345452 -194.78789998422994 -7.553961018295873
11.01558465888545 -189.82947466826818 -7.55744479585733
10.994694726360402 -189.7380659208525 -7.580186731626844
10.968405883608698 -189.63938847656385 -7.605339025457257
11.062493875568327 -189.4496871444176 -7.579925863273317
11.09788163921011 -189.0954033677029 -7.5765014553420915
11.122784927866162 -189.03130907280007 -7.573835718690688
11.148126881201733 -188.95945483863363 -7.569117678956102
11.284314281751797 -188.1099161681102 -7.6070789936407035
12.14180538441416 -183.92028886723446 -7.520074222671408
12.250128665051832 -183.42562956961012 -7.53207132334811
12.285301821247462 -183.3553629613212 -7.5320081011515185
12.329892889781025 -183.21176819346525 -7.534324708429448
9.909799375266216 -194.41898464296983 -7.552862444249356
10.854810044446387 -189.84902497568015 -7.539430088057654
10.879185976619658 -189.74686753935936 -7.597552080448851
11.051158375590134 -188.93178285817115 -7.582299208049864
11.127537636807869 -188.30199794800868 -7.6003841689178975
12.143976794269046 -183.66923884825584 -7.530873679816427
12.247679444669414 -183.22013793257827 -7.541284609701558
9.651149509737909 -195.2914010168754 -7.607253930751568
9.849135186590011 -194.1162488203741 -7.550664412827354
10.804135728362002 -189.8509630899242 -7.590288775268192
10.786442411544552 -189.75972990630723 -7.565967916692942
10.997024979091702 -188.8705478115766 -7.549261450960837
12.124179985575191 -183.23423711090294 -7.551706005723663
12.091042644300458 -183.1518026478964 -7.5582896762351
9.7624593446656 -194.12454947821257 -7.5605608970656455
9.822527172782243 -194.0704043190141 -7.552302575985604
10.714189677722501 -189.61029344991277 -7.6032722434954865
12.008011768173061 -183.16470894993373 -7.5651761520362255
12.03797471036412 -183.1310662649597 -7.563964093854504
8.866082173109442 -198.226037396258 -7.509254850017096
9.572922422065133 -194.48484198673157 -7.592225612638118
10.499535678008657 -189.89680071711985 -7.586388236770745
10.509852001163768 -189.8559072998547 -7.581824318940073
11.569528200657356 -184.92282835384566 -7.527599677286312
11.725302585327833 -183.93120715256035 -7.5570289760822575
11.954914346393116 -183.14846720228644 -7.5706681715972755
9.54856688661116 -194.47057314071273 -7.594560667659742
10.450650353440201 -189.92163933365907 -7.564761244672774
10.504249250815533 -189.82437349444388 -7.551770353278718
10.60472164766554 -188.87961724450264 -7.593898945088246
11.711430823537267 -183.70443131482654 -7.568245828147561
11.689771435971752 -183.63148773568878 -7.5734069611281525
10.359007512553976 -189.9231727446592 -7.542356005726301
10.529766992476853 -188.91189458634855 -7.599870361541678
10.588773349408054 -188.8796636579721 -7.595882880406586
11.405641680249008 -184.51426219976844 -7.560480537358383
11.651809137964124 -183.62898727174192 -7.5769631408486156
11.59030022114952 -183.57201737513466 -7.585050542017113
10.386763128034799 -189.09842624240719 -7.599006091734891
11.513259339476129 -183.59426004928946 -7.591089951019475
11.44988758047047 -183.57143593877842 -7.5978719496467955
10.892863229319499 -184.66682203462997 -7.601058625143024
10.809148584999098 -184.7102371699099 -7.606955018782021
9.863306968901297 -180.16704985575745 -7.516325505908681
9.900757717375264 -180.15374733560162 -7.513080645300343
9.628238355204024 -180.38154337864165 -7.53533325615611
6.05773743985966 -196.196313040329 -7.51067353266082
5.9828967169714105 -196.17771982577256 -7.517379173236174
9.498177271767139 -178.7943189434963 -7.561356219152446
9.531682243459924 -178.72844588339265 -7.558942393190652
9.711776554791172 -178.13128853723833 -7.548229263645912
5.872838437054803 -196.19390830702733 -7.525616445761623
9.515095757841598 -178.33254709195268 -7.564028065901959
9.53508745860054 -178.16591189031524 -7.5637230364500425
9.645062950426595 -177.9666867708807 -7.555709013235736
5.820539374123008 -196.18866821469814 -7.529976235958284
8.84431373307709 -180.61949605705436 -7.602084072737839
8.898097408443633 -180.53285989066273 -7.598196030420532
8.737390324751814 -180.6514930611444 -7.611115599475172
8.776212675682611 -180.6497466051235 -7.607739523493496
9.296254106951746 -178.09769510400506 -7.585676019420025
9.327079361723996 -177.98738878259422 -7.583907708294764
9.158103643338016 -178.23994813847278 -7.596609438918446
9.188882532698614 -178.02043150551216 -7.595903401695657
8.92825384709132 -178.7996797445349 -7.611722593455906
9.054889592546544 -178.29420904760477 -7.60523361878083
9.074004319002213 -178.15246754866595 -7.604847942928666
8.996073518393317 -178.2157680053133 -7.611145797978626
5.950412754023346 -189.17731059816302 -7.529985113194974
6.022727992949008 -189.1268039088249 -7.527429481700826
6.038470066920254 -189.02889873770803 -7.527689333548158
6.011149154702983 -188.96510835036807 -7.529420135581275
5.904182312447901 -189.18509794213728 -7.531843260936622
5.98569329471125 -188.93505682455037 -7.530779205027681
2.783803285984362 -204.13314768208588 -7.526177916421088
2.7339126675917367 -204.06144958565332 -7.532272918954295
2.6447976607306387 -204.0496913777901 -7.539457314190274
2.5691375576367044 -204.06189017193185 -7.5447379221582525
0.6076485298516978 -208.5787308213939 -7.551858771050236
0.5436406510438481 -208.54685354259175 -7.557905129134895
-0.02347319169061457 -210.06799694287693 -7.55298205876595
0.04709432896068044 -209.79813965451328 -7.556047808536382
-0.05444755718373706 -209.8166273730354 -7.563395353477767
-0.45428974449784043 -211.1183958152532 -7.552556457520575
-0.5256239126712821 -211.07893251603397 -7.5591882735632865
-0.2173002147470644 -209.49208676041061 -7.586208073794539
-0.2655144220134371 -209.42899976537203 -7.591779664435181
-0.4044566530701328 -209.5702033491413 -7.526545606484321
-0.5608367893742408 -209.95851481101056 -7.524195910700359
-0.5148902051515911 -209.60452072965822 -7.534268972272937
-0.4488196453769344 -209.4316395083627 -7.605704279250077
-0.5730768299543119 -209.54840003138594 -7.541430188524133
-1.131075173027277 -211.12779438323952 -7.604185173366498
-3.3701739114769858 -219.23958155821393 -7.5124850137824035
-3.425197793275414 -219.10491521629984 -7.520999141051312
-3.5162632116783747 -219.03680425483532 -7.531233214666698
-3.6404056950127384 -219.03437263437837 -7.540802615701444
3.208542616827197 -176.6479463238861 -7.548224635293382
3.3351031237521287 -176.16155008005936 -7.5303324904382265
3.0971172880827584 -176.68494121709233 -7.556250931782092
3.1301128238048594 -176.62632974608331 -7.552942710004964
3.2138966097794075 -176.18516497086569 -7.538870163240185
3.264742976546554 -176.15464769064158 -7.534865301198713
2.971873808987789 -176.80565906721483 -7.566692625674809
-7.850565224940892 -229.52919236491408 -7.5224462610643545
2.918475802788631 -176.6069425049011 -7.566443482955573
2.9545274288572205 -176.55537146107991 -7.563090682023665
2.867737860918707 -176.74697901645553 -7.572380580172116
2.5957608849456015 -177.1783386514955 -7.5977785837724445
2.6799020918057863 -176.93778641173304 -7.588023493814981
-8.082968168705934 -229.31885735282034 -7.548571627684238
2.504300359637595 -177.24959076300405 -7.604858042121341
2.52209307478263 -177.17119649378176 -7.60231229617586
2.567510367075574 -176.92112191586475 -7.5949366169186545
2.3011268146574793 -176.60712022281712 -7.606249118239271
-9.863299201673529 -234.73436421516806 -7.507811726974576
-9.991191368061964 -234.60997524335752 -7.521690064702816
-10.096722260841085 -234.43584896829728 -7.537157039768349
-10.522157619700922 -234.5260784509294 -7.568672541558853
-10.446097446428775 -233.6234131191501 -7.593489189889931
-4.7859042783195935 -200.90032732280747 -7.530561346249887
-4.762203389135246 -200.76947401659515 -7.53629598428179
-4.748750540704842 -200.68430962234382 -7.539992163678246
-4.871328121599811 -201.07492514042994 -7.525466254839509
-4.812962130800026 -200.60724252198594 -7.547084089130321
-4.889757524445395 -200.53944323565878 -7.5542722361140315
-4.911452929413771 -200.4755248750763 -7.5584964713332194
-4.996533247492833 -200.44521731849767 -7.564164509190627
-5.123334746144563 -200.438333738084 -7.570415067768899
-16.524900711565834 -184.28571724137376 -7.527142987121824
-16.43578250882795 -184.20442605992395 -7.52700393661744
-16.437325378213608 -184.09942607711434 -7.527496761007259
-16.30137259205849 -183.30507096735383 -7.529562886181966
-16.271791040575522 -183.21226576643662 -7.529634650388783
-16.24333183072062 -183.11701968331215 -7.5295359532190895
-16.197855807399584 -182.91968812278478 -7.529518286569495
-16.724406272225025 -184.9640181465586 -7.524089835692344
-16.662307286598022 -184.8728499212931 -7.524271067311464
-16.48108638652525 -183.98353467308445 -7.5284807797879205
-16.381740253926594 -183.38796318359707 -7.530058078053636
-15.879979144355234 -181.0011711724176 -7.524260010319361
-16.402937375991606 -182.96807210024454 -7.5312486329570705
-16.48526155575241 -180.675594074553 -7.5290903025344535
-16.396121364388087 -180.2643519209837 -7.526161044065747
-16.396498528376753 -180.15340666288301 -7.525630947254037
-16.518284116775952 -180.4412939804227 -7.528374315397604
-16.500654299342784 -180.33723216894012 -7.527750177034694
-16.43937528931479 -179.44806734907598 -7.521504106207183
-16.590390319651327 -179.8462290104942 -7.525940684287304
-16.564748719732016 -179.73766733222263 -7.524880800778559
17.973885187413114 -211.41341689227525 -7.409281146999612
20.097951189291365 -200.41602654191394 -7.437346498054575
19.789721025557178 -201.52290467298812 -7.49865151741035
19.849773975974962 -201.25768789897577 -7.48383160547219
19.930744261170346 -200.77654626152452 -7.45880865021403
20.05180403536974 -200.43378262396143 -7.439741809557948
19.712115313887992 -201.53951868134138 -7.502151954407591
19.867555151124108 -200.8440695513604 -7.463989646427535
19.839529493676014 -200.74166744974443 -7.460409176542634
19.90986859848164 -200.6834062636892 -7.455443284080012
19.96720817061631 -200.41059609120077 -7.441186856805479
19.971478004769182 -200.21444596739875 -7.432609956463741
19.966741405205212 -200.0796240785759 -7.426891835335307
20.02568218166064 -199.81913277622698 -7.413848656608692
17.701461379433347 -210.8077353138682 -7.412198771335649
19.82300903972697 -200.5149231301749 -7.450478061302506
19.926508385666253 -200.10073651248484 -7.428859347403756
19.886193143513015 -199.61442845775184 -7.4094729627010345
19.479488638846668 -201.02225475728972 -7.485865461498094
19.574590199044607 -200.60484331298917 -7.462886046125771
19.717985792066873 -200.20171300384638 -7.439974320406131
19.82326050123062 -199.67264392983455 -7.413765558401891
19.824493823641653 -199.4900927461954 -7.405885871458521
19.453593528822235 -200.8813379682411 -7.479992274893545
19.44736954738581 -200.55764720568214 -7.465096042554217
19.546167215341853 -200.1351339733933 -7.442506152647209
19.695316560165153 -199.66301964727072 -7.417043615773358
19.41868675618627 -200.6620220926838 -7.47095661222431
19.391919911872684 -200.5595970407079 -7.46690845288753
19.526051806106665 -200.04870626788838 -7.4391024862565445
19.005310547339203 -200.9281560444165 -7.498366390131168
18.79505356229854 -200.79378806207774 -7.49963830236574
18.71604932970661 -200.61796933832517 -7.494110284595513
16.82141072705975 -198.55348861915857 -7.463811633750538
16.742999355198652 -198.52813845724106 -7.4655665754297225
16.63509969674666 -198.5453428116197 -7.470793210166994
16.549120200278175 -198.7115142766748 -7.482952469124026
16.553254891373758 -198.59934066945883 -7.476930484744797
17.282111209693525 -193.67851380943353 -7.501702767917655
8.784980468274492 -235.11639561521235 -7.438704138364967
17.262367236395583 -193.63132882959255 -7.499866270928817
17.284060679542556 -193.60367581077304 -7.499530251742597
17.242960900540233 -193.361199641169 -7.491669500611006
8.629372373336174 -235.13518310765028 -7.452144418435052
17.188272622241602 -193.53456681342178 -7.49531771887503
8.442688323319286 -235.60038489166266 -7.469565495681115
17.072479996132298 -193.3627309935886 -7.487902230711703
17.12301061240614 -193.05234009738803 -7.481332547630683
16.86892621936423 -193.84767356882602 -7.4995567101445575
17.020431147340172 -193.05924498824552 -7.479001669338097
17.058201763156696 -192.98237565292152 -7.478250925263695
17.043865285125435 -192.93160691092666 -7.47676294849746
17.002811720574012 -192.8832645607175 -7.474787275081988
16.96960609710363 -192.78320067885258 -7.47203149595479
16.93501433890901 -192.69525013802283 -7.4696009284098075
16.87866768985881 -192.45369567334603 -7.464574432640318
16.550926643625196 -193.4676256631041 -7.480010272597898
16.546828431966226 -193.4204108592355 -7.478410007231747
16.7902477068757 -192.12671398888972 -7.459092030354138
16.803928813869614 -192.05620229508656 -7.459099305858697
16.496490775647942 -193.32893435037553 -7.474445240744589
16.766037990671126 -192.1282036020377 -7.458384597206949
16.77129217441324 -192.0162749974407 -7.4580061660062
16.775176442047403 -191.93058847210506 -7.457911106132309
16.76618603492376 -191.84035811100185 -7.457599383635188
16.76413219969784 -191.73268451076186 -7.457858743498938
16.800372732796138 -191.66020612020557 -7.459325464641475
16.830958229491827 -191.35160177241164 -7.463151704867067
16.318297338480782 -193.64176460942036 -7.482123049160741
16.447516560552476 -193.1643068564553 -7.468349575228957
16.442455438801527 -193.119387247867 -7.466947385909505
16.478992550512892 -192.99660425953732 -7.464421738974468
16.426181342465426 -192.84997537719886 -7.459571649163599
16.725890675245353 -191.7844305410057 -7.4564246398165785
16.74024463396059 -191.72864883615287 -7.457066799088128
16.69495635271646 -191.60677661171664 -7.456288162870426
16.737353601189323 -191.53574197454233 -7.4581553730131525
16.743073401225267 -191.42038937283624 -7.459458112037129
16.791121018121327 -191.34828156535173 -7.461846817137299
16.24081971644636 -193.57553671827407 -7.478166317574199
16.336447731523265 -192.95879965163735 -7.460209295149358
16.373784359498973 -192.86010104388984 -7.458577428294752
16.514570700037968 -192.08853338673524 -7.4505939913594945
16.672093743390583 -191.57504277386727 -7.4557511486919905
16.688848205435637 -191.48200111701834 -7.457056631723118
16.68498741820489 -191.18910218043496 -7.460643479906083
16.12574739506021 -193.49031223609566 -7.472990220257328
16.250048023865002 -192.9833353341465 -7.458796604004937
16.41259975212138 -192.10191644852466 -7.447668069506334
16.627981412104788 -191.25991051638138 -7.457689111122324
16.617365077827824 -191.21272057523487 -7.458015072882808
16.201831618997407 -192.58831187682318 -7.448406341055492
16.508258365157992 -191.27803251419343 -7.453469542608003
16.112662478985655 -192.37098575328446 -7.4422432857185985
16.15395555607554 -192.32839644153208 -7.442714830263032
16.4435918046084 -190.99483515072694 -7.45613311341042
16.32272692282024 -190.94663026152736 -7.4530907965665625
15.99649051728544 -192.14827205279988 -7.43604093599766
16.00579179882987 -192.07899986640666 -7.4356159774959965
16.07049377254155 -192.03617483832682 -7.437166812567229
16.286220329030087 -190.9727696837074 -7.451300495191968
16.243354461232084 -190.90275337243855 -7.45141184590275
15.96650743093161 -192.07934320936243 -7.434506417731601
16.14489318034057 -191.20668936953302 -7.442464110029565
16.2136166310284 -190.86813672068794 -7.451184424876776
16.07593729317886 -190.33497091518535 -7.462782071751584
16.06327305710189 -190.30264038609639 -7.463549057255226
16.102467394206478 -190.1711822055121 -7.470063936460833
16.171212379557087 -190.06631344606888 -7.476743509915522
15.90035476593193 -190.59629836575996 -7.448074633696703
15.926789190227511 -190.55402465670113 -7.450278015921201
15.95778985112112 -190.3478544650998 -7.458401347401424
16.022858413354037 -190.0402799958087 -7.473195162521286
16.0542325117121 -189.9147475160652 -7.480021392675476
16.039084074317554 -189.87574314695763 -7.481433547846745
15.820481119514518 -190.53771119592483 -7.447294211990511
15.862548092526996 -190.43923203880948 -7.452006798992321
15.851071942913325 -190.29591935403857 -7.456901348288047
15.878915117067336 -190.22819048293178 -7.460543384380358
15.896490483732604 -190.0951844062535 -7.466705620473876
15.907723335548432 -189.9775317152579 -7.472466887487966
15.979099630267436 -189.9465662519982 -7.476128200180627
16.007231627686856 -189.8135351599388 -7.483561801763972
15.128393761301146 -193.32181658846974 -7.450745040541853
15.189026867599953 -193.27557506527455 -7.449436789451556
15.61645428444987 -191.07098412626902 -7.427146398074475
15.614880169449503 -191.01827389814213 -7.428024575665999
15.66790006836045 -190.85305563954154 -7.433346841727263
15.707195473485367 -190.66890179631287 -7.4394843884929855
15.740353458450198 -190.63622316064155 -7.441569080829532
15.72530844091731 -190.482853505063 -7.445955980813653
15.713685849647334 -190.42218982946196 -7.447699055824735
15.77362415764268 -190.3215343505882 -7.453424203682615
15.821148397889509 -190.252107672625 -7.4577005796524585
15.816260565982695 -190.07656385758673 -7.464993612633843
15.77244581718047 -190.03650431736537 -7.4654731612854395
15.873210584285397 -189.86904206329194 -7.476646881195968
15.096090539139327 -193.30150179487723 -7.449393022350068
15.589885281793347 -190.83104044896498 -7.431253681160576
15.58038187448279 -190.77140108823497 -7.432446595572795
15.628445236192057 -190.7100890502379 -7.435696462903995
15.71628193621499 -190.2818275794852 -7.453083179825848
15.75957868233978 -190.0547147390243 -7.464199559595591
15.832176532899405 -189.62753321229997 -7.488347637240482
14.991833595644854 -192.97795076241704 -7.433862145526217
15.533398884681613 -190.21655550082332 -7.449872525368684
15.590335062423394 -190.1927022851679 -7.452740317361145
15.667743630342702 -189.8662028746337 -7.470557122760648
15.737793751536925 -189.65352208812664 -7.484104205182058
15.72977510436779 -189.58400103180034 -7.487902830053135
14.919171730962654 -193.054721641853 -7.4359780488207345
14.899204296229861 -192.98307153676456 -7.432643039704145
15.384348989993876 -190.54806883675624 -7.432505867729771
15.515013340377006 -190.18953579289408 -7.4504412655477825
15.634608235617534 -189.63320542633858 -7.482280299426961
15.629891466025043 -189.56957554683032 -7.485902984031521
15.648880759229002 -189.48077547858983 -7.491820669636846
15.504823737092096 -189.5376129189722 -7.4843262111239905
15.579227904912239 -189.4539424387049 -7.491551920512251
15.422284982672318 -189.48245336537227 -7.485512047320365
14.536754884771137 -193.20289375797685 -7.438536844632418
15.34498235755852 -189.54757624266884 -7.479327587954157
15.310658541062043 -189.48135998131698 -7.4825943031414255
14.45117227578289 -193.19895654067165 -7.43766925427659
15.104016007552207 -190.1474341647488 -7.439326048373121
15.240901604409064 -189.45248128000574 -7.482631301347934
15.21451305366372 -189.36894772505596 -7.487563684805558
15.265223230370818 -189.32575879444818 -7.491819061361141
14.231639271866715 -193.69689948810196 -7.4667023284109755
14.307421011794355 -193.26384771569968 -7.440314003785813
14.345099315116792 -193.20270367759818 -7.437117785879438
14.980337955003868 -189.9979740392011 -7.4429102814123915
15.174963714200453 -189.43081375059424 -7.482360274023289
15.186018101037684 -189.40340347806736 -7.484477909524817
14.191389207772328 -193.62802349298994 -7.462299893254754
14.173493943054424 -193.581869879932 -7.459329664484023
14.220208881599252 -193.3507150117436 -7.445047917054643
14.278749141012131 -193.28683711074666 -7.441486534812438
14.937785156734616 -189.9749444488487 -7.442847185094039
14.90463042095991 -189.93679602001495 -7.443928072429461
15.01746311963241 -189.37835473326297 -7.481991195336176
15.250293953885194 -188.33024341578778 -7.409360715458113
15.285578564824656 -188.04476264844928 -7.4299853034051235
14.084401994873401 -193.47844815392213 -7.452909915113906
14.105714787698586 -193.41696903951797 -7.4489760161538765
14.145963832373711 -193.37372986723213 -7.446266545374134
14.498058206934797 -191.31365379175898 -7.498844262740062
14.541463987779727 -191.27107586514657 -7.501863486188642
14.565306221565045 -191.20259233915775 -7.50378443898532
15.169986391813618 -188.02516981137123 -7.433611855816703
14.873587262413281 -189.422365738087 -7.475398404911144
15.060073705826373 -188.18646638871328 -7.423292774830147
15.046380784205146 -188.13716965094915 -7.4273432161996675
14.932623913642228 -188.39088752960694 -7.410140340388432
14.9149160724391 -188.27238904977196 -7.4194283168864965
15.028411796346944 -188.17005217486079 -7.425132492272745
14.563388936309016 -189.50846823145878 -7.46175369737574
14.610625873021934 -189.4689619034593 -7.46573624860639
14.622021693641262 -189.36054698739315 -7.474016574175861
14.665579753388933 -189.00426248187267 -7.503438955931603
14.512440849935679 -189.53024227361533 -7.458999361183664
14.55387832984636 -189.43990460168916 -7.466544313581023
14.535733627520704 -189.34604721493608 -7.473237750550853
14.38746294923159 -189.36471089435688 -7.468624876456531
14.405298027067868 -189.3155118057506 -7.472896041925078
14.46065075493257 -189.23930532004783 -7.480132351482129
14.456181784780956 -189.06423792782 -7.494688324876408
14.48971238603975 -188.94115564320037 -7.506018532844886
14.633828979639876 -188.20121416396208 -7.430572607872851
14.326555489298087 -189.26228012385272 -7.475665379460065
14.326070231209753 -189.20843796561314 -7.480163738198458
14.35854880817315 -189.13486592946083 -7.486983760194417
14.37180892276227 -189.02765727511306 -7.496510675529144
14.567887454570265 -188.1985457392187 -7.432226830376184
14.284271889004891 -189.28490403674616 -7.473021113859967
14.261337162364201 -189.1434739912785 -7.484603345345145
14.32524011335212 -189.07033665202178 -7.492038834161944
14.418218772171938 -187.90427806009922 -7.460481319277741
12.790388775775671 -195.33268339093183 -7.480318221901015
14.312324428675126 -187.91796709458518 -7.462162619868046
14.366602292682405 -187.8846473272903 -7.463557265291378
14.651648484906401 -186.1759049024511 -7.4120872972155665
12.945174585752707 -194.37295230925616 -7.411106638402967
12.88768270738054 -194.32709489961582 -7.411556887121096
13.893147558236269 -189.26329045898916 -7.468279305762374
13.950539318972336 -189.0639740361779 -7.487445241761704
13.949889218736487 -189.03742908809957 -7.489950957956951
14.156881461261174 -188.15042082506494 -7.446204377005951
14.234146921392597 -187.94517783601452 -7.461952550791437
14.524186890033032 -186.23955822691505 -7.415353757764857
14.604048938695911 -185.99545946380732 -7.427456942238276
12.777208712217233 -194.33826132201443 -7.418656883442728
12.819243821058752 -194.31940095226716 -7.415026971510611
13.832849652014852 -189.25856588608045 -7.4678498026333076
13.91122425124186 -188.97655660633885 -7.495450913437483
13.871387170647626 -188.90222310597173 -7.502451925277446
13.98363179866202 -188.4815557056012 -7.422435384600958
13.994873656192919 -188.42914185769408 -7.426577451754616
14.05178800999975 -188.32403845834867 -7.434063149945673
14.1316127573661 -187.98953102005595 -7.460958495986288
14.129386080519563 -187.9513894333515 -7.46440606195933
14.136063138698807 -187.79804822388135 -7.477959761789696
14.201165746370188 -187.6940091309586 -7.4853725106837965
13.846959280127104 -188.94898617821426 -7.497603301566539
13.839488495635068 -188.88462344271528 -7.504038326550016
13.883993857759899 -188.6508208357897 -7.410715415625607
13.884012332789261 -188.6115023695474 -7.413977696664137
13.939377640682626 -188.44659298924554 -7.426486150299769
14.021627778798816 -187.8072528826968 -7.480737320641683
13.656932606304828 -189.02979753950282 -7.4880678769504625
13.687598810533135 -188.99153391437596 -7.492174536438775
13.709586693949728 -188.89137075080532 -7.502582390309534
13.8294779325479 -188.4499801719548 -7.429065706072078
13.867304164345429 -187.94316338152507 -7.473257330173294
13.947944669563597 -187.89139809660918 -7.475386235023206
13.926802110434092 -187.6067497612786 -7.502617029153312
14.250579952055393 -186.1207944183694 -7.4405027506770915
13.590368288104033 -189.0174556487418 -7.4889542460493335
13.57205487371738 -188.98001706003777 -7.492752900092404
13.614905186329407 -188.7199336705652 -7.411510789766158
13.828332632035561 -187.9271415772854 -7.476020062673276
13.804327174886142 -187.8575506324675 -7.483319056840937
13.854346868218753 -187.69840248468122 -7.496525481658514
14.133772224760191 -186.22309502567333 -7.44060734268555
14.161505656603989 -186.06300997909668 -7.450241575428132
14.216654722895802 -186.04670210061346 -7.447893168831756
13.460495004724264 -189.04294316795122 -7.4857176615272785
13.503134292980665 -188.94634156340595 -7.496077278303999
13.725582851098642 -187.9676508753072 -7.475717516982499
13.771285919446955 -187.66842871556202 -7.502406496242492
13.946764725443195 -186.76603912086014 -7.413931396576757
13.943406890117988 -186.68999482500635 -7.419494840696752
13.964654122728614 -186.5389105298902 -7.428844218615486
12.316604068659403 -193.99040592692646 -7.425782602403863
13.423527544706232 -189.04298104987973 -7.485589857731537
13.365667309542614 -188.8772143386632 -7.503643870698992
13.4882911755835 -188.56075096747196 -7.429000992301953
13.42912349824268 -188.53657321665887 -7.432991782807659
13.549187688429962 -188.22574388401932 -7.457690457907672
13.54662526603758 -187.94421863436045 -7.48434150586201
13.909377391939028 -186.36826670583042 -7.444539420777482
12.285058237729567 -193.96562093233402 -7.4262282696662805
12.243021149796855 -193.90424534729934 -7.425190836244492
13.269811487794588 -188.95189581034325 -7.495521944585501
13.419304426663722 -188.5305665948258 -7.433859927355476
13.43283605037255 -188.16502330417921 -7.467460010422028
13.457206899512812 -188.13343200414866 -7.469580996816061
13.45404812764572 -187.89666694991627 -7.492485958018796
13.578728067391147 -187.76725752158762 -7.5001836464425855
13.224185559133874 -188.97126802547118 -7.493493558859936
13.37773479220436 -188.14964880675095 -7.470968696679179
13.409797784151095 -188.08634809636624 -7.475831124504773
13.587575926190159 -186.85407660848318 -7.430391090383932
13.636671186689085 -186.44287295828593 -7.456936730518827
13.119722076555716 -188.32321417201194 -7.464131286830822
13.122963730137858 -188.24143158114015 -7.472027208649974
13.30813707593839 -187.1607978888358 -7.426456094536829
13.610797281479481 -186.00112064863455 -7.491060865700011
12.723397869538983 -189.5686785201475 -7.494272090629134
13.049081640417429 -188.29358003506147 -7.4699308095487815
13.020848888838772 -188.2438386490871 -7.476087019147272
13.296400739335997 -187.13546298002842 -7.429063536402882
12.686342003702974 -189.48429247575748 -7.504946670094725
12.940987652408381 -188.20755684840768 -7.483258216884079
12.985804084772408 -188.11579092129858 -7.490508945252695
13.153547796324931 -187.171088978532 -7.4359862198538185
13.163650488421851 -187.1227093198855 -7.438855332623646
13.159153036434713 -187.04746036846637 -7.444691623846907
13.193837649096006 -186.93786550215367 -7.4503970375972415
12.81386086126265 -188.25215404433843 -7.484593583333627
12.79885654305523 -188.18084990342143 -7.492651718692222
12.741061417093041 -188.17649676778655 -7.495965598667982
12.72430005909439 -188.09114519610972 -7.505723450598499
12.643161908891035 -188.18560431385418 -7.500020646275421
12.652355176007813 -187.8231389801443 -7.422111730226359
13.528498481156904 -183.61221572442773 -7.412174110645529
12.56980622915099 -188.01778939668594 -7.4133943403522276
12.580337592402302 -187.9367779522292 -7.418686558111588
12.634982233333828 -187.820169128144 -7.4235513189042655
13.449181690336406 -183.69513436184172 -7.415409769264177
12.459601037183425 -187.9921490000677 -7.423086406101515
12.486107198480715 -187.90413552765952 -7.42782509811216
12.722474468389006 -186.77218042239315 -7.496311661415278
13.277039110485244 -183.97162014332568 -7.418296626107814
11.938655000727222 -189.9304254907464 -7.468499728259957
12.362339199824996 -188.0212118920224 -7.427910481430783
12.383684231756199 -187.9927870835284 -7.42851509074132
12.420057113787983 -187.9229992418706 -7.431142675055127
12.481394156358302 -187.64806859957878 -7.4474987049582335
12.589573094950998 -186.99374221065807 -7.489303543403245
12.558335074447037 -186.85047726217837 -7.502612665228722
13.163458330015873 -184.14886553556155 -7.420435022597812
13.154376596330472 -184.0388551563052 -7.4259706796559
13.165496883173654 -183.84960413096795 -7.433194492762586
11.831198488822277 -189.98388666139536 -7.495124879549213
11.902866706621529 -189.91072301183777 -7.466616298123206
12.38674108610778 -187.35903580993443 -7.476615008830491
13.125205291093376 -183.7498244456474 -7.441003345951095
13.106796026533742 -183.55498193063553 -7.451040041798008
10.524319653628657 -195.04465491017453 -7.507563397663628
12.32873580289453 -185.98995381967276 -7.413125016972256
12.363250152560957 -185.95102602033236 -7.4117987342112555
12.279735425158073 -185.91233274880207 -7.420800651973857
12.222394351586424 -185.89307559469083 -7.426677960068231
11.437362007263074 -189.11883676278487 -7.416243752876131
12.250885304252934 -184.85513512179645 -7.46947123929696
12.345152263851919 -184.66726690466191 -7.469337531921655
12.315938479336154 -184.56770833380827 -7.476268018531711
12.495943095595742 -184.02533988855265 -7.48404376964547
12.386475824296504 -183.7658763456848 -7.505059494484471
11.058197532925513 -189.9003927914875 -7.498832988915663
11.04128824031788 -189.86071912828277 -7.508338666922567
9.948467221199374 -194.85859236468076 -7.414048806426597
11.15419754356254 -188.9849645964708 -7.453228485460157
11.699926769582627 -186.16488042669067 -7.461272729000125
11.680408995113076 -186.09449196368953 -7.466119816428836
9.914824202684972 -194.32046801091644 -7.41874679755704
11.645875313999946 -186.1157396824823 -7.468299480966836
9.83221438561398 -194.1563434256161 -7.427262391372546
9.811371839092171 -194.1401600151735 -7.429324316003813
9.82892346004386 -194.13279431694693 -7.427586003691959
8.88753730492527 -198.24581883986113 -7.506991550245839
10.49495049456704 -189.90178114956421 -7.504398829132491
10.505407071751707 -189.86298801924457 -7.501690178278048
10.451057511640931 -189.9177593387359 -7.454179793009738
10.494186263648604 -189.84641990743748 -7.442844245565452
10.349171066882503 -189.91607000238014 -7.456520163860933
10.273617535276072 -189.87067951564384 -7.436938256380246
10.87461981296687 -180.63256889378823 -7.42105607119974
10.943072662905895 -180.55341198063297 -7.415541036128724
10.902969747586717 -180.45908981862308 -7.420010606814756
10.841359067400857 -180.678324158281 -7.42365630164779
10.796878540483235 -180.5245057142517 -7.429071365058054
10.749468084291143 -180.33095271837183 -7.435079244974442
11.202964445239372 -178.2017799754612 -7.412726208255625
10.675536993237385 -180.33159149608088 -7.44177200128409
11.13457112087166 -178.08790030764908 -7.419975721267595
10.441419922249088 -181.01449507827311 -7.456817909268955
10.456299415853216 -180.79818038110596 -7.457427376018301
10.272166768049544 -181.09039520484345 -7.471377694506894
10.314406915853324 -180.99923814363385 -7.468394092988353
10.5657005296956 -179.86618580397172 -7.455854902901158
10.520204284953541 -179.78135263819675 -7.460739115795054
10.221772514543646 -181.09928006648093 -7.475815406687475
10.478519059887939 -179.74456287091803 -7.464818310079266
10.566339208271538 -179.3087405720717 -7.4607836392418765
10.160369472276154 -181.011043995404 -7.482108463716667
10.00958234645246 -180.11098809545138 -7.503740521268312
10.309567158659087 -178.70523181612364 -7.489348619874411
10.342648433968742 -178.59195985031388 -7.487393588127437
10.526956486961618 -177.3592702216293 -7.481714449522794
10.131730004242739 -178.68604806240577 -7.505541485609111
10.162317836863117 -178.5402482010269 -7.504114363555122
6.170174512335348 -196.60482817460533 -7.486411946214495
6.212166506406491 -196.47808251740048 -7.487769279388082
6.210254332285894 -196.4205847444884 -7.490058315829605
6.196052575629128 -196.37721105846106 -7.492840869190523
6.163688983644133 -196.2968962402223 -7.498441523922594
6.125860868836043 -196.24094446778744 -7.503581404830536
6.092444268013368 -196.2180050475023 -7.507099811801701
2.7624548342818738 -204.22281087588027 -7.472836260836264
2.757311625445535 -204.07758295919302 -7.478992299384761
2.6441611526761246 -204.05109269747345 -7.489414014823896
0.25972518981069825 -211.0123775646676 -7.499371390783575
5.979949382891201 -179.42170953151182 -7.417162235493784
-3.8987540075769758 -222.6695357427781 -7.436865746102571
4.294000946110544 -176.9392172362665 -7.481347640908026
4.3594338509670285 -176.890342041354 -7.475888464190992
4.369488646564169 -176.7891260064745 -7.473087484144951
4.435591053546975 -176.4726160448676 -7.461947222244318
4.449624806346667 -176.30945074862922 -7.457549624307643
4.236810374166973 -177.00676606126913 -7.486611003333927
4.335292059189474 -176.4624677550708 -7.4686439193917025
4.0301053633717245 -175.97518709634357 -7.479488905401876
-9.474366341838005 -235.09262398042964 -7.462701804882728
-9.593931910983303 -234.94324319962556 -7.4785223407350685
-8.218443433857646 -187.0989755319961 -7.447971489454533
-8.209238308026878 -187.0300417498441 -7.4485897901375795
-8.298101707745419 -187.22035260437715 -7.447346234516311
-8.250649224963945 -187.16195215975614 -7.447648752692922
-8.403353030153406 -187.30811562316788 -7.4471789070134555
-17.10959574027673 -187.1346124306457 -7.502747640293948
-17.267125610293846 -187.6207078678656 -7.496312032754725
-17.28781573760518 -187.5198672298435 -7.498081139390511
-17.20860984943959 -187.42797127931024 -7.498939390748074
-17.20220609484563 -187.3253108962967 -7.500526603950498
-17.096619598740745 -187.03580160807587 -7.503973620498662
-17.087173005577476 -186.93620532578296 -7.505374110077195
-17.108888794229735 -186.83049876794271 -7.506843653778868
-17.049227427824327 -186.73796179645268 -7.507786836153707
-16.960018456108173 -186.14799821733644 -7.514394925302714
-16.986820937550526 -186.04134810740072 -7.51566752673235
-16.961214146657106 -185.9391018138203 -7.5166966161614175
-17.355976814791596 -187.71510466227508 -7.49541007082258
-17.248986653726483 -187.21521903100802 -7.502324005604063
-17.11966760031875 -186.62483282654972 -7.509585549784555
-17.12261312151975 -186.52300356433238 -7.51096884423855
-17.131026574588553 -186.4190316952184 -7.512215207948942
-17.054624626737954 -186.3320286803831 -7.512864714579009
-17.052768251363645 -186.23169522565118 -7.513943245532944
-18.31685115927052 -191.151158673543 -7.428066522730811
-18.29981345898267 -191.04855074937984 -7.430537982083215
-18.127055878251277 -190.53318870318287 -7.44267044650761
-18.191855890238763 -190.4293869095655 -7.4454134435815895
-18.3043460368676 -190.94789332529461 -7.433246958965119
-18.352412387139353 -190.73840134577506 -7.438782416666864
-18.38058700073728 -190.84441907502398 -7.436164267494055
-18.347920428754193 -190.6317518705441 -7.441302097551686
-15.99110800618194 -178.27393128224892 -7.505319776372256
-15.955833626129772 -178.05023749606866 -7.502395423595483
-15.571595511126302 -176.2184108014313 -7.47178871434359
-16.221765948035944 -179.0824704997832 -7.516015518211342
-16.184200266438836 -178.98442504938717 -7.514629422585202
-16.117001268286856 -178.68013150595448 -7.51106561200591
-16.154265078545656 -178.54714226562902 -7.510158215767748
-15.993298877088195 -178.15439189168677 -7.5039704123793625
-15.948535132418224 -177.93117343587477 -7.5008586186538535
-15.962792845958704 -177.57180078147047 -7.496816913451198
-15.639427658655732 -176.30619638782866 -7.474306821076962
-16.30303577048081 -179.16147000248262 -7.517574309601162
-16.154802854850928 -178.31456748553788 -7.50779467205134
-16.062340107202346 -177.76044543209503 -7.500472853868757
-16.008779066441043 -177.66700527579363 -7.498539683554308
-15.98044235590312 -177.44357914623484 -7.495376798889874
-15.853493652206213 -176.79871169513447 -7.484840469554497
-16.30095911031281 -178.36594805562567 -7.5102852109035725
-16.047504102124705 -177.05213905369283 -7.4912770332881475
-15.829213055824246 -176.32591809696063 -7.477459713913907
-15.94194194564143 -176.38474635346267 -7.480156995394578
-19.161251795414266 -191.58554557132143 -7.4208453569420225
-16.118833795837645 -176.4072546035614 -7.483096014908974
-16.179929683102486 -176.50270809765684 -7.485495837227248
-16.38227550625909 -176.64644790106698 -7.490542229520826
-16.75578870975111 -176.8184434567199 -7.498202528809602
-21.125320727102853 -191.2911074385656 -7.43883605870737
-32.42870818975879 -191.75555808303756 -7.485048294011168
25.36091403947847 -227.16564751692954 -7.326980100920625
24.838524175767724 -226.183736469073 -7.337476080775459
24.76375741294361 -226.35766203107758 -7.3472691582464975
24.402332043884392 -226.1470452107729 -7.367900351982194
24.084534341458358 -224.92513624602594 -7.356073126115578
23.41310698232349 -221.8052040595367 -7.313375739295161
23.243194351279467 -221.0554279745323 -7.303023664807101
18.443637694500044 -210.4830189441314 -7.345571064250639
18.483582560668047 -210.3811929446473 -7.340032963613989
18.334840755382757 -210.61338624466987 -7.357644373195682
18.380494923780738 -210.52493421919718 -7.352053758659929
18.10772142481535 -211.08305633298738 -7.3895516257905145
18.127827735075442 -210.90532379608106 -7.382127351640245
18.1085567195449 -210.6224211957839 -7.375528494719978
18.179482775500023 -210.4973288045519 -7.366131867355144
17.863580273367305 -210.8289136430463 -7.40041735551953
17.905488611383994 -210.7140473365045 -7.393236213872797
19.74177742966754 -199.34693725351636 -7.402465595954376
19.761485506435207 -199.28076983692833 -7.399076905586117
19.786474994460956 -199.15754503051335 -7.3934205769333055
19.570273321365825 -196.94274901728073 -7.31829007494164
19.175816270464274 -198.6147089511053 -7.3881198628751115
19.521774104000823 -196.68603934389773 -7.311249362680596
19.595495407090432 -196.56701487673342 -7.306401488845861
19.438571809136064 -196.77914468498673 -7.31572123277001
19.475092267139757 -196.6963040532327 -7.312569121821657
19.51818606573046 -196.59754982641024 -7.30869845720408
19.342885747740397 -196.64377574478578 -7.3133494043327225
19.4341100716844 -196.581446002101 -7.309899312229149
9.51317983162797 -226.85372642717388 -7.387800245086527
17.024188113316832 -189.9189634096782 -7.309372911754038
9.379290932578677 -227.00891834555222 -7.399112586759182
16.833979562814463 -189.97018087070796 -7.307894277118995
16.868283205473595 -189.73375645388543 -7.317180495378174
16.844203962638286 -189.56680045872466 -7.324377067205933
16.670654113905563 -189.74572489603653 -7.317350473901202
16.721092782922202 -189.47599708685917 -7.328956789932364
16.794475248156832 -189.38548301578925 -7.33285049389823
16.579852031514413 -189.8211746667172 -7.314491391932821
16.578771416403665 -189.73637522567773 -7.318038538969882
16.61966554785152 -189.65916313675953 -7.3212219473134
16.609950765442157 -189.53421297620844 -7.3267864019262925
16.65277139168294 -189.353161990351 -7.335064210871904
16.42643333665486 -189.8705736727202 -7.312992236467769
16.557176797824138 -189.59588713845588 -7.324205204740199
16.554199206748667 -189.53859254660202 -7.326845450551633
16.61039664535223 -189.264916660702 -7.339546069183677
16.300235731182052 -190.00364505318265 -7.308082556300447
16.341547337248148 -189.90560319147738 -7.311801515774056
16.390914926667648 -189.70174983621132 -7.320196097827589
16.49817813498201 -189.41647722032553 -7.332743477095084
16.266600110245278 -189.97374581580297 -7.3093235264965
16.279999821453803 -189.93574158707125 -7.310812012225962
16.38223744418344 -189.49699584546605 -7.329496623247285
16.35303978009807 -189.39085248708196 -7.33470836209522
16.36128519313318 -189.30194571125674 -7.3390724638745475
16.375977868980964 -189.2386338270308 -7.342188430689832
16.319344549533632 -189.27620693493697 -7.340575822510415
16.302816499162397 -189.21415289377762 -7.343859757451683
16.20512871873212 -189.21836581221007 -7.344246255007622
16.224449718263678 -189.1635829978701 -7.346994522073061
16.245569456156847 -189.07929762304715 -7.3513635822026195
16.063676809831694 -189.1176049891787 -7.350544213539592
16.123352338584155 -188.91166693727266 -7.361618372979104
16.04766775301331 -189.08604030150246 -7.352389519866323
16.085777109098863 -188.85752619155048 -7.365071638000022
16.115897288440195 -188.71607111723554 -7.373199341693385
16.09274769951133 -188.66848794119966 -7.376320959458819
15.928541483057348 -189.06567859394514 -7.35438637215277
16.00112085766773 -188.82624502887273 -7.367644169010178
16.048723168381724 -188.67471638017338 -7.376342173702416
15.82311637821229 -189.17062906917965 -7.349305085854711
15.740187513637693 -189.16637749248733 -7.350170676998674
15.754543700660799 -189.0347237281176 -7.357506427083828
15.597786143718263 -189.34044719812786 -7.341615259516377
15.708114176208834 -188.77752187496574 -7.373399280117524
15.723380971989023 -188.54063878915525 -7.388372550616539
15.550572282619765 -188.8053513393468 -7.373266812057067
15.59916592435892 -188.6182066131979 -7.384747125736903
15.508030872055347 -188.81152423095855 -7.373321946433085
15.514044282700091 -188.68825923379714 -7.381172666980126
15.533303571021158 -188.6027530614061 -7.38653245322306
15.302354416507722 -189.27936203241003 -7.347114851320553
15.399420763934883 -188.54463552074165 -7.392126849148945
14.296595772543284 -193.75018486718594 -7.325630834680666
14.257714778062834 -193.69263063950754 -7.324431371367924
14.30146994070055 -193.29544990768304 -7.308324479016515
15.283430542267366 -188.67513378862031 -7.384813831476993
14.211489005353297 -193.62821978718983 -7.323046751131908
14.167911844443838 -193.55804222359808 -7.321447439021381
14.174581030996862 -193.39894894068433 -7.31510138253946
14.236716794041278 -193.3556612988881 -7.311985715040156
14.286854396713496 -193.31000219938065 -7.309192317854047
15.181490465867647 -188.74058538642856 -7.381691258194092
15.183198941895704 -188.68633407504052 -7.385351781676558
15.19562335153854 -188.4135821393544 -7.404214700058218
14.127808686354193 -193.43735230945225 -7.317773741332285
15.114248142821381 -188.69052681300516 -7.385973156769125
15.156775427511912 -188.46621664297558 -7.4010238674315065
14.990609523746791 -188.82936831012773 -7.378165934080198
14.960609353878876 -188.72851244487876 -7.385419284372974
15.055902222411701 -188.47527712234697 -7.401947828121842
15.324818655301307 -187.13368006671365 -7.312235533134771
15.32136971110057 -187.07568215206328 -7.3159842179735834
15.316989993179302 -186.81351526429967 -7.332548437860458
14.78823637980467 -189.11335246861012 -7.361901216821177
14.874470085101096 -188.7208024631649 -7.387179256850471
15.20334037600711 -187.17113050082125 -7.316195859517851
15.246938367016275 -186.91304163360175 -7.330003857786912
14.781260564773584 -188.51313734369776 -7.403647328521288
15.07893867010706 -187.1970047702692 -7.321048744965729
15.129104370365747 -187.11188938796474 -7.323716810344891
15.068233768790318 -186.98735238920415 -7.334787547029998
14.643685235855111 -188.9312588101417 -7.375785704242255
14.638950521527537 -188.62731486498288 -7.397566063296041
15.007136782356303 -187.25885981212298 -7.3209424371567575
14.994338003173564 -187.19482647045032 -7.325599213883981
15.00564110873771 -186.97186637522535 -7.339105020423106
15.04562924319764 -186.90250517393628 -7.341401606784006
15.079414940524739 -186.75141058081667 -7.349277179835748
15.12800786040571 -186.66854403508827 -7.351960328714132
14.498285510217212 -189.03116354455696 -7.370864807873001
14.52003876787634 -188.90569209637835 -7.379301418924882
14.600650166539921 -188.60333169846683 -7.400023609557617
14.79827645275689 -187.31893306894062 -7.328161912451512
14.903227152748453 -186.89140958134317 -7.349846977931635
14.34526885037738 -189.07857354038683 -7.369705621410175
14.447856784512847 -188.9277727919297 -7.378814573241954
14.420996527054628 -188.80726601452096 -7.387931914603762
14.418724593351953 -188.6977740158804 -7.396111129513081
14.8098455996249 -186.93945347076743 -7.351840292828642
14.836070243706766 -186.8623149912611 -7.355428000346026
14.332153334306415 -189.0720651676504 -7.370321051680381
14.653881551680865 -187.4434473724717 -7.327941668827814
14.751867580768625 -186.8797938909746 -7.358952835984695
14.737972173628291 -186.7970666166326 -7.365184487140996
14.711711003689736 -186.74064130990962 -7.370382507049305
14.780380854797725 -186.6109794977676 -7.375113566531595
14.824010131126588 -186.49346147189962 -7.380465876698776
14.486089757533701 -187.54859420099172 -7.330235012577018
14.523773249713472 -187.53194496355277 -7.329262572199506
14.626552062168047 -186.95833711708983 -7.360780518676496
14.660698986212589 -186.8618073396945 -7.365233345444621
14.670606603641382 -186.61059293180924 -7.381413376150082
14.736160742836148 -186.55784975797513 -7.381196549218773
14.392121236188782 -187.56875127080636 -7.333994333792417
14.586113700140778 -186.65903448180106 -7.383047650237333
14.572820992391541 -186.60735871638227 -7.387298848439572
12.948383099043985 -194.0367644739371 -7.391244502964878
14.00031241272736 -189.12196761615616 -7.371742285467755
14.327994740503765 -187.60344056399128 -7.335232093267021
14.521347014679343 -186.57501824701615 -7.392500933789201
14.460216904605828 -186.4813883710473 -7.402524209465065
12.875678363311936 -194.07255356770702 -7.397059929119754
12.908985094854149 -194.04144606399757 -7.393523201039026
13.880271118288555 -188.87867566494876 -7.392371235409748
13.738764852314983 -189.03548548730433 -7.382881655786147
13.795142096398296 -188.956964829402 -7.3879267760138605
13.857319648020088 -188.74255281365154 -7.403793796373224
13.861436005667205 -188.70112732217612 -7.407089884262806
13.694119862822987 -189.07046014909915 -7.381056854829975
14.06519088141901 -187.09613287298447 -7.383848390469564
