ply
format ascii 1.0
element vertex 837
property float x
property float y
property float z
end_header
45.65622784598755 -230.94855290533718 -4.198903126027615
45.59174246830459 -230.9101060084134 -4.2030006225698635
46.24852707254381 -228.00737226172214 -4.220107054800749
46.20120578370691 -226.7342178115463 -4.245140598196559
48.45468578205374 -215.14145285474456 -4.247190116818674
41.11923859062427 -248.54803763992106 -4.148414402378398
48.37721620315557 -215.2202829428228 -4.249196297492947
48.380581320645234 -215.1177396302629 -4.253099208699107
41.00685310807782 -248.5003831395218 -4.15520253262838
47.44577629591747 -218.7820074468566 -4.153493162104592
48.23036223512495 -215.3822057376951 -4.252500036134893
40.89547419308322 -248.51236563985478 -4.1614090032837705
47.33040162675733 -218.85010763091748 -4.157887284292288
47.369062042272596 -218.8117772560014 -4.157136504692011
40.78177875245147 -248.64199512149858 -4.165346355826539
47.233074112922615 -219.0470209503608 -4.155040768378166
47.241625600595206 -218.9539522915461 -4.158844339192622
47.28339595376919 -218.88199595191304 -4.15947935136412
41.712479973257075 -241.0030751790133 -4.24105837401035
39.10540834869898 -252.2439578289865 -4.1990953131646656
38.99008127550867 -252.10369731483863 -4.2081844553242
38.86641086212245 -252.0988141624192 -4.214986214430969
38.73396022957262 -252.16295347465424 -4.221654497968354
45.041330620340084 -220.11764701805672 -4.2438501820930865
44.84593679679214 -220.3854210267 -4.242664383040962
44.87390979990824 -220.29257321115094 -4.245571536212532
44.91866755700977 -220.19417723151523 -4.247692476426242
44.96300282237864 -220.11365845219424 -4.248940345405174
44.39380265125483 -212.73089979665755 -4.170149130467859
44.29657197750659 -212.69684450461654 -4.17920894494261
44.24221108976009 -212.64661548075955 -4.1820389490335605
44.21040172393668 -212.58396715944824 -4.181292878224535
44.199977486855595 -212.49717149304618 -4.176394152300107
44.96450701740575 -200.61998643785537 -4.214815277761356
44.90457913379614 -200.64767428456207 -4.21871425757151
44.81202300793447 -200.56232911108972 -4.2217449740309405
44.77509512754732 -200.4546099719931 -4.221211946278933
44.4867734160982 -198.03850455398273 -4.190205955347051
44.56372884692875 -197.93575310754795 -4.1841546920005905
44.38836569212527 -198.08242357869892 -4.195475087488467
44.29453310356843 -198.07092865805063 -4.199475634913112
44.204235500077495 -198.02416478887952 -4.2030428937626745
44.12078308862159 -197.94036756508663 -4.205541172100877
44.07454623067975 -197.77656971567825 -4.204120894741516
43.95648018416798 -196.33447144591653 -4.18189883894296
43.93829980638809 -195.75664109296014 -4.1721297899593885
39.286122756028725 -205.86603712000877 -4.175914275354157
39.317849807632506 -205.77704323627583 -4.170681668542703
39.205052190154674 -205.9641507177194 -4.182182603266692
39.260846144829586 -205.90459431798018 -4.178071232221885
39.10850828777559 -206.01515514991235 -4.186233142458592
38.99277331815941 -206.00770848178098 -4.1876904143223275
38.895259064412656 -205.99538328640523 -4.188433043277434
38.81661367813812 -205.9331853415343 -4.1862896323339
33.77497868045976 -208.10338365831478 -4.250852306544071
33.51912679090771 -208.4565107269154 -4.25397897734501
33.534772176697 -208.36500624408956 -4.252190642940516
33.44463219117638 -208.46999157812854 -4.252283755238572
33.42722192482391 -208.32437365376651 -4.248287202569748
33.29009544694095 -208.65285705191465 -4.252434734124028
33.33931554894613 -208.589615928509 -4.252328995854067
33.36902402138838 -208.5100688972058 -4.251304783139758
33.20789983722879 -208.68782439401045 -4.251008361128564
32.92990366731722 -209.38739710909934 -4.2562815787075765
32.99312268706094 -209.11979545000116 -4.253434762098402
33.03930360547999 -209.0313859428551 -4.25320498505886
32.740888801958 -209.63625555994767 -4.254187443419616
32.76222399317314 -209.6042307805622 -4.2540625741288025
32.65947975445819 -209.74821920192414 -4.25293342617152
32.630669878565506 -209.6584301088375 -4.250984144462579
32.9238217346352 -208.58576422682492 -4.241441716339939
32.91367387070692 -208.52778667186666 -4.2396420109688675
33.447252067424174 -205.9985954831129 -4.179367426219599
33.47653139122149 -205.9622473126768 -4.178283771647308
33.49512279800784 -205.84449594120701 -4.174618668384515
33.52230984043918 -205.62631443964128 -4.16727374995466
33.556419318885325 -205.55719597942525 -4.165362349224862
32.49847532835625 -209.80964390076824 -4.248276572702754
32.541796758673094 -209.7671550779495 -4.249356713786661
32.6697143366882 -209.05649778239794 -4.242677284029446
32.72820426281088 -208.9994774859741 -4.243419900568167
33.339324282991 -206.11654664669305 -4.181708991470531
33.37999587168095 -206.02493048781744 -4.179193882597161
33.4718253355321 -205.67568466766906 -4.168251566985572
32.29497961721162 -210.48500891596544 -4.247995742111991
32.310009555176684 -210.40587705262064 -4.247949757674212
32.33895566025693 -210.03629909483485 -4.245813808423785
32.4320612357338 -209.81397638852314 -4.2464883989054245
32.53593570112169 -209.2362669322085 -4.24174387960981
32.58411266665903 -209.0455312452914 -4.240311553444
32.25193041726073 -210.07785510587317 -4.242998063881638
32.34179739022862 -209.99262265154684 -4.245103838168525
32.324386757748805 -209.79428371134426 -4.242328486113516
32.46363730365411 -209.3316862396517 -4.24092414529526
32.449973936439385 -209.24846873651953 -4.239445114442744
32.065462800793505 -210.45345524726037 -4.239552323088761
32.13921066186933 -210.12888564823683 -4.239637131730589
32.357007611540865 -209.4306051590844 -4.238777329403657
32.94219901216926 -206.42529035042529 -4.1855396432501175
33.00881229772888 -206.3982069253634 -4.185685173808831
31.94218029589824 -210.50023290035918 -4.235182456571828
31.98916243821605 -210.47961265320495 -4.237139235410725
32.18397812614914 -209.7553775404822 -4.237571113892656
32.638678954619834 -207.52839355355385 -4.210280965981694
32.85430143854349 -206.49922520498808 -4.18625673921678
32.87677342663409 -206.4572358678711 -4.185555699476129
32.93246585348661 -206.22068041835115 -4.178867151934381
25.540309621349227 -239.8131235705857 -4.218747614745157
32.59170779227721 -207.40021880740258 -4.206239103866948
25.42390541108561 -239.79799279292894 -4.22447309468362
32.274099085363645 -208.2701968486963 -4.217214528110284
32.284315634839544 -208.19642400672126 -4.21624120696541
32.523072191787826 -207.24874653561076 -4.201084089201977
32.53843553539067 -207.2017844796575 -4.1998842365234665
32.50814979862582 -207.11297166730148 -4.197324801641608
25.244071685265258 -239.87225275244037 -4.229086069414089
31.57526208555796 -210.4477841560904 -4.221801434468159
32.38460508373768 -206.622765102688 -4.181724247120476
31.42242094455687 -210.6464707145222 -4.21692330087029
31.507879972659225 -210.52774952192212 -4.219477408279726
31.472737911022783 -210.3239816227355 -4.217168921183983
32.29252663203316 -206.85403822966057 -4.185453490387393
31.358250420659548 -210.6851815880969 -4.21442221759236
31.42140312002453 -210.4152095333972 -4.215558907663348
32.22754435877812 -206.3442334878249 -4.170540203800345
31.069185431764545 -211.21847618525612 -4.203843079537879
31.08188591074824 -211.17821342605816 -4.203993835646733
31.265638501275024 -210.70991688280665 -4.210766674824603
32.126841220668155 -206.31370048415113 -4.167520719536713
30.992154554258637 -211.32122302236766 -4.200176461447736
30.975319753705186 -211.24642118732942 -4.199830059013937
31.03409940362466 -211.11173299956113 -4.202538307545193
31.026241419573882 -211.0391857335205 -4.202048351037071
31.10717802959594 -210.72761619327858 -4.204719058581849
31.166713559157493 -210.70868166448872 -4.207362622890377
32.036911452502814 -206.42653793881027 -4.169075320342263
32.08017286023747 -206.40086515108314 -4.168931753097558
30.8892155085815 -211.32495810677443 -4.1964171367399405
30.91871876709522 -209.08544412550376 -4.187700264228528
30.90840597253766 -209.02543264463023 -4.186281017976165
30.253591693389172 -209.15468699035907 -4.165191320902984
36.26212844913272 -181.17960463072959 -4.179710370769818
22.547842246503055 -242.7132196512168 -4.211764078148493
22.560822648649182 -242.49971142766327 -4.221655671470324
22.493028324963674 -242.40253626855224 -4.229104802777034
22.37017448530199 -242.37861130659564 -4.235887308439226
22.079709607463503 -242.3706748913726 -4.249047028295692
20.579312581821583 -245.626166408585 -4.159120550139058
20.96814647192812 -244.0471074064943 -4.217492885099771
17.786233571739075 -247.37287919116042 -4.198255267746239
18.25895559629 -218.45207459546432 -4.261107898947426
9.533301717395801 -228.16291629564103 -4.167491144962331
9.615347496901727 -228.00597407506964 -4.174828562595306
9.593086544105894 -227.88886322438861 -4.181064752277219
54.754949152483846 -220.8816592013534 -4.051275800355369
52.782134758706704 -220.93736754736534 -4.115105951991119
51.12092443316566 -225.52758076163178 -4.054287856394737
51.057072358999775 -225.55810311807502 -4.05612158648463
54.267920349261466 -209.6156240398029 -4.053973471005026
50.78130385255787 -224.9376950924115 -4.081499740154658
51.07046727398466 -223.2594366397743 -4.111134804340379
53.845430096937896 -210.18688971749629 -4.064073561158337
53.85422178827804 -209.77706381307627 -4.0754639442394875
50.573360229916716 -224.12427835170084 -4.108875935425977
53.5867245447955 -210.4142883318248 -4.073768118692875
50.57506544631481 -224.06822633642483 -4.110128378269094
53.07793486288588 -212.07693954076007 -4.055126682402238
53.07632898538652 -211.99372513019296 -4.057890618464012
53.14885010436427 -211.664068142403 -4.063635164277969
53.32360051377581 -210.72884303615155 -4.081124779430639
53.35595462205522 -210.596976238602 -4.082983758087813
52.91510050721865 -212.2180769194112 -4.061090514451918
53.24196014975416 -210.39010903550036 -4.096335795204959
52.79221584080909 -212.05323375659913 -4.0742724406101445
52.86399966602801 -211.8999696134161 -4.074534192260234
53.16969420265432 -210.56568650360745 -4.095717999610214
53.21864467633385 -210.2100253983338 -4.103063464378822
52.71055972636179 -211.91707449062122 -4.083835193675916
52.79075257421762 -211.84654552836497 -4.080922392567226
52.931386408619446 -211.0443972650432 -4.0965913105742695
48.14865285910234 -232.4818641197071 -4.048218143288912
52.70565406562549 -211.7694502119097 -4.088795332063759
52.751321398993625 -211.30039364285142 -4.100325372160398
52.66577983943069 -211.29387678142123 -4.106008689557106
52.710028941158654 -211.23040270007527 -4.10508290435323
52.72844640142151 -211.1781223304982 -4.10551867049425
52.68039768102593 -211.07101240049352 -4.111772134744865
52.5042513081798 -211.19545293686355 -4.119277617744818
52.703606641598654 -210.2849237144281 -4.13340601341851
47.418347966284074 -234.13784228521408 -4.055267238147384
52.3718724645549 -211.12687746455455 -4.1297269581657075
52.53260084856525 -210.32924896366958 -4.142872431262441
47.337094271190146 -234.09465874827075 -4.059914841614382
52.082724189630255 -212.27032711635727 -4.113054914152128
52.41136731853897 -210.75697866579452 -4.13814811853723
52.20257344520154 -210.94793387078295 -4.145774505640457
47.40752050277115 -232.77173055993234 -4.079557857548201
52.165763293998715 -210.79325014753925 -4.152626682480502
47.15095756526678 -233.67783049621949 -4.076605644671723
47.01611533219796 -233.92251969304525 -4.0789993041075165
47.03632556941352 -233.74915200209904 -4.081131700175203
47.06319314879474 -233.60279661892366 -4.082142310830303
47.491338526728825 -231.32579072015122 -4.100718337803461
45.74170558350572 -239.26745210022702 -4.054080081195069
47.22167304127839 -232.377320754335 -4.095501277778999
47.357033402524806 -231.46235818767946 -4.105002213434348
47.42038955414668 -231.29737360035733 -4.104808538528441
45.64857420497289 -239.20479166588927 -4.060128775246986
47.02125224111231 -232.54198673645053 -4.102604926500378
47.3273007335224 -231.54603676817933 -4.104859426800457
47.24517048780277 -231.4825721789094 -4.110139316199573
45.51890207199012 -239.1714438643957 -4.067362166444021
46.17660674925717 -236.0048182409554 -4.08669875511813
46.58719291598033 -234.36239517849575 -4.093204817071529
46.69902591516013 -233.73726437344237 -4.09819830654584
45.40100069529121 -239.21863849290617 -4.072633646732451
46.10020514259372 -235.98744557936976 -4.0907636162679175
46.20123921413948 -235.7652451901512 -4.089270298077229
46.63046609212022 -233.72575679929443 -4.102036528439394
45.32791307928127 -239.29334395947762 -4.075355090925794
45.879677835326895 -236.36114430867315 -4.095985434005396
45.956856790145444 -236.19323214617387 -4.094866390524072
46.041784584946285 -236.0640436153594 -4.092708068797567
45.68042936523276 -236.92803497918464 -4.0967085718314955
45.54536897710544 -237.0090960941743 -4.102327615639565
46.14808281452983 -234.22133707593503 -4.118099609797687
45.43553048614977 -236.7877179926964 -4.111895968382927
45.6705666804873 -235.6004753056688 -4.119790994859459
45.5776303781884 -235.474863808358 -4.126570990978505
45.42217282760225 -235.80963642240272 -4.129073219476551
45.51443025519374 -235.51831358376694 -4.129226967506918
41.65667232051742 -251.19409623205905 -4.074545577991411
41.414358844497336 -251.1040608874915 -4.0893929585589435
41.28765946001483 -251.1712727713672 -4.095510341508168
47.779766261179006 -218.78883669818038 -4.131239994480501
47.660206168867454 -218.76359467978156 -4.140260993217112
47.58117558349406 -218.7700703528231 -4.145152588494583
47.392702285275085 -219.40496704922643 -4.127765961069032
47.322197374846255 -219.3312322253614 -4.135851298074403
47.499979475484466 -218.76316650805862 -4.150800104484167
47.276046491897915 -219.26201707594385 -4.142121005524346
47.26103294255637 -219.1885320500318 -4.146558950764853
47.25064371538498 -219.13117527248687 -4.149943288793513
47.24653754079175 -219.1041686891027 -4.151470298491113
48.09869117789553 -215.10298973557317 -4.06192031103711
48.07294089228008 -215.074860170035 -4.0654722305966855
47.96992545459677 -215.02733005314616 -4.077549556888192
47.925596559957114 -214.97229415545675 -4.0839120221250145
47.88840290793518 -214.9063442232132 -4.089866009615824
47.88913401747309 -214.79291125574375 -4.093501641246979
47.9264906711 -214.71273987853027 -4.0922705956063945
48.00584250433743 -214.64298061066492 -4.0864681405695515
47.87086599481154 -214.84819021273395 -4.093598709473244
36.88509879408408 -264.5189029705448 -4.119915323756054
36.72573816546613 -264.40892370333006 -4.13045109518504
45.552227410708674 -222.9528924648656 -4.070217322517692
45.25321171775359 -222.88265874365402 -4.092002196449684
45.27439597469487 -222.8644177956832 -4.09168101054148
45.101307399542236 -220.18314331820184 -4.053252320731168
45.00089050812586 -220.16469758161716 -4.062966991638648
45.04174838434406 -220.16039173861253 -4.0599393335899165
48.44834848462158 -204.31089799243563 -4.0618834233697125
44.82906151324897 -220.44367214109874 -4.054624509737373
44.89499533631981 -220.28695952264528 -4.0618632072520136
44.94695053681101 -220.18162831426787 -4.066023141646275
48.359927714989894 -204.33349949743243 -4.068324653170289
44.820105840280505 -220.37271647827913 -4.061031255811825
44.82413163032079 -220.3076914544974 -4.065921882815996
48.27276803102182 -204.30393220859983 -4.074109599012999
48.173701140814174 -204.2472318579344 -4.080346979867189
48.108749443329984 -204.17711745987157 -4.08409515760098
48.07546788433834 -204.0863923561157 -4.085243638487502
48.07042675717136 -203.93867469331923 -4.083720848966729
48.06913998549822 -203.83551401780616 -4.0826456953291475
44.49262184587474 -212.67317111257893 -4.154755570954999
47.06440571428774 -200.7643027810712 -4.103960332192793
46.90894093368886 -200.89706030663277 -4.1150803190868395
46.99900936137935 -200.79147891966443 -4.108529252683704
46.797347032973576 -200.89140119064868 -4.1213456123813215
41.31059171687341 -222.99545536158672 -4.06087595692577
41.278294042095 -223.05395742982643 -4.057349301268137
40.996592166596855 -223.24195170312638 -4.054617626931185
46.48956708081507 -197.70009067751124 -4.082989979895491
40.89560107734081 -223.21516915254597 -4.0615893142114725
40.923946212750856 -223.1257592172426 -4.067985427007044
40.946271525693625 -223.061821338199 -4.072481328677142
40.774916728146295 -223.30481801309142 -4.0594440813396835
40.86036052699328 -223.12219683695585 -4.071198604216136
40.66912398853231 -223.297806437646 -4.064814974368181
45.00883496567302 -196.6497555822368 -4.138452412269514
44.85408293600199 -196.77486044370164 -4.148287811220568
41.49159793252569 -209.4056355059056 -4.08093554990203
41.54205049334383 -209.33608598775865 -4.073355044270048
41.602411835696586 -209.24010951949097 -4.062998738056766
41.425567602407355 -209.4217145881942 -4.084280861409676
41.32359564969793 -209.42481841208087 -4.087220082122869
41.224961717827284 -209.37400057405273 -4.085138798189773
41.15290681145077 -209.35801978730188 -4.085398228383539
44.490821933301596 -192.24182205718566 -4.079082926676989
44.07582112991202 -191.25784180802304 -4.078950199668251
42.195868671942996 -189.80790561650727 -4.13111909851002
42.10958705012426 -189.8418966818913 -4.1358935915050665
41.74674299735015 -189.88917688474385 -4.151389455256364
32.08686084296572 -225.93594492781298 -4.0953936673806925
32.113937379256114 -225.80755980614373 -4.10421891214972
32.08191230639628 -225.70126380478138 -4.112420915405996
32.03904210754335 -225.64023561230206 -4.1176293767796945
31.996262466198885 -225.57719847129744 -4.122783271547256
31.85570759903998 -225.5441493632399 -4.127659429817266
31.951162913350046 -225.5199038660611 -4.12755997139623
31.760024155083894 -225.56787781209567 -4.127465474072212
31.781268202762213 -225.48233350998177 -4.133300003690413
33.52239189551871 -205.4425781759972 -4.160598518780757
33.46725157269683 -205.3014101167019 -4.155125086028466
33.54627577637927 -204.94772253860933 -4.143123308136154
33.459992885265436 -205.10877890242378 -4.147950919882488
33.50022034571988 -205.0430295811151 -4.146129202465453
33.511047328458936 -204.98076943634794 -4.14370138634669
33.38606129312349 -205.130250793255 -4.147747527595766
32.105693615144695 -206.15959229816252 -4.162533436399086
32.042820046383746 -205.8210077273553 -4.151099148334509
32.059597847733 -205.76729508181788 -4.149977699744987
32.009188053020054 -205.85775658828888 -4.1518733679366395
29.790587670612027 -213.40332588247907 -4.127577075392848
29.464599202948506 -214.5753122616741 -4.086421074930693
29.52257742636465 -214.4926576880171 -4.091257978516671
29.53340130927178 -214.40573187940504 -4.093955689050355
29.53101588262605 -214.3165405466099 -4.096052979239028
29.69694488243663 -213.51883845608694 -4.120768349359964
36.737681591208506 -181.07368612669075 -4.162340893630205
29.350411089477717 -214.65392246310566 -4.079036362751301
29.478710983246565 -214.24374365950968 -4.095608793649987
29.609517108712037 -213.41275998265758 -4.118794909966348
36.60096958748632 -180.9839381935293 -4.164244173608926
29.391462751887744 -214.18697478402788 -4.092499453285966
29.923324080345346 -210.27836119222903 -4.158202000738373
29.89760650209231 -210.2144702713286 -4.157551343139425
29.804302845529044 -210.32801243084594 -4.153636694794558
30.382055544501114 -207.65602593645912 -4.150978489496129
29.24760849545676 -211.6713995989395 -4.126326232397592
30.79512175327725 -204.7377067538923 -4.0957423798162775
29.144402410926944 -211.5885554714759 -4.1221579567576985
30.71189789038992 -204.7341869632754 -4.094398816615669
29.119348815955412 -211.53049127007336 -4.122010091701116
29.12707252270691 -211.48243863770116 -4.122232721093167
29.120997136563435 -211.35490231901298 -4.123097670112899
29.03463505034203 -211.4000673334103 -4.119374191168021
20.17700720587502 -246.84818139335638 -4.117887763882668
20.071629888170463 -246.7782346265978 -4.126194826451755
19.944149877244193 -246.72879610958498 -4.133985130260603
34.653571588164134 -178.08259954950745 -4.172612628275579
27.579284292785985 -210.55729992364522 -4.063623775961716
27.63458236897718 -210.46496250277485 -4.066396271010825
2.945869712721546 -218.03148192516005 -4.0940515663672725
2.818548131898858 -217.89754069019673 -4.098778642987118
-0.09023480966425268 -230.32301346436728 -4.102667904886456
-0.19999060877018593 -230.19952264006753 -4.109428736930391
2.1693141275607033 -218.3519639961217 -4.072654161196075
2.151181179632829 -218.21802495124462 -4.07885749939902
2.2525260571386596 -217.51728733293078 -4.104895275129313
1.239340028115656 -217.69758126384264 -4.087375409918392
55.16982520483461 -221.79740601278755 -4.007046717048534
54.43172449254283 -224.51640767615538 -3.9535666461355645
54.2425945951117 -224.22888483011076 -3.968269918749396
54.15631190131885 -224.10753830091298 -3.9747080104814154
54.1884779410694 -224.0676469989653 -3.9746412881057065
54.64963386205958 -222.0405715618439 -4.016950232228794
54.584905126478304 -221.9548155230594 -4.021763300823194
53.32453272073716 -223.6523883713705 -4.017359526613506
51.97790334636633 -228.7234900276853 -3.9482225378888023
54.54317987256142 -212.08893583294056 -3.9594404164250188
54.284107128684965 -212.71753783796078 -3.9533808237378816
54.41770039817942 -212.40730761955624 -3.956045953976614
54.17072954889174 -212.7900976738402 -3.9580165388256106
54.24159816826401 -212.549663374427 -3.9624168863578624
54.35745384041122 -211.05124397051028 -4.005255810207969
54.37951547115164 -210.9928987253031 -4.005625861118063
54.32144760269202 -210.9420404763672 -4.01093520273897
54.28352106910709 -210.8832526365707 -4.015192893190018
53.61620443427057 -212.41862316324813 -4.008337498328621
53.652330442830205 -212.31756313281295 -4.009638876082624
53.76033660354575 -212.1543391737814 -4.008557465775553
53.72654247045151 -212.0309080596374 -4.014768231642031
53.80013665871015 -211.96093386100952 -4.012262090084192
53.620923174328254 -212.2434823079885 -4.014411410637176
48.39730158246196 -235.25103659011873 -3.987113529456539
53.41948738116259 -212.34871273356168 -4.023986806537587
48.34262065070146 -235.31270616227846 -3.988902390093033
53.27325092579025 -212.22534030034106 -4.037721574858443
48.517984212306615 -233.69368870870525 -4.008873604143062
53.22323709135088 -212.06942440222957 -4.045983192534596
53.26646961361291 -211.96835642654025 -4.046434973101338
48.43089481162813 -233.6356455873718 -4.013994926607632
53.004847984349055 -212.35601806353787 -4.050829631892076
48.32406550125234 -233.52916549344076 -4.02123406338393
47.77725522571864 -233.74307957056513 -4.044139303986661
49.96701078603602 -218.49750614126737 -4.001560466324073
40.92091698239166 -259.7717456533895 -3.9725175708397815
49.931373383119016 -218.41173803690577 -4.0078175761500825
49.96522286899585 -218.31844405767538 -4.009862454924102
49.928932820179625 -218.2036372717253 -4.017525985244496
49.97431250263978 -218.12771584904297 -4.017997214136737
39.98227179375782 -263.86416450660204 -3.9568581804313725
39.8460269880572 -263.2172543347352 -3.9748633933215514
39.421160568455996 -264.7733011902888 -3.9726209029624315
39.660358339674936 -263.54841253704296 -3.980020391309667
39.24156349967972 -264.8792425999284 -3.981228210712768
48.817076104744956 -220.743057332717 -3.971723110176447
48.832282719441054 -220.68260492364584 -3.9736034250490926
39.06606266438482 -264.9427838889416 -3.9896318181898414
48.42258946661177 -221.3157892053834 -3.9699194638528206
48.45309767215516 -221.22818899261236 -3.9721635867101694
48.538027340966174 -221.07414805977805 -3.9740494917062192
48.539023456728444 -220.9648636692295 -3.9792091542763735
48.547443996504846 -220.87921318924933 -3.98274844460272
38.890249616490166 -265.03374416309083 -3.9983067251373035
48.42486559535531 -221.2612504757765 -3.972395595160435
48.478535251311705 -220.77307063560846 -3.9922787996509608
48.48874432818212 -220.67445930988367 -3.9963109697751977
38.71562690521262 -265.13022794312377 -4.006139643427895
38.54218988776983 -265.19411744025933 -4.015154630235402
38.368119536079746 -265.2654419530149 -4.0233962971558626
38.191205175421054 -265.2958124242027 -4.033183460923569
49.82276515234689 -211.73273685092923 -3.9677118349878047
49.69806114041424 -211.75154780467 -3.9791754127043206
49.622556517999875 -211.6910006682464 -3.9869387533446226
49.579855422505126 -211.59380552816359 -3.991982556140165
49.59573093280707 -211.49916653358434 -3.991496246625048
49.61273819038012 -211.43763522950195 -3.9905515371938725
46.69575980433259 -223.9201766319231 -3.9511047617894235
46.71465230466782 -223.8864371732625 -3.951675798155334
48.394594246476174 -215.40520740633818 -4.020819752867028
48.434262894586034 -215.2907065074221 -4.021064753873878
48.44319177096389 -215.24700505818268 -4.021767729341078
48.46983268033916 -215.12105258870693 -4.023563546672541
48.26942883492722 -215.60744997950286 -4.0257370974753695
48.24308269946467 -215.5338083383884 -4.031259041560379
48.33000777909253 -215.40998470163396 -4.027201839473436
48.208924867992785 -215.5677114606044 -4.033451807392308
48.23354763603375 -215.1067793135343 -4.0480364814754335
46.14997839566993 -223.53515497814772 -4.004159226025343
46.17238368787942 -223.48164567671162 -4.0054388621062404
46.14662312489211 -223.37103772952997 -4.012629269299331
46.04426274825882 -223.51607691911843 -4.011619763034741
46.142912757695655 -223.239331152349 -4.019466964621822
45.813608125186256 -223.9254538479993 -4.005182748645914
45.971444039787315 -223.4174409467511 -4.021093237742887
45.82944543475602 -223.35808801046088 -4.032784186180418
45.853085860860034 -223.3095764918926 -4.033796184315172
45.76667492919512 -223.53581258723926 -4.027704342435777
45.74637914208471 -223.4239826853305 -4.034530783349848
45.54971925764474 -224.0906721302072 -4.012924858363892
45.652297329172555 -223.63944163224014 -4.029420967866734
45.641068356793255 -223.4756659512593 -4.038370805569469
45.647724243146506 -223.35154155359362 -4.044224813381898
45.36788537497971 -224.1779117079759 -4.019511214603616
45.39149185875283 -224.10970652074312 -4.021505951055779
45.442087286691674 -223.99042036677534 -4.024497141565099
45.51170215736785 -223.7281565004937 -4.0335417454710925
45.58616001897034 -223.28781254422893 -4.0512592668810905
45.31253277112095 -224.1640157997877 -4.023598970746239
45.378910285450445 -223.99444025872273 -4.028172498991109
45.43476376612452 -223.7365680368853 -4.037769895313964
45.2167314034037 -224.03823883381756 -4.035743645735122
45.14958242389822 -220.20657569702547 -4.047408623032393
48.554659799508755 -204.20962787792763 -4.053100365242634
48.78018406960298 -198.59298250958506 -3.964321362065997
44.45705090815937 -212.71020614481873 -4.02161740237715
44.37844026015842 -212.74042751313408 -4.035360706414936
44.29173456170881 -212.7033101337929 -4.043687245488169
44.23758459793376 -212.64461777872592 -4.045252247635384
44.20700295847234 -212.57950245580147 -4.0428224446475856
44.225709671217906 -212.43963441282943 -4.0264328547129065
47.28645362703424 -198.19996150024554 -4.04835414358495
41.31009919887629 -223.33736409622372 -4.03133873031293
47.376439854990835 -194.92453793975315 -3.9856407169688017
41.18997510233128 -223.3505444903117 -4.0360260667512415
41.16104241487214 -223.27251929667952 -4.0441771470918155
41.23394179163507 -223.2052694448344 -4.046488149901204
41.08689169111526 -223.24735979672886 -4.049882810252857
45.47870931327025 -191.70012649042548 -4.0230486067637505
23.511225240898987 -229.08061798356545 -4.008501327628706
23.527864544037698 -228.9692238681288 -4.015233183321307
23.498761447250796 -228.84248236933448 -4.02380673989096
23.41372184463977 -228.75690773043507 -4.030368957369336
23.301166236096226 -228.73787736750018 -4.032653663834016
27.270000075066225 -210.5341664907927 -4.050630147964567
34.966022059288015 -171.71481697248612 -4.044349608409546
34.80182911849356 -171.68110487175767 -4.04795155930748
17.785692554218937 -230.8338261021663 -3.9606574038286224
17.718196816672513 -230.75832192201875 -3.966186413673915
17.603086627813195 -230.71148093410233 -3.969893107666384
1.9926116284198372 -219.35028334838273 -4.033533221793387
1.9668513315305844 -219.21122906195185 -4.037328734139882
2.139755397329651 -218.48697932976052 -4.068425785723519
1.546618339896611 -219.1020205117638 -4.037871268058032
-0.3191822517591163 -219.09574057583643 -4.014511798300336
-1.2661622563720485 -219.7759133931789 -3.9768479227363884
56.09425277908206 -225.86740783966496 -3.856340744326973
53.72586929761126 -229.66714789190993 -3.8553602709514143
53.726479826626104 -229.56997194423838 -3.85743480016885
54.77720146823535 -224.85833382920652 -3.9317102495169656
54.68928742594487 -224.9260675017078 -3.9331070253672293
53.48655389975181 -229.8672816450265 -3.8607268892571787
54.405180799787935 -225.45679953777002 -3.9295861145921456
54.438484815168756 -225.3487902232424 -3.9311660710226204
53.40930486969571 -229.4810535796406 -3.87246321680371
53.48272176887441 -229.1871380766222 -3.8759764982105374
54.34227177490199 -225.33932378726624 -3.9349855382975125
53.31041549849943 -229.55201748990382 -3.8749710705786127
53.326137707555844 -229.47459711942216 -3.8759655187460935
53.212470148869926 -229.72625453791312 -3.8751419279693264
53.332201658609264 -229.2931571555272 -3.8797202738901575
54.00149573084953 -225.61534443363735 -3.9406064280956725
53.05698619512481 -229.63037051031964 -3.883738291408535
52.81174019534798 -229.60705032463724 -3.8943824765931234
52.814128931763015 -229.51647257999872 -3.8963029750544584
52.5287463495115 -229.73503765410155 -3.903554758264678
52.66058334253109 -229.51177455195375 -3.9028090972383813
52.48507961033774 -229.77767096040787 -3.904412545817191
52.29178452317791 -229.92437817681198 -3.9094741840919496
52.37719247190965 -229.93892290953215 -3.9056243834010953
52.391133717841804 -229.80363425212332 -3.9078600179737113
52.2275122027074 -229.99390186712614 -3.9107771874882746
52.06564470104682 -230.4492314529043 -3.9081820548152493
52.141106608876505 -230.03201910785214 -3.913690332659256
55.79021175047868 -212.52505581061487 -3.8610028003318115
52.23748368236526 -228.6888541450681 -3.9381495647544096
55.339679105336536 -212.68420942397526 -3.884673277242276
54.72973042916246 -214.50489675517574 -3.855138355157818
55.19616638606143 -212.08595650687587 -3.916342828213375
54.79863792583319 -212.95719933641595 -3.9103846122394263
54.9125193258173 -212.1687012003425 -3.9321713918607792
54.62199448325377 -213.04526555425355 -3.918607086354223
54.71820521178226 -212.92846361181105 -3.9166301205798097
54.753001180884645 -212.36077792915276 -3.9354791734517804
54.694362298541066 -212.49515394518596 -3.934466638812263
54.41898582409087 -212.81950003870108 -3.94051364051537
54.40101187601317 -212.6434924643556 -3.94826373644886
54.33259346427187 -212.79472072629807 -3.947299595751453
52.916788026655894 -216.32286480097923 -3.9015369844416687
42.13573628801134 -263.59545687596795 -3.842090306465822
42.61555208201974 -261.70894925503416 -3.8475266986128167
41.970519392987285 -263.6112445907962 -3.8512152103557313
42.45115971013922 -261.62648223272004 -3.857549646561527
41.80260547090396 -263.81043748784026 -3.8567854001726207
41.68118380503041 -259.9138305459568 -3.9285469347853974
49.04824355783147 -221.92077706748591 -3.9004958433846335
48.92522011984465 -221.87644220523038 -3.9105635549623683
48.705930728561455 -222.36713283496314 -3.9009647328018504
48.75749582220876 -222.1043354675669 -3.9103598749003874
48.770487080036936 -222.07298815180502 -3.911052375855835
48.83173735431714 -221.8773866017283 -3.9165348904720156
48.60287629332423 -222.3997277653668 -3.9059694011340795
48.622256507482014 -222.37482070440686 -3.9059530132345075
48.68154048221146 -222.23037466512613 -3.909145730398051
48.738997267884 -222.15280405485314 -3.909214295928404
48.74595997164064 -222.00873213638963 -3.915720978840323
48.761678493869496 -221.93972609077622 -3.918045242293548
48.574823240769405 -222.41613929949676 -3.90698443719147
46.93035514435616 -224.0010146733998 -3.932561972265172
47.87389442994288 -218.83697869684124 -3.8961547744021594
47.78232338077665 -218.8148112372775 -3.906405409152066
47.656382915494056 -218.78530222672003 -3.9204697745787422
47.39717826349866 -219.40953195304414 -3.9047208148374493
47.57455307631722 -218.79082950711535 -3.9280408224208183
47.3551067355809 -219.35467290746703 -3.9123735759139686
47.32844669664483 -219.29788675131226 -3.918674560002348
47.46165621116242 -218.81484865307183 -3.937420573881122
47.301074829631055 -219.24193027574927 -3.9249850591384967
47.28678048298472 -219.1681019256305 -3.9312348042617087
47.29135808752506 -219.07173854324333 -3.937145048110425
47.30814714976198 -218.9699301602242 -3.9421868808257448
47.369910045002655 -218.88481393531754 -3.941768600362683
48.04404173909364 -215.0817006608094 -3.8580296836866483
47.98268535118853 -215.0383906680486 -3.8677317281047556
47.92844041401023 -214.98487917222485 -3.8766913533189697
47.90106282572949 -214.90668995766413 -3.8826065489297235
47.89655236964878 -214.80433155865944 -3.8859631116812916
47.95400304744122 -214.71966994409718 -3.8803411629525875
47.980145525334734 -214.65109139483258 -3.878506952872139
45.21909135312441 -220.1860206345741 -3.8557302339461406
45.12073765063526 -220.15879584174922 -3.8688293964803653
45.00425197293521 -220.21312069952475 -3.8748660896214266
45.04582207257184 -220.16024564416063 -3.8763650601835535
44.81363946657438 -220.54153022939306 -3.857624343323576
44.83198544371487 -220.48016573293484 -3.8626567274734707
44.85552647099829 -220.33695070276855 -3.8761985909530132
44.90232451137966 -220.29330906354252 -3.8763509511335883
44.94104903397802 -220.21665163339642 -3.8808647863598567
44.785171508793155 -220.58810676618924 -3.8551806829530886
44.82388512173426 -220.37339587062917 -3.875286139279848
44.46081092614386 -212.7158605382819 -3.880384007193267
44.35599938806096 -212.7715928787521 -3.904062405837099
44.386926559073196 -212.75039934444644 -3.8964888328092577
44.30530913970014 -212.75264907277986 -3.9097564303754866
44.270463913697746 -212.71088839704493 -3.9099528252087348
44.22209576346519 -212.65152651490274 -3.909825961599927
44.185983148675845 -212.58394942748504 -3.9065391768640887
44.196759029769765 -212.50050513221234 -3.894070193093556
48.696608577203456 -192.07590239439557 -3.864296796570226
48.57171388601482 -192.22001883465828 -3.8730791229266153
41.30703039252477 -209.44687289912787 -3.859674538753938
44.51709783262808 -184.08445459498648 -3.921915114084669
44.39205810305845 -184.23581489088676 -3.9296264278367903
44.276051080269625 -184.2718669562799 -3.936255906599597
44.163660217430326 -184.2845972560733 -3.9406944552750676
44.053142050682744 -184.28372946833576 -3.9463069418442593
43.9456776324082 -184.2614776821042 -3.9497812030482375
43.84227710805717 -184.1776580197517 -3.9534239282714436
29.071769381548286 -243.86516307955685 -3.856734403849725
28.893747998419784 -243.9894467467248 -3.859178585347103
28.724481354832342 -244.09307856784727 -3.8617995227329485
28.574608785245328 -243.90841043535747 -3.878082187810698
28.468401884254373 -243.8836366864974 -3.8845362864781743
27.9978838264405 -244.59281633383293 -3.871172635839024
27.794345966242588 -244.75107732250981 -3.87309211896903
27.735632633348338 -244.62362694407304 -3.8819672473243987
27.679032398635545 -244.49232645098184 -3.8913658055017843
26.807222191807405 -245.95593536306734 -3.859306123742055
26.69473159658842 -245.91649997195927 -3.866758573391458
26.575309014006024 -245.8910057786609 -3.873370621096745
26.529708082449908 -245.7231369651504 -3.8840481812919956
26.289457609031302 -245.92686047686914 -3.8849256778693246
26.278445339400005 -245.6949241158296 -3.8971438309165225
26.031535280124707 -245.9123048266831 -3.897644480347882
25.95557116140474 -245.80797591812595 -3.9065683899155337
25.881210065380788 -245.69039517860944 -3.9155885918718174
25.658953548219795 -245.84241914607207 -3.9185993024735826
25.55324743246692 -245.79333991583388 -3.9256848769128796
33.15672041444719 -210.5837732565721 -3.9121162789903154
25.471764737227808 -245.700086439047 -3.9342878420696574
33.10327477688361 -210.6160308851248 -3.90937905928869
33.13132179580741 -210.24772375041496 -3.900941107293958
25.35766199551569 -245.66600347952257 -3.941006276305328
33.07136422756343 -210.3415198361955 -3.89961758365083
33.070730716677765 -210.27559382003307 -3.897798443877344
32.97173755618574 -210.36762478379924 -3.894022578704303
32.98675498621712 -210.11397832729506 -3.887461647409365
32.97788870785015 -210.0642558463478 -3.885719135000327
33.080056631093285 -209.4452393278657 -3.8705684061884913
32.93897040164321 -209.74281251458427 -3.8727521924818022
33.069666403878905 -209.39081563704218 -3.8683096014663256
23.735562302705286 -209.93871066791075 -3.9053010499548466
17.79045475992168 -231.88600015769094 -3.8957313630648573
17.766652852767344 -230.96270129024538 -3.95322320090752
17.194449258194705 -232.0415658107997 -3.892449531823505
17.051576867499247 -231.6367565006575 -3.919008347254121
16.90777740805498 -232.102795165977 -3.8913946277833142
16.953860465106708 -231.94898505371813 -3.900732228621281
16.84751755280355 -231.89003726814892 -3.905197570932216
16.563838185651935 -232.57149067503477 -3.8658293934969934
16.74835395329947 -231.71028028054312 -3.9172987305331017
13.08938284489486 -233.16133963537678 -3.8646070252652356
13.029765477073934 -233.05717678412094 -3.8717354046915498
12.917970604470295 -232.98960336415604 -3.876540206801402
12.866566091535141 -232.8859830050942 -3.883525874240987
12.814296661243521 -232.77997208398568 -3.890036211956812
12.698679986966305 -232.17042912800127 -3.9274197075511967
12.541727975572023 -232.12621251853017 -3.9310612562799294
12.484604586561517 -232.0262731592556 -3.9376663078195424
12.451277489435377 -231.91057637061965 -3.944401973747597
12.097534781418982 -233.053944688343 -3.880437433684691
12.100277350117253 -232.8446716141474 -3.892677309592815
11.92445943936287 -232.73630074892426 -3.9004587816075262
10.472705478208372 -232.8377882222839 -3.90695546409001
10.437822742147233 -232.72167881810077 -3.913676691768117
10.355178584090922 -232.63001696417086 -3.91993343906472
7.427775472517894 -234.01884784725328 -3.862712180229282
7.520831860612276 -233.81690788445704 -3.873895679368002
7.419287305932073 -233.71636237483557 -3.880106116607739
5.510507888955317 -233.74726932306262 -3.892371701220041
5.181313951799318 -234.2278219277768 -3.867736103263301
2.7933319780152956 -233.90689859835445 -3.9021770508492937
2.8362402690114834 -233.72181505042352 -3.9116755326619597
2.5324403793741013 -234.36151214293378 -3.878958183075437
2.482670467154243 -234.21675018832295 -3.8869042705074452
2.6209327455406637 -233.65375241052567 -3.917052517729208
2.4678036555884333 -233.55672051464728 -3.922938138337427
56.56441037531089 -228.67968960152845 -3.766240529809899
56.489907277126754 -228.74810813801813 -3.7673934446792106
55.76546809421218 -230.77762753114513 -3.7476555851524638
55.37738986142539 -229.10068581772074 -3.802057175182348
55.01242632889174 -229.4725443726815 -3.8077799367801175
54.725385705316796 -230.13273507137885 -3.8041902102715905
54.783595726283686 -229.99812607717124 -3.8048882695326793
50.45779946720583 -243.24036132330988 -3.745795276350985
50.34514133426559 -243.20348162863905 -3.751799020689909
55.282547037803795 -216.14196763975437 -3.7515885643935416
55.33578478382449 -215.86811959397403 -3.759417797771929
55.13782720266936 -216.3655969789031 -3.7520224050547064
55.188990228965395 -216.27703197937626 -3.7523267963526994
55.205148228082024 -216.00540311179896 -3.762580327240519
55.184085306514994 -215.8688028681078 -3.769644147156068
55.217634345606236 -215.733182619574 -3.773012898936437
55.23508083521641 -215.68724987462573 -3.7735894484679227
55.80599512943223 -212.82239149399612 -3.8487809228846284
55.11812557588743 -215.7798619390186 -3.777562219182247
54.551641180346365 -216.86605428005325 -3.76987262009872
54.93007267982951 -214.66342277814763 -3.8355146971611966
54.65749513037657 -215.23794260765158 -3.830479938594707
54.668655913421055 -215.12739122182546 -3.8342857978926155
54.872408097161696 -214.62635925093875 -3.8406828084211417
54.65114007028852 -215.1724661842507 -3.8334826430395204
54.74112285021019 -214.72406687894053 -3.845509759856123
54.56637647346625 -215.02609668098032 -3.845110711257668
54.24573963453437 -215.9546417220951 -3.8284239876775366
43.609185321577165 -262.94763795038887 -3.772882648238582
43.44610690991155 -262.9925820509371 -3.780652061338139
43.11798154468829 -263.04876543941987 -3.797548122414434
42.95799360695179 -263.2038985913071 -3.804010618135637
42.79787515672532 -263.26650206866304 -3.811373031488851
48.72497105720922 -223.47081116723987 -3.8459742857388415
48.45690921567891 -215.64600046269177 -3.7819584861879023
48.50919534289309 -215.43322072933714 -3.782776541914117
48.557989535271616 -215.1468101896494 -3.7858747444729985
48.29414531373643 -215.7709353014249 -3.7993825676688813
48.38073417229013 -215.5952696928511 -3.794396797592781
48.3565676018897 -215.5637206446602 -3.79886502261231
48.44115175266638 -215.38307845863866 -3.793840104559308
48.41988414354922 -215.35154726899418 -3.7978952198380433
48.51860579455075 -215.10697322403323 -3.792446541126524
48.209455244796544 -215.74070321796657 -3.812178212313258
48.24223947923689 -215.69711948960406 -3.8094100284037866
45.70966527542011 -223.30680480945765 -3.752926927323135
45.18968368094992 -223.6323690057069 -3.764973012430529
45.23236037941016 -223.58318348122157 -3.7659264837128394
45.36810582209928 -222.84367056842387 -3.817075162786774
45.41133205457254 -222.77718143695188 -3.8192275440892827
50.95875477294237 -196.41640542048611 -3.7911749581863083
44.83610977731783 -223.85508542175137 -3.7719690673806947
50.78632210816067 -194.2402294158336 -3.772830463553804
49.299334060914504 -191.84936903779555 -3.8268887924325767
44.3657979795544 -212.77930359586833 -3.764244926593477
44.28112813841709 -212.7642192039813 -3.777148788665789
44.21036080190307 -212.66873934535388 -3.77456570347168
44.17400596525323 -212.589774526444 -3.768170827291275
44.17087116748805 -212.55685625326427 -3.7633732169368113
41.29760348588849 -223.1832859838225 -3.7857398794785393
41.35433202797842 -223.13943661599424 -3.788463346215752
41.20595453800942 -223.19311953658433 -3.7886246297727215
41.10035121245313 -223.21499847563783 -3.7905619009787426
41.01184741602463 -223.2023922340752 -3.795831148883523
40.96701229530809 -223.15339825000825 -3.8036580606678854
48.202548191918154 -190.07304524165392 -3.854882553087062
40.91115692424797 -223.1686497015408 -3.804098727620945
40.91855555240114 -223.1305506729333 -3.808349559130786
40.883756552087085 -223.03914237366882 -3.8208457157756532
48.12509579679689 -189.99750818019638 -3.8582582547265694
40.83585484884009 -223.01872557999826 -3.825213699124351
41.52017784449438 -209.31727355660118 -3.838782580057468
41.56992830003388 -209.23127152330116 -3.8267553969661745
41.4280282016159 -209.41583386795241 -3.853239453649804
41.32021022570975 -209.43181738030327 -3.8576366756811966
41.231673798339 -209.3957677071375 -3.8548950907564574
41.16598341959022 -209.34448967237932 -3.849808697733506
41.11803263177945 -209.2634366274069 -3.840746958492368
39.2934604309004 -205.7982809485072 -3.803685535000234
39.14213765424773 -206.038348204184 -3.825006546731906
39.19516577268539 -205.96745162747234 -3.8188636885812337
39.26201169239684 -205.88402575462274 -3.8113227109200714
39.08297902549846 -206.02742079250055 -3.8245131037698274
38.99459132391128 -206.04638993849107 -3.826542232842842
38.890200888112005 -206.01193692562484 -3.8239872405632127
38.81360538407263 -205.95553678521918 -3.819382109971059
39.612302387090516 -199.22018476796958 -3.8187496449373706
39.561392425741076 -199.27449112360884 -3.823460249071905
39.401434662519925 -198.82865759444113 -3.8038177515369416
29.12066732850412 -245.90709792898656 -3.752247014931634
29.00281039324561 -245.89083975529556 -3.758927211227249
29.20212813464695 -245.15745585276585 -3.7859151710630883
39.13742040458233 -199.21032885473306 -3.8310772761388825
39.23952980050022 -198.77042689588063 -3.805241130309806
29.079353830954076 -245.157823195554 -3.791974349067631
39.017023881145036 -199.20613585638898 -3.8336107683748732
28.961687583982947 -245.1468845334439 -3.7979046203430884
29.16527265436805 -244.17247525109778 -3.8369482684429768
38.94692116442231 -199.17061025947686 -3.8338907565289615
28.841241754954055 -245.1408728290609 -3.804158158056628
29.127490392743955 -244.0011429042413 -3.8475174222507245
38.490807372270375 -199.27085174362605 -3.8497902179737755
38.364689608689844 -199.25410215849348 -3.8516844182881522
38.578316635114646 -198.22931474444192 -3.792640260819633
38.30692652907791 -199.26948702233628 -3.853325418785567
38.44676027446476 -198.20341023949496 -3.794336199835565
28.11808570075354 -245.1042512927057 -3.8402589092051773
38.32290723039291 -197.91100301150252 -3.782227494151522
33.01301398522071 -209.3020726859262 -3.8613619871316054
33.03097233260711 -209.26678829227407 -3.8614209046540466
33.14402430111514 -208.73546128467584 -3.846344666796895
33.17570923217848 -208.66205582028275 -3.844952895072057
33.20731049174762 -208.55956250440394 -3.8420355848713443
33.20053578042108 -208.50161187784823 -3.839477449004434
33.10748347856199 -208.53042026908597 -3.8357994356725587
33.1925442547992 -208.44242980795505 -3.8360828588339984
33.14826708665024 -208.325624751554 -3.828705131373673
33.15514104573184 -208.1984215508594 -3.823114345284233
33.1934106307204 -208.016718805748 -3.816616156850671
33.238167914865414 -207.9748993901381 -3.817045119668278
33.12906626394994 -208.22904618309678 -3.82351626664171
33.08925378319291 -208.0331169083216 -3.8121083512427325
33.20232865449714 -207.8589992034746 -3.809886850503816
32.73885301643247 -209.53940673579527 -3.853941943404259
32.79247601470846 -209.0451947606744 -3.838921203955734
33.06510658102579 -207.95730924983326 -3.807702451012136
32.788950971225496 -208.53337039688955 -3.8183069045893916
32.36770288870356 -209.95881837629838 -3.844095120809139
32.44176112245936 -209.6766538606166 -3.839888160586121
32.69754678711593 -208.82402211581748 -3.8253113264531815
32.70405818915842 -208.77873527596427 -3.8235419750198107
32.71763959034042 -208.6878923230296 -3.8206955901832473
32.74635531059226 -208.55543960920875 -3.8172632961824777
32.19245182156206 -210.3580940951165 -3.842992860223089
32.21779173861859 -210.30629697656042 -3.8435688328196047
32.21208687365111 -210.2128111308581 -3.8408167254168077
32.40974671509526 -209.60807428394222 -3.8360985108194807
32.37522484446901 -209.48877494494104 -3.830119997683565
32.3925907934328 -209.45142603604904 -3.829588659199703
32.47353880907136 -209.2870779413891 -3.8291265972894384
32.55003725408645 -208.61164213463934 -3.8086054020053597
32.12860265241325 -210.3893648789163 -3.8396859712340694
32.018322105232585 -210.4233431895867 -3.8331553350797245
31.92526399211186 -210.4408621342625 -3.8274983750789446
31.17660788284952 -211.16611670445073 -3.7883203306428523
31.296168646815985 -210.69551293955834 -3.789309150382973
31.313360810265568 -210.6342560959608 -3.7892035130096193
31.388701238150198 -210.48527521691443 -3.7915583298535713
31.409614469841628 -210.40382545270427 -3.7913546549981962
31.299506345152366 -210.51014034603878 -3.786093279969634
31.31093832264566 -210.3998487299273 -3.784911278206002
31.138111954154194 -210.50163086856102 -3.774982015764885
31.024409522446874 -210.65906176968903 -3.76965540201737
33.714868096020815 -196.7991175667017 -3.7916945591765168
33.77412912565423 -196.66824690565974 -3.785344870482322
33.59853115080814 -196.88719654202978 -3.796559665744226
33.472289384171376 -196.87098155466325 -3.7962888660291796
33.39517408643623 -196.87774506725003 -3.797496511894175
