ply
format ascii 1.0
element vertex 835
property float x
property float y
property float z
end_header
-37.908675932658184 -90.56953810311472 -6.480446054481801
-37.96384687696457 -90.47180155434461 -6.47855433160239
-40.27742168598475 -101.6802171371484 -6.493383326909068
-40.63049790651538 -101.16529951447939 -6.399382624918265
-40.54293259510743 -101.10381495861388 -6.406269792503426
-40.545429071052254 -101.03231146269613 -6.414735758841455
-40.79630705283195 -100.93701156864714 -6.426589057854294
-40.76902471221744 -100.89907633310146 -6.431090306825242
-40.84632892997749 -101.03838027638999 -6.414545376532508
-40.82360263666502 -100.9677978202653 -6.42291781131751
-40.84695797155036 -100.76994325176891 -6.44626336501861
-40.85353444486569 -100.65423527446366 -6.459951439335785
-40.901082578733686 -100.64563234722978 -6.460795189178201
-38.672329387194075 -89.57350284706766 -6.462772732789488
-41.09225715764895 -100.89028396506885 -6.430784532277235
-41.039711405549696 -100.6992642194195 -6.453687159209012
-41.001543362165776 -100.646504261478 -6.460185000811354
-40.964537952070906 -100.539840193351 -6.472988980205579
-41.146238037884466 -100.9628165459144 -6.421766917693578
-41.146154083232794 -100.89317548322896 -6.429952617140251
-41.158421193643896 -100.80644026375487 -6.440045523309841
-38.92727435901315 -89.93224518308746 -6.485789790015644
-41.23368853415037 -100.67483517080505 -6.454640948217296
-41.15821060609412 -100.45688512980561 -6.48110370594545
-38.95825603732682 -89.70982944162665 -6.476411554103577
-41.26004851439799 -100.61244102636307 -6.461622717688479
-41.24768599549641 -100.34473984247823 -6.4930841440701865
-41.26587505087597 -100.30308351216607 -6.49768140100274
-41.322797737143226 -100.323421985501 -6.494422332923868
-39.21816519770581 -89.64178097698787 -6.479418566198536
-39.0023464282361 -88.97559523804541 -6.443942294253123
-41.45941026908357 -100.3235221803542 -6.4918544696168
-41.445111413452054 -100.26454967504185 -6.498993601258097
-41.57812743842958 -100.28990148099923 -6.4931251268887475
-41.57720054539551 -100.24665050226994 -6.4981167927497365
-41.45170840829538 -99.9061416415302 -6.441283476838947
-41.47169431500804 -99.81977136460212 -6.45344334554558
-41.60323929891356 -100.07149807743367 -6.411420464308256
-41.544675075692865 -99.98895803637043 -6.425783245528007
-41.594190644880804 -99.91445496489503 -6.434922983239067
-41.57443761714179 -99.79052784106776 -6.4538986504642155
-41.577264011007294 -99.72133972452086 -6.463936136439071
-39.491207559719925 -89.64982729165206 -6.485415649937465
-41.692265109963024 -99.86488284981877 -6.438120417424818
-41.66421841047252 -99.73929090851158 -6.457602214164633
-41.62690362174922 -99.70232448367156 -6.464579929422198
-41.78209866066058 -99.85519801746794 -6.43543819752069
-41.73665831108812 -99.7160860390592 -6.457615076638383
-41.679202236273504 -99.67577134583824 -6.466120289542564
-41.85086585642149 -99.93177583579241 -6.42115314507429
-41.84872565570037 -99.83142864735974 -6.435590756614273
-41.851962123788105 -99.74822254238185 -6.447274890900468
-39.782690903735705 -89.38377262302977 -6.477914120850834
-41.94835322305578 -99.89619519403149 -6.4212924972761956
-41.92893734855309 -99.79687731962403 -6.436345525513645
-41.94618561639754 -99.705838667828 -6.448173920218318
-39.766056889345194 -88.96563713975519 -6.4578766419904206
-39.578420643187464 -87.84482132970055 -6.402284971322309
-42.07063665746106 -100.00157160261661 -6.399855306777158
-42.0246295545305 -99.77616377829834 -6.433945658532239
-42.049899356415594 -99.66932962233011 -6.447229485478074
-42.03739574229034 -99.61076369352283 -6.4560297800034165
-42.01603835558285 -99.48345635856721 -6.474753955425978
-42.0931712355092 -99.54869959202566 -6.461006639694607
-42.09534263981362 -99.46016668432425 -6.472755961056939
-42.08863624562568 -99.43501244259846 -6.476598987111836
-39.93886950218259 -88.93895524222823 -6.458683336752793
-39.73646666478029 -87.76185335809515 -6.400363965599636
-42.151621298637345 -99.3895306704343 -6.4783320883621425
-42.158665602023596 -99.28073419668868 -6.49207130142275
-42.305852996747326 -99.58055799713613 -6.4424214333393355
-42.31354869513246 -99.31364561019406 -6.476311297481087
-42.285740436003294 -99.24871057932012 -6.486663668184205
-42.285366186824234 -98.93429292312051 -6.441553875370301
-42.56753352359885 -99.76308294578581 -6.399785535754561
-42.39436383162385 -99.09575194326598 -6.406071338849683
-42.36831670368854 -98.93066701344766 -6.432879011420406
-42.35505496970125 -98.82760949305703 -6.448915952257854
-42.309473619144256 -98.74874138629448 -6.4652097455394255
-40.298674105524626 -88.52602042495582 -6.442249377776241
-42.522902297205285 -98.87730551734535 -6.4224139492075025
-42.469566937855525 -98.79014712446987 -6.440572135747923
-42.475813582669126 -98.59583355732006 -6.4651490821072315
-42.40158193258585 -98.48865349496837 -6.4263067432649095
-42.387509909814554 -98.43049148074448 -6.434357492336811
-42.56824897102705 -98.94158596408707 -6.408272287071955
-42.56752640108104 -98.83556401922101 -6.42265665483251
-42.555297631386864 -98.78602725643182 -6.430697369785953
-42.528335650032574 -98.6914165799871 -6.44632674366442
-42.5205329726221 -98.57942777731787 -6.461469128529789
-42.48825086791368 -98.47908459828895 -6.477936513235317
-42.4775146566848 -98.39385453886746 -6.474015838882444
-42.463350843299445 -98.30263178490803 -6.456938838693355
-42.675827678685565 -98.63002771221831 -6.435126292019285
-42.58171988087027 -98.57880813751355 -6.45363304646378
-42.587602595550564 -98.32954063594637 -6.402111229494098
-42.581744480258365 -98.28585010659104 -6.408537543686952
-42.67919231468511 -98.34276468552162 -6.4675182366880914
-42.63609795404386 -98.26727939800546 -6.401561097155073
-41.50761613702861 -92.35476380843369 -6.449691920279957
-40.88023557343815 -89.38336098466826 -6.485807576102917
-40.72143270116554 -88.621088565094 -6.4489581639834785
-42.75567399463071 -98.32321559144788 -6.458857920343342
-42.756454425101936 -98.23166410396384 -6.467992524787967
-42.76546459351272 -98.08106134629618 -6.480955294992535
-42.748687164206245 -98.04509766123591 -6.486645888208818
-41.55211050512927 -92.35060294030102 -6.448563465429237
-40.96674949887635 -89.26437314631721 -6.480176110420348
-42.89616189442251 -98.35531800744708 -6.43562219665303
-42.87794685231946 -98.29561423553935 -6.444176933894703
-42.90802103556679 -98.23679445675917 -6.445596425076119
-42.83931825418327 -98.13789250863599 -6.464894987450854
-42.8157679623976 -98.03699983953862 -6.477346800941499
-40.99724796190034 -89.21962004272685 -6.478035843795286
-40.84789508854596 -88.33531793261295 -6.435566482898148
-40.76113994800788 -87.72649544841828 -6.4062063769875195
-43.049035891719626 -98.48935367241607 -6.495932364188307
-43.01316364833386 -98.42506806479204 -6.411848666328319
-42.97357900219906 -98.30215914739479 -6.429742369810426
-42.949238269806074 -98.22062421067682 -6.4411004105097165
-42.96333934606769 -98.0659525129854 -6.452767901161772
-42.94165380247744 -97.98422912569751 -6.462756255944019
-43.005142236783584 -98.06088130307229 -6.446903754736098
-43.030006570395614 -97.99242195182708 -6.448665488366284
-41.16059810982459 -88.81606252697175 -6.458611878614809
-43.15022831597704 -98.3296711253131 -6.497955811400348
-43.11484964314104 -97.95506983787755 -6.4385920310006854
-41.34681315895128 -89.04792007996792 -6.469186766073515
-43.210895945926104 -97.99090255073982 -6.4211939741354245
-43.174215854938986 -97.9892983507495 -6.426935972368806
-43.32940295624341 -97.96615135582738 -6.4048117934442095
-43.27931967000969 -97.96187158010765 -6.4128398837811895
-41.40208819071559 -88.7459427761403 -6.454605156143083
-41.31614517355513 -87.84127987579154 -6.411763902895964
-43.37407546172892 -97.93823343610877 -6.399898315454143
-41.55200996599494 -88.71632967019478 -6.452493509490524
-43.59465302181569 -98.13339275179196 -6.46042572186502
-43.60193295566236 -98.10212350320651 -6.461599637285581
-41.60978690758931 -88.73872917131567 -6.453222512586083
-43.64543538941525 -98.04756218897681 -6.459785033300207
-43.6756532001271 -97.95514508580754 -6.461751543577291
-43.73922510101413 -98.21348529587078 -6.437971462983472
-43.74676894783317 -98.11620968895065 -6.443411253983175
-43.76742739611769 -98.01243557970093 -6.447301638528829
-43.679450467864726 -97.95613411220809 -6.46123240724352
-43.69632297691028 -97.83162635064554 -6.4661100906826245
-43.683256019372934 -97.77174229535244 -6.470832556631108
-43.576792847968285 -97.20799637456071 -6.403633884738095
-43.87224884746393 -98.02690167572004 -6.433796797157446
-43.790671878296884 -97.92624422200306 -6.449462899272152
-43.81119760963923 -97.85090361422806 -6.451068918349186
-43.68620519847617 -97.34245091509665 -6.488628310092492
-43.99036195459525 -97.99537227925697 -6.421334537205851
-43.897995649795384 -97.77637187009911 -6.444252784595014
-43.842387113270874 -97.58123196216889 -6.460117758066426
-43.8800337518675 -97.51277175419663 -6.458281315906271
-43.776520770984185 -97.38410958719736 -6.47594918168141
-44.03059894418816 -97.95848322919498 -6.418506509169158
-44.00246171697452 -97.86544948312412 -6.426939482028781
-43.99980985223648 -97.76427135902772 -6.432355428287133
-43.96195900994336 -97.63548300108583 -6.442993711421526
-43.93186129403251 -97.53961629031019 -6.4507708351327215
-43.95778338551188 -97.47606456790204 -6.450052734374414
-43.91850887177632 -97.40288394626616 -6.457631146608049
-43.87643911873318 -97.14892337071551 -6.470819835665492
-43.827099449226274 -96.81438558832183 -6.483591149490721
-43.783807272172695 -96.7200199224844 -6.489988252713658
-44.068201860836446 -97.8056914060773 -6.421926701405999
-44.09652164699082 -97.67667382016039 -6.4245397251626795
-44.017919805634094 -97.47210835842357 -6.442722332030602
-44.17531423583756 -97.42937107660539 -6.424747334648243
-44.06000917106228 -97.10313316757369 -6.44914271552161
-44.08523683651872 -97.0845860568536 -6.446459962575912
-44.03358983230841 -96.95770910116237 -6.455649604066794
-44.04976340383074 -96.82070049023143 -6.4559731898498836
-44.150878781694345 -97.0396936149961 -6.439338926225993
-44.1351581840442 -96.8955089577701 -6.444197017118536
-44.101064468420454 -96.83082892108402 -6.4494629374945225
-44.13321650356963 -96.71563775639858 -6.447001516314026
-44.12105603025129 -96.65308607699785 -6.449128155530283
-42.242655785301594 -87.85199296819039 -6.406106347297146
-44.31131721258601 -97.28479670964448 -6.412710349552302
-44.239986025571824 -97.17155870745867 -6.424937348907179
-44.20386329212238 -97.02488829305959 -6.43308910384072
-44.22652156343297 -96.84946937179629 -6.433646637939914
-44.16451550833667 -96.70230489842652 -6.443278543658651
-44.16516353585302 -96.62752483565515 -6.443922754606389
-44.36094254084424 -97.246680088377 -6.407707343230884
-44.367606196533295 -97.21498304923523 -6.407813171105631
-44.28138325578484 -96.58228886998644 -6.430007824149504
-44.28875826206823 -96.49607832769743 -6.429612578411717
-44.46284619363904 -96.99733540752044 -6.401496974372056
-44.33535097906457 -96.53940678901233 -6.4236867513529905
-44.35723871886575 -96.5158311320623 -6.421141830364646
-45.2132013343123 -96.09381744710751 -6.482260602273255
-45.125204110047584 -96.00748591009908 -6.490386801358096
-45.04172250560945 -95.50979952127929 -6.497674886779785
-45.07089126586518 -95.41850563797088 -6.4948216003316075
-45.287721363712215 -95.87787430743893 -6.476994877615177
-45.211026015400705 -95.56958572337236 -6.483728389372852
-45.15685730247317 -95.50932871233194 -6.488093425980088
-45.16579382208054 -95.35299493972755 -6.486631213751337
-45.321074823534545 -95.885641949941 -6.474106198982081
-45.27446799093061 -95.52827688788777 -6.478323970706274
-45.30038385871819 -95.50038088820244 -6.4760840638196235
-45.2104277323629 -95.3885855845005 -6.483137727546305
-45.220101107488105 -95.29321305717515 -6.481792854474918
-45.35595210371142 -95.46108985024568 -6.471334389682731
-45.31326293056208 -95.21505456930763 -6.473633717646434
-45.34472043069253 -95.18216523962028 -6.47081761122499
-45.42854758502266 -95.3767967896016 -6.464994688085195
-45.41804732020822 -95.13087176611091 -6.464449692277967
-45.51289577435202 -95.0690850412205 -6.456230509084756
-45.65187030836657 -94.68704679248611 -6.441201947636325
-45.69454944372411 -94.64331789822444 -6.43726589749715
-45.72715177820692 -94.51606979949034 -6.4330254314809014
-45.603037038543185 -94.3190746498824 -6.495314643536063
-45.88599465085255 -94.84723976087474 -6.424055115451155
-45.85791143853262 -94.73283285456301 -6.425233505305922
-45.73803972477716 -94.53228768926702 -6.432383036181431
-45.7165564885756 -94.1058065748879 -6.485840260712476
-45.892163852270635 -94.7899298921216 -6.423048269277677
-45.97219406887241 -94.69746452652072 -6.415689882630831
-45.931472835565046 -94.61308644370592 -6.418050375164295
-45.92472835369665 -94.50225230834867 -6.41725676646921
-45.907734931061974 -94.46514887419477 -6.418117964771117
-45.89900083085772 -94.37658558585785 -6.417575255233231
-45.771011150661685 -94.02349661978383 -6.48143587157101
-45.79866808144538 -93.94232625006896 -6.478874065011726
-45.776679943182415 -93.79081077081057 -6.479040820260554
-45.96744867804498 -94.61858637518505 -6.415243686883926
-46.00380052062932 -94.34397398015204 -6.4088886066100725
-45.81552331542538 -93.81658394679177 -6.476614447577897
-46.0934921553604 -94.50895431011413 -6.4039306724813505
-46.088644513544736 -94.39365603728032 -6.402885281405855
-45.91956508393809 -93.82589955269623 -6.469526274227558
-46.109426701860805 -94.21948520448888 -6.458790356973258
-46.201159997718726 -94.12998619541085 -6.451829630233952
-46.10456672027868 -93.6784143923234 -6.455477353890133
-46.09109182155501 -93.49365069209217 -6.45461703847862
-46.01430209685813 -93.14652692948574 -6.455479570338799
-46.044486211949064 -93.09408372040824 -6.4527808266570075
-46.29933682424699 -94.0359491649332 -6.44437652465812
-46.35394702278028 -93.97858176876395 -6.440150305924226
-46.4221012837177 -93.7482980627166 -6.433918681499284
-46.35629727159391 -93.36860027595485 -6.435294959342104
-46.32869294753303 -93.02823516567697 -6.433235386073403
-46.40199995987632 -93.21682724466507 -6.430600703625706
-46.3786904897908 -93.05388652949671 -6.430245521693508
-46.40269801357644 -92.87898009629671 -6.426381633627005
-46.34567928802588 -92.68395431556202 -6.427228201263599
-46.33792203673307 -92.52430436571967 -6.4251570565279
-46.512536751800525 -93.04825741712752 -6.421257968319118
-46.51284565240952 -93.00250578185847 -6.420687793180999
-46.430278888146134 -92.88891518508795 -6.424700670278251
-46.38403513950636 -92.56994891993037 -6.422977154918749
-46.56940102277617 -93.05242310303414 -6.417486551975928
-46.54377639881117 -92.65788670333498 -6.414057882533696
-46.544834636198516 -92.57354168621077 -6.412745530777477
-46.44480750861573 -92.38439951012182 -6.416074600392685
-46.573240502914786 -92.58370652922068 -6.411058757250504
-46.636703731917976 -92.18755332689736 -6.400654099493524
-46.601913702806186 -92.14661007082597 -6.40211385058222
-4.251047736111964 -89.12079851954043 -6.385236363408406
-7.130448172960648 -93.38751965331059 -6.30469632875225
-28.594986405709438 -103.10239985599245 -6.399093967632027
-34.29199697751588 -100.41716847340457 -6.365520687819369
-34.60309729641829 -100.46273194262321 -6.378862327981505
-36.276249532914576 -106.24647451802808 -6.397742272992415
-36.335300150451175 -106.24506612578571 -6.398462793934531
-35.56009045453855 -102.30139056938789 -6.310230484151541
-36.450078688989684 -106.33013782231721 -6.395949888908539
-36.39508243621752 -106.28237953219303 -6.397478187128556
-35.583489597583906 -102.3135832493813 -6.3102930502963925
-36.58287336634404 -106.42362027638521 -6.393198802999863
-36.51838652581891 -106.34942003674504 -6.395881018090463
-35.71962271748236 -102.21269548594299 -6.322851272508463
-35.821154826398455 -102.26719768789636 -6.323308591732741
-35.80215529247404 -102.19879389902286 -6.327146851921935
-38.835638836726666 -103.41878048805766 -6.3308515871904385
-38.805709816732865 -103.28583140698098 -6.340955449372172
-38.815177822462616 -103.25851668671676 -6.343420265201634
-38.96646817136716 -103.68431598549785 -6.311893716177922
-38.96973951095477 -103.61172118697338 -6.317775216157367
-38.920411860810056 -103.48867843453351 -6.326861507167698
-38.878408576375584 -103.35653670613544 -6.336769747319286
-38.90376902411617 -103.34524171063173 -6.338084449693791
-38.97287903470667 -103.30163170303902 -6.342945059128041
-39.33010783084706 -102.99494000912956 -6.374050952211148
-39.31348637902054 -102.92551642913993 -6.3793940140974
-39.29860600429559 -102.85431527725443 -6.384899116074741
-39.40492647496729 -102.84439212952857 -6.38751240598591
-40.06000586293526 -101.89838193027379 -6.307724369248317
-40.04390453065543 -101.83413116079528 -6.315027925615676
-40.12650424636713 -101.82884889791099 -6.316780604478734
-40.37352478362172 -101.92874047761599 -6.307579637438492
-40.39148894405056 -101.90592990342489 -6.310448012297413
-40.28721851421214 -101.58196942400667 -6.3477533724224
-40.23517418330295 -101.49488334706558 -6.357446684045146
-40.414630183541504 -101.93212556470814 -6.307507788099425
-40.44102893287575 -101.90069877586639 -6.3113944206945884
-40.359567839244264 -101.54803239508429 -6.352449261103506
-40.607824716930054 -101.27226875630512 -6.386630722154472
-40.61547770128363 -101.23846392882535 -6.390644764941677
-40.70672217124407 -101.20303694314258 -6.395074205342175
-41.07292447621697 -100.8182813563963 -6.3112919295846215
-41.12974688018735 -100.87028494647431 -6.302614544883792
-41.161391563444376 -100.80132268039287 -6.312701363610859
-41.089716320692496 -100.74571510596134 -6.322194454105746
-41.190544597770845 -100.75231197692581 -6.319731925445121
-41.203710257053004 -100.70937836361468 -6.326072949546599
-41.36359913816414 -100.84586254737758 -6.302207346249572
-41.33428221943914 -100.7393361897073 -6.319025748911923
-41.424236669729815 -100.80408029293741 -6.307175310698155
-41.52702510040558 -100.79393917236462 -6.306071459031475
-41.52225121241433 -100.6662568368054 -6.32541045581338
-41.47079017370048 -100.29860749222416 -6.382050591627605
-41.45201447448291 -100.26292457119938 -6.387954933520833
-41.517118120040784 -100.35728644032835 -6.3718764488650415
-41.51236928459328 -100.25612967253676 -6.387143994121219
-41.482060348294695 -99.8997602355635 -6.341221983130243
-41.49535151796111 -99.81039648422947 -6.356941615322767
-41.620806043747564 -100.05175117656808 -6.306990841020831
-41.55716147407378 -99.89266703887273 -6.339013785446614
-41.51872790985652 -99.82148040076157 -6.353811360726205
-41.703489926291184 -100.03537382414119 -6.305678936857138
-41.697815572122735 -99.94469645040128 -6.322283083296448
-41.70222733500896 -99.8720417372989 -6.33505194847885
-41.7444177413989 -99.86795863290959 -6.333324778742958
-41.758296073202665 -99.75923173365007 -6.351768932025509
-41.8600912872386 -99.81626411413411 -6.335256420534854
-41.85939255494725 -99.74113524114651 -6.348420614576123
-41.922876523680834 -99.79113338597341 -6.335416956884685
-41.939932866587796 -99.71511156636745 -6.347332434023075
-41.91466799963848 -99.66578303360339 -6.357651511945561
-39.336839244790255 -86.69877337903101 -6.344457248914589
-42.11020885443995 -100.05695790110428 -6.389893549738035
-42.09829487640359 -100.04519890374375 -6.39220095210888
-42.06299638575355 -99.82141917281731 -6.320121627692879
-41.996006634667324 -99.63410125902391 -6.357055659326743
-41.982428373203966 -99.5138259969634 -6.378447274106602
-41.99596196354789 -99.42972914501935 -6.37987681980949
-42.251607668418636 -100.15502321618861 -6.368182559283728
-42.19544590077998 -100.05047870526057 -6.385962190360595
-42.06777006425395 -99.38668366090185 -6.367847635146615
-42.073413089999626 -99.317356229489 -6.312211095317996
-39.692429408132405 -87.64777902542315 -6.3944118890813355
-42.29609110563722 -100.18718765660283 -6.361132051981577
-42.196739956348495 -99.42669849467815 -6.374639792761719
-42.161031203870145 -99.39864684035399 -6.382377998821697
-42.12224469099387 -99.29673760353546 -6.310825561662956
-40.53862341188495 -91.45193867139206 -6.38009288261964
-40.57752294945073 -91.33769790523593 -6.370836932007865
-39.79932374015898 -87.71988495994442 -6.399106196839044
-39.75660286898997 -87.62151036518296 -6.393933400163715
-42.33746871781304 -99.51639830943073 -6.347329210438442
-42.28160562247162 -99.47249885981994 -6.359511882502506
-42.17714115169036 -98.74729720936095 -6.324857822272685
-42.52768722566702 -99.8817958442597 -6.387255597204193
-42.50182122682655 -99.82505337392557 -6.396522211058586
-42.438328577648306 -99.63766531000442 -6.318622098523254
-42.35535570194086 -99.1419532635371 -6.311172016632513
-42.33487654154598 -99.05258998708068 -6.329558702094403
-42.2523214027362 -98.80305937755384 -6.3426662638152855
-42.25985234919653 -98.74531824659266 -6.3571145745017565
-39.988913378009045 -87.57666976257684 -6.394274954286804
-42.61612634432077 -99.8477393051248 -6.385287991019493
-42.511917719665874 -99.68375258518395 -6.304381955072082
-42.49862532688931 -99.60656230375454 -6.317756967049215
-42.49099396309959 -99.49472579381988 -6.335874740465151
-42.51353573058981 -99.43407915893941 -6.342891057571464
-42.407994574623444 -99.09389953680295 -6.312705752679782
-42.36085131823571 -98.77155392223888 -6.373408066061547
-42.362757169861915 -98.73167529889047 -6.379541836739082
-42.290498805779116 -98.33099683047331 -6.343373393011832
-42.6734039080436 -99.85685789102439 -6.379864538019235
-42.66202773806443 -99.79586795447456 -6.388506505560848
-42.659486441700025 -99.51022490946679 -6.316301711637461
-42.5318956061879 -99.27384209489426 -6.365020335513916
-42.55118701279503 -99.16186824380262 -6.379266122920951
-42.53920475458576 -99.1296647407894 -6.385234687183116
-42.43849273549801 -98.83155533590633 -6.352481708950966
-42.44482328941043 -98.71333531834776 -6.349749544862658
-42.403501906928085 -98.61426347251943 -6.3337067454994775
-42.44411962915591 -98.53464041263685 -6.3974528400776505
-42.37644242449434 -98.38501880943176 -6.354308994724739
-42.35611249111888 -98.30814168334705 -6.346083771946749
-42.38189768929361 -98.2329536284663 -6.303112673643952
-39.79309388891663 -85.84829663090781 -6.309906572454288
-42.66395415558498 -99.45143109351125 -6.32460867441389
-42.637068783367454 -98.99171585166988 -6.393275111447676
-42.641303337756995 -98.90670571141821 -6.310749539864184
-42.58506094235481 -98.76231229822127 -6.3415754074210975
-42.5163966331627 -98.69629345201443 -6.362100809091358
-42.49313475699506 -98.56621631923817 -6.32313174126098
-42.506686158972606 -98.48534126134257 -6.364230175023375
-42.5042931327138 -98.38307288088204 -6.329795894315557
-42.452985219969875 -98.30337390126334 -6.35213263868963
-42.71421783113886 -98.80272301321284 -6.315627907601131
-42.63005031023653 -98.74838940799081 -6.336781444635162
-42.636931791887015 -98.4948065576881 -6.372047854767249
-42.59457761263877 -98.3620310257332 -6.315139848975179
-42.57998362175714 -98.30006712350107 -6.327160032031417
-42.757932747083395 -98.8133705542315 -6.3072527909114955
-42.78472321715198 -98.60121145880824 -6.333263349575273
-42.722596147705744 -98.58154008650538 -6.346128150385693
-42.68488938077742 -98.46719525280155 -6.367828403066929
-42.65115230773321 -98.3354379039866 -6.355185455026164
-42.66627772288433 -98.28167469298523 -6.353292765055557
-42.91156773136015 -98.9847742468977 -6.3606394086957465
-42.8654318006889 -98.9605041004635 -6.3695398104365255
-42.79935709411113 -98.62162008397964 -6.3280695100155615
-42.74139836339531 -98.23323283234791 -6.358988605724111
-42.77299207682594 -98.16480637622689 -6.305375678086454
-42.86581817835617 -98.26087412005766 -6.362106165029679
-42.87918284230251 -98.25338281344303 -6.360585362115207
-42.80144732885878 -98.08861732059187 -6.392352154959648
-42.98071907537793 -98.26654554845683 -6.341036458625396
-42.99168095899652 -98.19440661827977 -6.346850612201689
-43.11122684083358 -98.34661793955344 -6.308892002120521
-43.092404922972065 -98.26696049964454 -6.320945740803023
-43.04296536935223 -98.06868614271502 -6.350091204374665
-43.06888868804798 -97.99899995532974 -6.351755690304684
-43.165667704083525 -98.21734573450705 -6.312910680933046
-43.163131732106955 -98.03477023033476 -6.330926456957246
-43.12172384428451 -97.93219141746961 -6.34759679660077
-43.12928360928178 -97.88848749989529 -6.349845035496465
-40.7028745838882 -85.92404444454256 -6.319664470883795
-43.22566834381541 -98.23098702929659 -6.300593715424868
-43.23644282359326 -98.13321185916267 -6.308150433447947
-43.23196585952929 -97.99341049153719 -6.3217317305879455
-43.22440774432443 -97.95247006739038 -6.326624561650988
-43.189099098558316 -97.87458489505609 -6.339608319801514
-43.347102055043685 -97.87759928895564 -6.309342170503847
-43.25785927877118 -97.44966024065846 -6.352996825285794
-41.13339903779581 -87.22207702612907 -6.382451344543583
-43.416113568614456 -97.9240374817817 -6.394366439990545
-43.33375983019804 -97.51466277237989 -6.334994372771846
-43.31097876043669 -97.43613527899207 -6.343235566620888
-43.5347632279877 -97.98364442998208 -6.371829165071333
-43.52094634542711 -97.88729282940699 -6.3805282687713865
-43.39642115672597 -97.48992234986873 -6.324015974261503
-43.39981233439198 -97.43372880411013 -6.325967549185013
-43.63040553916498 -97.94012332928078 -6.35999470178084
-43.60364506138029 -97.8553345075905 -6.3696421915081265
-43.603838894835256 -97.79481523201068 -6.373333699214886
-41.4246231684853 -87.05604783237106 -6.374025991748288
-41.280292827169056 -86.15552292696307 -6.331337583940158
-43.69131180213481 -97.8447185487084 -6.35654791472076
-43.657862469120914 -97.74721965474467 -6.367598415511974
-43.619998908620175 -97.23808468576593 -6.395809204287692
-43.61230270492764 -97.18725434380526 -6.398535738276222
-41.496508235257245 -86.82926487498182 -6.362995094303493
-43.78901341305103 -97.8763542134597 -6.339323573652443
-43.67443139432959 -97.20156156088085 -6.38816022380322
-41.65378203879495 -87.4133955445255 -6.390115640357484
-41.396347022313115 -86.15274840325904 -6.331008712247095
-43.89767545242773 -97.80668139250173 -6.326402131680013
-43.850827365631446 -97.53323218610981 -6.347786016926159
-43.80191461538475 -97.31207957098162 -6.3642715062200725
-43.756271245897054 -97.16368198320102 -6.376120535199375
-41.79056199913748 -87.43235551881138 -6.390230540712085
-43.95378725754771 -97.45755429381317 -6.334546707097246
-43.897332326094 -97.36353941389368 -6.347172306932527
-43.88998307280151 -97.27351240110073 -6.35146080449838
-43.874567943022754 -97.15055723701573 -6.357515718061577
-43.9042987014204 -97.11007772825222 -6.353773155479747
-43.85889723471616 -96.86179841458511 -6.36545315352827
-43.84899958090673 -96.818382216415 -6.367483312985274
-44.06345164884853 -97.77648177400279 -6.301931402481036
-44.088751602702814 -97.67716853069813 -6.303122294007739
-44.08865466771856 -97.50362612789709 -6.31112384801533
-44.03092202808472 -97.35803167484961 -6.325960568909224
-43.96126916641791 -97.13717866556655 -6.343983036087093
-43.93242035042869 -97.09213465227474 -6.349699674536993
-43.88611725767728 -96.86143739535774 -6.361115744639771
-43.86174928192353 -96.81683870010934 -6.365470212607628
-41.730582113767724 -85.88729980576433 -6.3172421528470935
-44.10530589364418 -97.51701651380925 -6.307896700611346
-44.11300268689307 -97.12095252402362 -6.320088716140405
-44.427756348587884 -98.23705187712882 -6.354278406466996
-44.17256090785125 -97.26549170177789 -6.306457372202279
-44.47898978508446 -98.27961769780075 -6.345506534487297
-44.404646208846984 -97.78989582627695 -6.381335180160263
-44.407401937353 -97.73118423307491 -6.383708476476606
-44.221636151800794 -97.05612761400089 -6.304231634836495
-44.146971351593336 -96.73136747143441 -6.32087827453345
-44.19152565166979 -96.5999510590524 -6.314388290423918
-44.62437136081561 -98.15778749267172 -6.335232102668895
-44.45869683680118 -97.76453608938465 -6.375860104173447
-44.25299991023679 -96.55009644056334 -6.304734840263201
-44.25572620948877 -96.49806999156398 -6.30422393923898
-42.32213227573885 -86.94176541587919 -6.36270376828407
-44.74737722360294 -97.79181184644139 -6.339014245585334
-44.737591864173226 -97.74733748316953 -6.342223289846688
-44.5246526326694 -96.96577004845466 -6.394488170065912
-44.67276253236021 -97.17957281032179 -6.3708259262210625
-44.62880016323603 -96.25603543762088 -6.388714296184234
-44.73489314760928 -96.3771525137874 -6.375641346630139
-44.692846007698996 -96.28831056143247 -6.380943252307495
-44.604708503930226 -95.80098057961442 -6.388307556620227
-44.82328840037835 -96.34364932501074 -6.364976138704559
-44.8284473497843 -96.31980878243928 -6.364416081525936
-44.76714038657364 -95.97332765791451 -6.370925156169395
-44.76785227929731 -95.88435846709898 -6.37005935419838
-42.802337155303526 -86.37887386515763 -6.330867764978842
-44.889771159998496 -96.28363907458791 -6.357037480180078
-44.84797023007929 -96.09370816563775 -6.361924342071785
-44.83337506921683 -95.989301158748 -6.363141324813539
-44.82205272321566 -95.89059009300131 -6.363705523028102
-44.80759576623453 -95.76798501471647 -6.364074535280071
-44.83372225431512 -95.62731429080503 -6.359018807110848
-44.93086831851035 -96.04561839130622 -6.351746609333901
-44.93709195347923 -95.99057033322543 -6.350749218862321
-44.886991806427304 -95.78843488510641 -6.354971617634296
-44.90103780775262 -95.66020302419184 -6.3516709174350074
-44.880980992759596 -95.58390148286605 -6.352824116812399
-44.89317853336366 -95.42629877453072 -6.348527376394302
-45.06413949807182 -96.10883756448918 -6.335912466078503
-45.02693330894323 -95.91561540808274 -6.339525057218945
-44.99042458017188 -95.72844082166722 -6.342086361843039
-44.957745494299715 -95.45055107587389 -6.341590175700808
-44.9233037627284 -95.36934424337112 -6.343911965499827
-45.18042028283098 -96.12913725576435 -6.321868641505566
-45.107735947822775 -95.45973035171886 -6.324444988624089
-43.571319042269394 -88.12689092512232 -6.3962032820632855
-43.527684266522215 -88.100446513198 -6.396024608196402
-45.13592871397894 -95.4664662292049 -6.321297395200824
-45.14367201085424 -95.41829554411466 -6.3195594997622315
-43.83486501732585 -87.97661990004978 -6.383424669067651
-45.372092653962106 -94.53655127036697 -6.321085611523097
-44.08181403479486 -88.19119687780844 -6.386231018132491
-44.024435895277094 -88.04827747944893 -6.381692760944461
-44.01724243269832 -87.87137833257403 -6.374317988753947
-43.9711418761759 -87.7934862297022 -6.372144748171398
-45.45024598310249 -94.4689110725357 -6.311620516780046
-45.48576008601485 -94.37973173320466 -6.305877000785969
-45.460139695014746 -94.21169400832711 -6.304154660111004
-44.146549730197584 -87.91889080880425 -6.372953918378344
-45.48160807366425 -94.20861543748497 -6.301929236909929
-44.32740967595739 -87.83418233216909 -6.364429976039657
-44.35509120090046 -87.56856062148061 -6.35248086481886
-46.29406069289725 -94.38379039620372 -6.386473071752322
-46.80113558008563 -92.67481944164493 -6.397440304031128
-46.71633830456402 -92.01025144263821 -6.392580570415211
-46.68201899497764 -91.83364026640554 -6.391410473384322
-46.84249838464176 -91.97648261937228 -6.384125105484033
-46.78600003290181 -91.89246398859488 -6.386132013310726
-46.789712253248204 -91.79387887207473 -6.384080105217908
-46.71702911401826 -91.7456608941137 -6.387578120592033
-46.75145272896598 -91.59700132260512 -6.3825621475123615
-46.823653380046515 -91.8020877601062 -6.382141284872018
-46.84204498141111 -91.55383527545762 -6.376238390965658
-47.14612144527024 -91.12583846612654 -6.349326406071479
-47.13183425727397 -90.98780058799987 -6.347266210276397
-47.107507051661806 -90.96834589027037 -6.348266426399225
-47.2648249190959 -91.20550486516026 -6.343817039827948
-47.20403172883523 -91.00546077030226 -6.343380509596829
-47.18237865869279 -90.85068522107724 -6.341331059265531
-47.25954142210088 -90.9073982278718 -6.338015483445871
-47.331830355389975 -90.65797334346757 -6.328368337866333
-47.31802097383364 -90.58077035435365 -6.327447804225155
-47.47698589854769 -90.32574167627244 -6.312494033952139
-47.53490433747124 -90.22029390708038 -6.3067552857737805
-35.45519279724149 -110.15080165729174 -6.2083234226362265
-35.44575796952973 -110.04784663715775 -6.212797726330076
-35.639910957201366 -110.08660268681791 -6.213140172882755
-35.67670395388966 -109.73169546762915 -6.230001169174381
-35.79367723985793 -109.56744968173481 -6.23907512260709
-37.96876771113839 -104.67307476742212 -6.212401026779698
-38.124551372912045 -104.32245870389353 -6.243668738196487
-38.25884987855086 -104.50363570792612 -6.232216033126493
-38.214417141552985 -104.46773141621658 -6.234147372693638
-38.21646657502014 -104.34206635201531 -6.24416842372574
-38.17821399937426 -104.2907323138214 -6.247427504180582
-38.324172568324606 -104.39085540736723 -6.242508374604838
-38.26836498032553 -104.39128605291995 -6.241303233530698
-38.356693985789114 -104.37625480878953 -6.244452132903145
-38.50222429303979 -104.09213787679494 -6.27020917281933
-38.491439502200194 -104.04273609402344 -6.2738571763878355
-38.64925455224309 -103.95386808030274 -6.284244560610803
-38.82859712138265 -104.65578512852767 -6.230770821854389
-38.85684249749901 -104.43483712177776 -6.249087383866461
-38.877770219271135 -104.24888705569165 -6.2646239194487245
-39.45891244238703 -102.57118252243043 -6.217682864721148
-39.47560511935992 -102.45284643829912 -6.23175748190484
-39.51918703068366 -102.52154914130739 -6.224880868392922
-39.616598772795896 -102.19609524900396 -6.264830222878197
-39.72331963713758 -102.55577357255916 -6.225144624402962
-39.74388965375933 -102.44135267793723 -6.238934581924686
-39.715409787856395 -102.34233209071121 -6.249931353982741
-39.689442705820966 -102.19729192328413 -6.266278219636407
-39.65271343102015 -102.1519312878482 -6.2707328251460215
-39.82137983129988 -102.20995580379612 -6.2673531261913435
-39.87260752158551 -102.15732318879795 -6.274405088926629
-39.89188025661806 -102.11686373002416 -6.279494352124624
-39.943243959784276 -102.17895085393384 -6.273019890993522
-39.94082185324894 -102.02195668145275 -6.291421661278365
-39.99825899314163 -101.98020861541163 -6.297173777967979
-37.876119613146294 -90.51812246168518 -6.221154350577882
-37.90017010076898 -90.50819893133479 -6.22162413584854
-37.92152055425409 -90.42717883976576 -6.216781549991833
-40.400368423085084 -101.53177445221303 -6.201684403143365
-40.43135732132639 -101.51975037270881 -6.2038360595748205
-40.55697498373907 -101.35091044096932 -6.230756687304539
-40.505185667153235 -101.20843878062789 -6.252323807281173
-40.52070798444746 -101.1736683417761 -6.257815487290245
-40.772506659816145 -102.10592593736204 -6.288274100936692
-40.57864397680012 -101.07658625339492 -6.273110643953181
-40.6006187379143 -100.99303531904732 -6.286063744495624
-40.71514813560902 -101.18421585753829 -6.2569690488248995
-40.72333033123795 -101.12346974403108 -6.266301953934339
-40.653667139348975 -101.00348680287127 -6.284647886740338
-40.85321745195814 -101.16448094872172 -6.259818813952856
-40.79526567632547 -101.09240383702846 -6.271030172865088
-40.79282982463667 -100.99934873876488 -6.285364451613876
-40.74088138311506 -100.64929070262286 -6.216616641322326
-40.90111217218257 -101.1169851467987 -6.266868916079898
-40.891253263605215 -101.10115816026658 -6.269391880110776
-40.910458462688595 -100.97133605074092 -6.289221335663055
-40.82853842998166 -100.71821415288586 -6.203276579629987
-40.77165153719352 -100.66228443389207 -6.214101797069097
-41.08834952440663 -101.44277341981048 -6.215423892720127
-41.007507837350666 -101.10175289554034 -6.2684944565596314
-40.958937296285164 -101.09280627194588 -6.27027035141718
-40.92425338016111 -100.98031577107136 -6.287781764696104
-40.958082050041426 -100.71693036814838 -6.202494591034079
-41.05803755112315 -100.92525890741445 -6.295073789325418
-41.0403889179465 -100.6203302195402 -6.219676194048795
-41.173758839926506 -100.95730305915815 -6.288681780093804
-41.28244379148645 -100.88658405630757 -6.297666312366633
-41.18216543026081 -100.55631881670732 -6.2290909041392375
-41.149576120787195 -100.50089379870197 -6.240209913436628
-41.341988910206794 -100.88669489116164 -6.2964869467392655
-41.2332904964196 -100.43847885466413 -6.249985540541915
-41.236002529749804 -100.38814535375309 -6.259331748493949
-41.52379577866937 -100.98378695465688 -6.277565369264783
-41.35677627037505 -100.52906149612846 -6.2295465328451485
-41.37644414361591 -100.34633415777108 -6.262933835521296
-41.52364102120279 -100.89153789238654 -6.291481752274092
-41.56106779906245 -100.60843541151074 -6.207692502450822
-41.51687636778979 -100.4859166389636 -6.232010443123516
-41.510144574897645 -100.43684509619078 -6.241330576522377
-41.4059066252615 -100.32502112911139 -6.265885202807912
-41.41170142180215 -100.20837452895175 -6.287305819035085
-41.52653681177022 -100.32162959532751 -6.26191683000092
-41.554195457202155 -100.2346291022293 -6.276723564277069
-41.62066910413134 -100.21332765854024 -6.27756836040624
-41.64331404273805 -100.08267216432208 -6.246355057530452
-41.62660415047645 -100.02042585614466 -6.205299589487546
-41.7275006090274 -100.16463355900791 -6.281117972276176
-41.69275507223149 -100.10702257779128 -6.2933340317475714
-41.66932079391797 -99.98071450829212 -6.211121391774948
-41.68713727116846 -99.88280374866214 -6.230871292489122
-38.65993431109426 -84.80809016103228 -6.243650494273454
-41.753717394265756 -99.9428464692685 -6.213443852881217
-41.77289788811731 -99.86823875952832 -6.22783483361054
-41.747979350291516 -99.72099391903298 -6.2607222568503955
-41.75500972017777 -99.65426169153247 -6.274158203634436
-41.87709832196495 -99.73696110912346 -6.2470458157477164
-41.80470876466323 -99.63293010646763 -6.274571294239522
-41.930472570099106 -99.68201677709249 -6.253754386128601
-41.92655518250455 -99.63507562236846 -6.263650232426689
-42.149233915047255 -100.00714422212798 -6.282001829593545
-42.00823168547187 -99.59730774240596 -6.263752704937755
-42.01559680774785 -99.49392722877012 -6.283650537618697
-42.01379945123321 -99.43272247584774 -6.295986343254453
-42.08454673098377 -99.40347736134773 -6.294366920698958
-42.166221283122525 -99.43539076397961 -6.27944965481171
-42.150947971076114 -99.39624945313174 -6.288634558356518
-42.293994052802255 -99.23299873675258 -6.207782682557792
-42.26855225940157 -99.07818459210003 -6.243888181216742
-42.21873998455169 -98.87072583677485 -6.209485075463797
-42.14782316201231 -98.77318484742011 -6.244706320062795
-42.44208239299761 -99.46939321120071 -6.241244523977213
-42.329389439428354 -99.21168245963091 -6.2345392545655915
-42.301062085212614 -99.1331427371513 -6.227611672381795
-42.32323192522156 -99.05032290380672 -6.24116171739905
-42.34904432361986 -98.96396929261249 -6.254404503634877
-42.27902064420046 -98.82978774747859 -6.235840092735866
-42.594907903204195 -99.72222656127475 -6.29035502828045
-42.514312988324434 -99.49435575815805 -6.227854198765347
-42.38429152240478 -99.10303109656928 -6.221011255265998
-42.36683175511074 -99.00759838503326 -6.242903714962081
-42.36582048432737 -98.79547318544728 -6.250037395051266
-42.35222100966518 -98.72629218688876 -6.243642346969012
-42.31628923888463 -98.4120170514762 -6.285887991135056
-42.576515501086725 -99.52192098660187 -6.215164435170382
-42.591155296502436 -99.17894500561022 -6.2733912457778445
-42.458683575827244 -98.78129812631481 -6.270758320626604
-42.449922521275624 -98.68577945267188 -6.246730665283425
-42.45242608316453 -98.59820467450552 -6.220703005074726
-42.43656125854161 -98.48530637037368 -6.245720320615624
-42.39294100794082 -98.38693721445281 -6.27362875306737
-42.373058786161984 -98.3181682048396 -6.290416096385414
-42.72901459196366 -99.62424846748092 -6.29190594914796
-42.73886899048181 -99.59492472880422 -6.295269216214245
-42.712347694864974 -99.31732337468426 -6.233315912070035
-42.60898482350156 -99.18340842790025 -6.270187232199762
-42.517870347076766 -98.66260062294153 -6.281335557882298
-42.51300361686799 -98.59417146936899 -6.293919895576415
-42.49437299133562 -98.35637820687937 -6.256143653870748
-42.45495010089703 -98.2909041790512 -6.276405576009543
-42.76802422082288 -99.45125212898536 -6.202849211471418
-42.786885062649105 -99.34152993748252 -6.218987033697672
-42.75392505880945 -99.01557496913993 -6.276899923901552
-42.59200694819214 -98.32167780420937 -6.239420106360473
-42.577862946969084 -98.31350851488315 -6.244077364579025
-42.6880186815158 -98.35495053305168 -6.254618780701444
-42.68709822747718 -98.25203354815727 -6.227880622026515
-40.03047187179544 -85.06474428468913 -6.274663505024333
-42.76713390984888 -98.30870937267176 -6.233060098711652
-42.771924692371435 -98.22233946411832 -6.255734396944037
-42.75655891272459 -98.14039042585804 -6.2273731468377225
-42.90816933393123 -98.39890993359195 -6.246219600098273
-42.87518476554434 -98.32864191520194 -6.262622727225824
-42.81582576995685 -98.20986977911956 -6.290588533550335
-42.83101025521811 -98.12119145552445 -6.226063915318842
-42.833300395264935 -98.05612020059934 -6.21955688037211
-42.9607593366388 -98.07815792858766 -6.275214347642951
-42.9090610579791 -98.00147533556715 -6.207131245592275
-43.10302040181337 -98.22752764486393 -6.227253957193728
-43.04463541353868 -98.17948474637775 -6.24548327536837
-43.04454235642493 -98.07986647855351 -6.256777351715239
-43.20875995084727 -98.32286594856019 -6.260734816567616
-43.16962375627949 -98.27924349119827 -6.206765568422349
-43.13059217572418 -98.1467796992012 -6.230576242923281
-43.152578808089636 -98.0754166354726 -6.23356095019349
-43.15526721975799 -97.91053490069338 -6.24928671858388
-43.285712576760275 -98.21759840413293 -6.290961595136451
-43.20105006630273 -97.92892114921956 -6.237311991166766
-43.20563770323504 -97.85997482729944 -6.242468424744796
-43.27670799042468 -97.99349750884507 -6.2143275246255385
-43.25854175481111 -97.53532783435341 -6.253879467687351
-43.20113893446642 -97.40609270459468 -6.27396056459334
-43.19596493347362 -97.3659296730763 -6.276970687555211
-43.4977199380942 -98.31544367509966 -6.242407094780663
-43.32192784276655 -97.53035386511164 -6.239510751721179
-43.63234240789023 -98.3797268608797 -6.211352104052169
-43.55904636817074 -97.9188775994798 -6.265829425787833
-43.50206865588995 -97.85866173964111 -6.281119956530099
-43.52130896940977 -97.8007005964249 -6.28155219212512
-43.41125528775969 -97.3544016272481 -6.227419515499998
-43.365085208328615 -97.32359171115648 -6.239394856281033
-43.61299318547947 -97.92109681779279 -6.255374941543502
-43.59884640349994 -97.89618297204021 -6.259922348557682
-43.553868844550756 -97.78122663136888 -6.276612578667621
-43.45816369184011 -97.31264000276755 -6.218178753065974
-43.688028303514 -97.92780325532517 -6.2405528105176655
-43.82163732286487 -97.8219297876326 -6.222330637803662
-43.731767620470116 -97.41576734027157 -6.261769179069876
-43.905802756893706 -97.81516119177755 -6.206545236587507
-43.83805429616744 -97.39363529859644 -6.24184958013648
-43.97762865991881 -97.44295578666234 -6.212492513562068
-43.884276226643976 -97.36445311246177 -6.233937714982721
-43.9020110070578 -97.15117925963098 -6.237352604062612
-43.82227654278368 -96.72805928480932 -6.258291790589227
-44.137246339009884 -97.93686246663097 -6.2810102990548335
-44.11293759965501 -97.85778858906002 -6.28954343637218
-44.120582415684844 -97.66308151589469 -6.2987661278869815
-43.99173054941232 -97.4098585137671 -6.211096793400585
-44.017527325196 -97.25366983170805 -6.21169511511077
-43.962917999646145 -97.17228134345959 -6.2248101605546795
-43.94559269850406 -97.06638860096737 -6.230757670672535
-43.85501683528203 -96.7344953687788 -6.25194714838696
-43.84231364354352 -96.69106424281786 -6.254338071687347
-41.448678904233425 -84.7187053224329 -6.262441670356365
-44.166585955949806 -97.6235355041742 -6.293339995243904
-44.181238193625816 -97.4866254277931 -6.297045365109066
-44.18124754816593 -97.46119066502938 -6.298070775260042
-44.02247822785447 -97.09572382526079 -6.215064590523481
-43.96271859042564 -96.62440370759495 -6.230820293276088
-41.37581937358732 -83.60186754026944 -6.209191158071819
-44.322249324453566 -97.77480358172734 -6.261070237184511
-44.283118329190266 -97.54461355709756 -6.278348925072872
-44.21683038628001 -97.4332873766732 -6.293465071943013
-44.224130083819325 -97.2535345841587 -6.298578632490385
-44.40371658612635 -97.85849675846076 -6.243653957617064
-44.418536708260895 -97.79386563156594 -6.244830729039937
-44.34907083084742 -97.6662601894663 -6.2622996120931695
-44.29621906651117 -97.00250792732345 -6.293427244378755
-44.33460386262468 -96.99985060695766 -6.287332429542391
-44.314444181096526 -96.62917982444795 -6.2948943248533915
-44.604430453478074 -97.87902659368372 -6.210822272024078
-44.575782936224485 -97.66605481034787 -6.2262397032516414
-44.58664610197779 -97.58475748603493 -6.228188052543903
-44.430190662378855 -97.03288070064306 -6.271363206097597
-44.41186880935652 -97.02077142741977 -6.274557974070779
-44.410119828507405 -96.66072847681434 -6.279604135852243
-44.324015984499276 -96.58917794739097 -6.293501192943023
-44.67969235161478 -97.84801658880124 -6.200608064568874
-44.55951024542945 -96.91077430835601 -6.253023810195977
-44.47196216003205 -96.71222743670974 -6.269438674015831
-44.43938858304927 -96.62902266498911 -6.275128776625138
-44.47096533510059 -96.52281511365196 -6.270399106946862
-44.44030423061823 -96.40621451864513 -6.274970997712887
-44.632325296173896 -96.92626108087363 -6.241115901151594
-44.60231409944066 -96.8596785353363 -6.246995766307862
-44.54986184125108 -96.55431134574323 -6.2579025624328155
-44.49303700577923 -96.37397550285009 -6.266555215397709
-41.964073978879405 -83.88675815931204 -6.221074738345864
-44.76369152013909 -96.81608619219735 -6.221877452406544
-44.58157337470972 -96.08821550618163 -6.249815134510604
-44.59183105203696 -96.06310666870387 -6.2478375621238
-44.68734033163835 -96.10212373622805 -6.233716273027497
-44.62444800253033 -95.87254182432278 -6.239142482739523
-44.665388740122076 -95.79691259306229 -6.231154880936749
-44.778924480894474 -96.24397252830312 -6.2210516155155196
-44.82707980082381 -96.13299226590749 -6.212492889147031
-44.77427992238357 -96.09321978842141 -6.22015472388267
-44.769310488975094 -95.94892429136256 -6.218645288283944
-44.70470088792365 -95.89176660673081 -6.227373057914054
-44.83302754094823 -95.86806703309982 -6.207327944839439
-42.76825152823061 -85.23435752352287 -6.2781191976695645
-42.96173101258534 -84.64808072753515 -6.248558004767772
-43.035955305979115 -84.60098043181455 -6.245462844423483
-45.444990253262866 -95.89666004927207 -6.2893984499385835
-43.17172973528444 -84.72925631512112 -6.249652742512778
-43.112171784139974 -84.56270026031616 -6.24272761880677
-45.57653495043179 -95.95137040740312 -6.273759338489058
-45.348588227655 -94.86567982044052 -6.283682608606928
-45.6465833002142 -95.85820545445237 -6.2650246417202915
-45.46361223441379 -94.88101087774724 -6.271268053728823
-45.43725683548229 -94.82116754348166 -6.2725792432537935
-45.41323317156133 -94.71932702347766 -6.272343402091336
-43.362332235069644 -84.47085320920584 -6.235074405052243
-45.5057977593109 -94.8816617257052 -6.266565200868203
-45.497466287862245 -94.61066502086217 -6.259816518624992
-45.57426901649268 -94.25638447546612 -6.293949408723633
-45.514166478248285 -94.20049164130123 -6.298482498010371
-45.66601405172619 -94.49612334546708 -6.237840431754155
-45.62754999840835 -94.31855743353611 -6.290133659409796
-45.89130709141012 -94.84808816935983 -6.2222934086310815
-45.81467863156478 -94.76514869317566 -6.22894612327534
-45.71813219409816 -94.25285658708574 -6.279385860230957
