ply
format ascii 1.0
element vertex 824
property float x
property float y
property float z
end_header
-37.84294033884078 -101.23628920630942 -7.431303550243342
-37.83575070944302 -101.33765901480984 -7.453915691579424
-35.39066796591625 -104.0977683860861 -7.612248802226027
-35.62417565552735 -103.49024507949379 -7.58854625992686
-34.069549178989746 -105.83280967611181 -7.663762631305038
-34.033278155891665 -105.84448277585842 -7.667005862348485
-33.962299263999085 -105.96421756607803 -7.667486231850249
-35.59558453085123 -103.44909195514282 -7.584113690275432
-33.88973938900336 -105.92756367712313 -7.649242091469733
-33.888414328763744 -105.96674371147328 -7.677097541827083
-35.48272074933518 -103.2820428720376 -7.5851245883782115
-33.78331670259252 -105.83764030032458 -7.65046690546495
-33.7264907298282 -105.82493438575138 -7.6574378237001355
-35.18027457735919 -103.45324267456719 -7.516100489999248
-35.03983120892915 -103.68039844695167 -7.525961761962197
-33.60274080885993 -105.83440734450973 -7.659515428761261
-33.33692578599536 -106.13005829124786 -7.69372886352145
-36.016672546990534 -101.95503914101454 -7.504946878444953
-35.143261125660274 -103.3936705367519 -7.508886201568336
-34.9290358296477 -103.63554979572875 -7.51955812555584
-34.794509344748164 -103.75891859352328 -7.530571832508585
-33.25839020588359 -106.13359813146552 -7.702744497541116
-36.00807710787564 -101.79957655167345 -7.471528591408767
-35.69834536308796 -102.2258455567778 -7.5339720034523365
-35.696403212826525 -102.27641966681718 -7.541446420089073
-35.539575832432476 -102.5849910963953 -7.528994986238608
-35.44334669561746 -102.64582186040965 -7.538173740292587
-35.42460200359197 -102.6915709317456 -7.517392740277765
-35.290238626876246 -102.89031360877583 -7.535847277493598
-35.28829058233468 -102.93250626758464 -7.573863163118671
-35.23221743568681 -103.03401101342398 -7.52575212337222
-34.875008417799734 -103.5632656777529 -7.538755741165347
-34.75042897559377 -103.7263476444805 -7.541805405571796
-33.19974571586684 -106.05399430891967 -7.698896370438267
-33.15137727395901 -106.161360426596 -7.688581801910798
-35.6742777374536 -102.08416026039271 -7.540919900239228
-35.69555644921253 -102.18229997925637 -7.526693333507581
-35.4854137275339 -102.40213407447958 -7.546738172592477
-35.3913017203431 -102.60451559042433 -7.525001038901437
-35.336720300074376 -102.6903541710558 -7.489095755069356
-35.289798133695975 -102.80147273050534 -7.485291502122933
-35.24556240452604 -102.84555760358552 -7.5473901526138345
-35.229819155627965 -102.88844053969399 -7.575612381702181
-34.96117162714699 -103.24785862715831 -7.522905206551798
-34.92225482589775 -103.35295023189946 -7.511804048696329
-34.79309783067169 -103.55297212710711 -7.534145894556733
-34.73041712746729 -103.51378665390942 -7.540890775408064
-34.672866398331145 -103.66764186283571 -7.543860680850651
-35.918056360920744 -101.65353833422967 -7.483912101987859
-35.78229606142131 -101.73158740764127 -7.53871212234118
-35.57353030121169 -102.1027828333561 -7.545125290301551
-35.48582074348904 -102.27349430196034 -7.5572530230303405
-35.4166125401867 -102.33728191433006 -7.52849685309188
-35.32037114848211 -102.50188943250961 -7.503632920672088
-35.247839502326094 -102.56418675697385 -7.485616543342347
-35.20865701593178 -102.71522777191818 -7.498614735136131
-35.06719776783006 -102.8697568996179 -7.518912021123504
-34.56111400531707 -103.68955283133057 -7.581794619156941
-35.87080805524902 -101.49396291195461 -7.470872687334532
-35.403878521453365 -102.28270568693236 -7.5311397541054825
-35.26947823782016 -102.4676895977926 -7.50596535188612
-35.84918585278678 -101.43610987892494 -7.445189024714847
-35.644352302319184 -101.70079850009111 -7.482335251917668
-35.6034474811141 -101.53415669351529 -7.473964752379905
-35.48851843576336 -101.7137777493403 -7.497261696445868
-35.52645499129895 -101.34634742373697 -7.483820165621363
-32.82967285954444 -105.26480354808304 -7.680165408113224
-35.554371780346436 -101.0491792058777 -7.501953381144282
-35.55958112727079 -101.10889273693095 -7.500450663367583
-34.05837396641297 -103.33026112535156 -7.5436942149419135
-32.79566860405208 -105.24821550050088 -7.683577113701215
-35.496575954201035 -100.89804419799528 -7.458844381154883
-35.527812465328644 -100.93646794746375 -7.481066383239627
-31.983024483566066 -106.24319309723641 -7.711620061704055
-31.855802758411507 -106.2875503593654 -7.722143086913414
-35.4839784994912 -100.63646400794684 -7.515681323938814
-31.689577698876775 -106.2958744088094 -7.718564085599982
-33.43515078817226 -103.56682044628216 -7.620538895544947
-40.00475740157393 -105.52032472936817 -7.4364104784503455
-39.93842508220452 -105.63019769939953 -7.451701340306273
-39.668316413695436 -106.00916579345939 -7.465237845862355
-39.57158709687656 -106.19485996021695 -7.4526078514500105
-39.94689524714161 -105.51864346709851 -7.43985143537974
-39.89208144198106 -105.53416653601259 -7.44766127205572
-39.83555653672526 -105.64614922265203 -7.463548949075994
-39.67919658880546 -105.83149760764462 -7.40165568023372
-39.663887881132254 -105.91648936332263 -7.468210730482951
-39.59630820106282 -106.01250017310223 -7.466612332142256
-39.469345113570455 -106.16858654014216 -7.4457017890825306
-38.81519013606856 -107.1877702532391 -7.460409956493915
-38.78287987591362 -107.19622340182795 -7.474721293399541
-39.79589069537802 -105.53701631245437 -7.476027144460791
-39.752664708011054 -105.55490237161064 -7.474426654181171
-39.70024794076654 -105.6553815127172 -7.4595026669047
-39.61275785142577 -105.76704280431278 -7.441527477626027
-39.591974654724766 -105.86734160167549 -7.411331691653031
-39.533249232405375 -105.93437722984682 -7.441799405535414
-39.48324745312073 -106.01127481207186 -7.47243284007324
-39.36905863116552 -106.16347173613737 -7.44060425233317
-39.161148014635316 -106.45927844592715 -7.4381284368386265
-39.1408585885538 -106.47011873114121 -7.496261283734269
-39.06655131653079 -106.57784462532878 -7.470046726878329
-38.9416387878208 -106.78090204019473 -7.521836576928145
-38.88761718778574 -106.86418817567021 -7.465240663431735
-38.858406914391956 -106.9074404738472 -7.45832477977982
-38.76253681008115 -107.11305000132116 -7.483049646641207
-38.73926322186188 -107.16597844250099 -7.500536166646567
-37.903247813245514 -108.34264750001587 -7.5233868931660846
-39.5997119524789 -105.65327436385877 -7.454233038656784
-39.56920446727401 -105.7291283658885 -7.429808160928652
-39.49785756248659 -105.79602569217346 -7.434740436621907
-39.37293524831415 -105.98576984666536 -7.483905405036537
-39.300003624394776 -106.15058850029418 -7.412238648714071
-39.10064250333938 -106.41270042760803 -7.471077963116492
-39.059018536096964 -106.42926355052171 -7.481354237887504
-38.98930968276761 -106.54930885839009 -7.481631204019959
-38.9003667994263 -106.77210577428033 -7.518058199520897
-38.845876594150795 -106.80119600828182 -7.47005303398313
-38.77181605460281 -106.87247538344332 -7.487443089970748
-38.72453238302685 -106.92839272376892 -7.51881229391936
-38.6843981726266 -107.04606414666469 -7.470631004380834
-39.54971059302231 -105.56651431127983 -7.478850000985847
-39.48205579345431 -105.6434997567558 -7.477464393463795
-39.473051121307876 -105.74143514265498 -7.4060631773167005
-39.4217948829251 -105.80591441866773 -7.43543036434384
-39.003527102364636 -106.38650763045895 -7.460473869511812
-38.725741277593784 -106.8289630956326 -7.482158700583574
-38.68166164366386 -106.89381003394291 -7.498974973670311
-38.123776753528745 -107.60946962472106 -7.534183568735885
-37.82196219573334 -108.15473896763473 -7.575495498823932
-38.10461721473597 -107.54161302607751 -7.544039373228963
-38.1069840195385 -107.58368290415018 -7.52853420994548
-38.01096906883332 -107.43372125074944 -7.526538250539106
-35.99393058092011 -109.71180376174033 -7.649081859829638
-35.96442911778645 -109.80105088813801 -7.622606311693765
-35.877801185514976 -109.89103550247265 -7.6030761110546
-35.83919902953534 -109.97808705526266 -7.597674815410811
-35.827310691342284 -110.03911040022179 -7.610137842969591
-35.79911412859892 -110.12732177983726 -7.618737120336644
-38.339703092938294 -106.04359369549367 -7.419403326294911
-38.334148162730905 -106.05104604726019 -7.471831987879995
-38.01800429739788 -106.52890750822482 -7.50391041410612
-37.95580972100591 -106.63492705730566 -7.4503888903049384
-37.251589336518165 -107.66666292735749 -7.518077624915952
-36.01865359378387 -109.59814010830169 -7.65352414383415
-35.969133966744955 -109.68102238592317 -7.571386354674413
-35.9189214352849 -109.77451522802426 -7.590660610110863
-35.82818606834787 -109.91371966161591 -7.648385469612063
-38.57438952027516 -105.4849398241746 -7.4305568745677295
-38.31924795315298 -106.01527089631263 -7.459680294617926
-35.89254127264282 -109.64034257453783 -7.6400318868541905
-38.55941085093637 -105.45115811804332 -7.46061236987746
-38.50099550979099 -105.48065427443339 -7.4316442367736215
-38.479947664528936 -104.91748524337659 -7.402192772716781
-38.463906712136996 -104.94298548939314 -7.402388033407495
-38.58545657672483 -104.58366259305795 -7.38371261476912
-38.4501066481055 -104.90676956762658 -7.391719989998685
-38.43075402460922 -104.94798953481516 -7.409409934686781
-38.523069719993934 -104.52410416288431 -7.393703504831979
-38.488658727923905 -104.44711231461763 -7.4080526738725805
-38.45971217775723 -104.46831916307909 -7.419077032260101
-39.609340644616964 -102.50703451437094 -7.313898140246808
-39.50510745134401 -102.64683359714549 -7.32960784507474
-39.472548591126134 -102.74850739474611 -7.344671954422713
-38.96172931988176 -103.53092480180055 -7.36415300843447
-38.90623991417318 -103.56910927427764 -7.364504983805304
-38.560937158015385 -104.1000789675222 -7.375698383947626
-38.513255977881116 -104.17653528330892 -7.406319252794141
-38.484655775302144 -104.23053696616574 -7.434200428983301
-38.40654356881431 -104.36697332863424 -7.457943903847903
-38.37713177377837 -104.42805554596283 -7.453070664565967
-39.68544010359319 -102.35882410128374 -7.313887317552174
-39.521838611975795 -102.5874450363662 -7.313690456297205
-38.86486230293674 -103.58772251249552 -7.378137465045924
-38.420733071383175 -104.24328878256642 -7.4330269121573505
-38.37474350498181 -104.27581980184146 -7.44854277340909
-38.92419550211705 -102.26663256886624 -7.405722564685676
-39.08832774540753 -101.92886722145356 -7.362700204830812
-39.08229728810788 -101.97766841489506 -7.362201081832404
-38.99513060629149 -102.10118640182662 -7.385157090783284
-38.93884668969213 -102.20926965257107 -7.326167041763473
-38.91274657783938 -102.25789416955011 -7.325840377456294
-39.01510153636219 -101.75746328981896 -7.309320444052742
-38.9341429088309 -101.9209165958591 -7.326502256870557
-38.88518009111372 -102.01710088683478 -7.370782932048633
-38.85755882529075 -102.07428399574755 -7.35866633366915
-38.31763527037537 -101.5665595567222 -7.322600290064279
-38.30809167686925 -101.60468946926082 -7.305680853678265
-38.197207921806964 -101.74070545315907 -7.385972803141502
-38.16693548987947 -101.79593367050255 -7.380640948177382
-38.12318490332713 -101.87810731388196 -7.36702523514289
-38.05023015925046 -101.95333942681494 -7.379963661055753
-38.03697791021421 -102.05845461332738 -7.407346462912721
-38.41165080271208 -101.31672541862697 -7.347814948828047
-38.302666968285806 -101.47569251785453 -7.392060222955038
-38.19221261610366 -101.65318971642589 -7.329913632931803
-38.13688364226662 -101.78802930832761 -7.3841848182950836
-38.089074402513724 -101.85789466893159 -7.3744717361321275
-38.06226278318095 -101.90310212390499 -7.381054496669962
-38.23987803554756 -101.40973469371195 -7.304889104816213
-35.248390713404845 -103.48215794582585 -7.476652491124398
-35.28388743182352 -103.52654468740863 -7.486894784759905
-35.09159125563943 -103.71651732346737 -7.502410698190294
-35.01838859492056 -103.81840994808972 -7.49236290693925
-34.98705691050204 -103.8912521688938 -7.456311734363257
-34.95753325660065 -103.92049513804034 -7.448758811208175
-35.196964945365984 -103.40836824238289 -7.473428275054504
-34.96771492359115 -103.75517791794142 -7.495889179613521
-34.92328675861066 -103.83353951570076 -7.481243151399479
-34.88076342678817 -103.86581197798264 -7.460693200057798
-35.37295307590687 -102.91928261244199 -7.463361815556864
-34.81278939301624 -103.75977605513178 -7.5037690107853035
-36.005837498641824 -101.78887722780259 -7.426262301813774
-36.00873726163958 -101.8445794410878 -7.418910091116612
-35.300635802896764 -102.8228897002264 -7.47097166567333
-34.96889526485955 -103.40480287953957 -7.493918692734543
-34.79144899340796 -103.73659475367454 -7.474510884719061
-35.9669466962622 -101.7560989747661 -7.375072463798221
-35.26699921465907 -102.73574887949485 -7.46390612236399
-35.90121097750715 -101.64001293313666 -7.371937260187605
-35.92461673604931 -101.68363168025721 -7.374606130582346
-35.235089071582784 -102.59818668007955 -7.465694356004403
-35.853871564194314 -101.47008940432471 -7.4228925422627325
-35.8761483033047 -101.5736361471782 -7.392256002231506
-35.784260038013315 -101.38726814485277 -7.371005301493375
-34.21220183574671 -103.45171216096985 -7.469041632411241
-34.13752935494779 -103.39266320201543 -7.5052043850815995
-34.029531486613166 -103.31232270903489 -7.488939948003719
-39.8176596417488 -105.8158340081943 -7.332836342514799
-39.64793082284517 -106.04136626334513 -7.32078015245208
-39.60134992138641 -106.1295729384486 -7.364078456598483
-38.552066909996896 -107.76192350132375 -7.3979275367278845
-39.91626605424373 -105.49712601325427 -7.313068320566406
-39.87895934726608 -105.5524740319279 -7.354242168111287
-39.74726497944039 -105.81676493700661 -7.3269669372495345
-39.63303456057785 -105.89794194212257 -7.384098712350684
-39.59615557106786 -106.02056476282532 -7.332985638815181
-39.562161165494715 -106.0638033303025 -7.35481709004707
-39.500704474588574 -106.14927316128305 -7.3387675580785015
-39.429884835659905 -106.21811592083436 -7.356899787667337
-39.17714865738527 -106.60014902792474 -7.341793379221696
-39.08584038116755 -106.7370236397048 -7.330809647860276
-38.99447177296309 -106.8642041745358 -7.342248588639206
-38.86169415728177 -107.04715005604854 -7.359024522069396
-38.82947896002796 -107.14108125269655 -7.37837090263722
-38.840326912005665 -107.22448409417099 -7.417443288135491
-38.496456635367096 -107.6196542256739 -7.39114491356173
-38.00033827963403 -108.39001372884209 -7.467576540036833
-39.870238441743346 -105.46336016515922 -7.309480774523163
-39.80747022652909 -105.52250542198486 -7.319067097474304
-39.7330071994633 -105.56828035846867 -7.358148328598371
-39.58459773531696 -105.86386363152536 -7.3854550537710475
-39.525705134660676 -105.94275379232506 -7.380177838894937
-39.48779432114556 -106.01292417363463 -7.363000176476224
-39.3554734095303 -106.20558570518334 -7.3455188875336495
-39.32794551268389 -106.24146513091061 -7.3085680777886
-39.153154890882334 -106.42028734238141 -7.336603272398823
-39.10996670518783 -106.52493075315454 -7.394690631839913
-39.09425017458005 -106.57474945552684 -7.356693522516501
-39.04093489339375 -106.70602412360431 -7.334127729985769
-38.97072002731927 -106.74419642656764 -7.336107376024518
-38.93874120570411 -106.82730791725236 -7.3464357619322564
-38.87521872387317 -106.93162383005307 -7.344804350097082
-38.79048847747535 -107.0170178655912 -7.381737834207364
-38.778727940868094 -107.09146746876773 -7.384547279737218
-38.73297167176415 -107.17867650618675 -7.417227319598326
-37.96888165969187 -108.32020032076773 -7.472593026589568
-37.93900727700148 -108.33426232145656 -7.4738388968779805
-39.46073829469391 -105.92638159414615 -7.389869126250849
-39.28160080690903 -106.15322436805141 -7.3929672610319095
-39.26290872212864 -106.2096058523932 -7.322862626088258
-39.131036645449825 -106.41923993441901 -7.336409942973518
-39.06744984007261 -106.45340231752158 -7.36003508074727
-39.009368497341505 -106.51539998335494 -7.373844758163486
-38.90924238644729 -106.71757488794506 -7.349212686623607
-38.7496295159281 -106.98639573464925 -7.376812307100432
-38.7032454546527 -107.05204671717692 -7.377000047392345
-38.29941394527909 -107.56439876603065 -7.430482545301398
-38.289807451544945 -107.58744931326316 -7.431505522004922
-38.930604808079764 -106.38884395057799 -7.417183893688819
-38.271982036899985 -107.48834787262322 -7.396517939617979
-38.122426139256795 -107.67392640502436 -7.456835631069598
-38.070930911431205 -107.68822548671622 -7.390544158735955
-38.08690323881514 -107.50891990703013 -7.4070287660018534
-38.07024276391192 -107.64580013537804 -7.388657529727709
-38.10200903777772 -107.36058421359171 -7.378852547939391
-38.071968387216785 -107.46783852180383 -7.39931283052435
-36.05286207762924 -109.82592486586034 -7.464873691265391
-36.0486850408391 -109.9471281455323 -7.465443193973826
-35.73454365029361 -110.28771721676934 -7.5220439347805
-35.78997477727601 -110.08271534656868 -7.560583042163887
-35.76168290152157 -110.15588092526484 -7.550610478906176
-35.72843937952227 -110.24504939875106 -7.536771548938872
-38.343995647239666 -106.04008278180183 -7.372898541055503
-38.33195229152446 -106.05239851098021 -7.353954913465799
-37.99000416503972 -106.60635452555185 -7.377237566333491
-37.25778225248333 -107.67163371111451 -7.4219521077816575
-36.036311692268036 -109.48817306515926 -7.48421788126309
-35.99515468933017 -109.58487211118742 -7.516284017371897
-35.972990152570596 -109.71705020291748 -7.5455014627116785
-38.58917284551826 -105.4525198219277 -7.358109886704606
-38.565239581363656 -105.50792171998263 -7.37794888350835
-37.228733198560725 -107.64016811687672 -7.43629843559764
-36.026530584963446 -109.46845904733482 -7.4724667115182255
-38.55305828783789 -105.44854885949972 -7.36081870209035
-38.534005644836256 -105.48878755042783 -7.36646506397377
-38.43354555902534 -105.51356241339246 -7.328682265451539
-38.421423531986534 -105.51925736182105 -7.324120049423616
-38.53551582721367 -104.85013617220922 -7.298901179904417
-38.49081879136194 -104.90952685375335 -7.369723309598127
-38.420276288426535 -104.99842184762835 -7.31804962583444
-38.39999851488348 -105.0268786936806 -7.3095951706257285
-38.55825778768044 -104.61240234407602 -7.370629786027874
-38.44046168958064 -104.8645455919855 -7.339167251800335
-38.435651286639775 -104.93854130342831 -7.368092045174635
-38.39562513561388 -105.01389747621944 -7.315310835251495
-38.48280093535092 -104.64830615070251 -7.363537892456455
-38.38556902440849 -104.69541080814084 -7.318652640188603
-38.38810453394483 -104.81322670338028 -7.294595464901779
-39.44192898100607 -102.91914137390623 -7.2411904383769325
-39.41385103912677 -102.97247732308783 -7.242518628672813
-39.34799687332862 -103.06659428075785 -7.244985002262008
-39.285130037728806 -103.1565791464609 -7.260615350960621
-39.273008765510674 -103.20919077070025 -7.261585133788452
-39.04961616906442 -103.49850314492733 -7.244854802301309
-38.665903288060775 -104.14063384477078 -7.269890696443884
-38.54361749140115 -104.30056313426286 -7.350231158291687
-38.481642423202004 -104.42412308670296 -7.351662891744964
-38.441100449405255 -104.48702906324489 -7.342315799967131
-38.37711348740655 -104.57492309749054 -7.292763489958894
-38.33362344075052 -104.64889097835352 -7.322988311495675
-39.40348077259269 -102.96158348400961 -7.2281212874985545
-39.15587963566196 -103.27926898509162 -7.275927248566359
-39.02179154224909 -103.44436953531347 -7.278526565811347
-39.02444718828796 -103.50876353184363 -7.256678767556936
-38.67054738986208 -103.92584571396411 -7.349338368121616
-38.655328176543115 -104.0527073822399 -7.291671595197279
-38.62763010737641 -104.11332030667074 -7.317850758373308
-38.566741331757726 -104.19105722835806 -7.356334507629783
-38.277569298753974 -104.63165651884881 -7.322023382047204
-39.478325134047246 -102.5490788976706 -7.281202404373262
-39.36747960767405 -102.68908294445743 -7.282611801869221
-38.99796954959592 -102.13834954767283 -7.2608732763458805
-39.04031715111183 -102.03654887189724 -7.25380126872157
-39.01935056729458 -102.06209457521216 -7.276513717401958
-38.95660223742756 -102.17977058932492 -7.261714949250387
-38.91911908400786 -102.25213547818363 -7.21547039542076
-38.950101489860565 -101.87108751186597 -7.291953987247665
-38.92441340133789 -101.92513591059243 -7.2751864270092055
-38.859794698620476 -102.00070792424083 -7.2593766113302305
-38.811436899737764 -102.10266700505483 -7.24484623199699
-38.889983734535946 -101.92425071138813 -7.264143129410723
-38.852261218709835 -101.98155201743647 -7.209473999621697
-38.90310673472003 -101.6117777109188 -7.253984249074307
-38.2141884464563 -101.92122737305407 -7.285510865369678
-38.28986928905144 -101.5976801300665 -7.238794478135509
-38.269931680613716 -101.75172981096983 -7.257581025511133
-38.369091928004714 -101.35712072800999 -7.1989041059197145
-38.32891968115174 -101.49419569741337 -7.219725363864606
-35.96026092965449 -101.78992104094188 -7.332977293067571
-33.98257245695373 -103.08867200300402 -7.398584008599898
-33.8610090021835 -103.01612845654856 -7.351271310326692
-39.79507308682817 -105.81019476314545 -7.190926380990774
-39.677406895169405 -106.0673443735982 -7.205599794211603
-39.59515270921496 -106.10754079641715 -7.212483164607233
-39.08322412801787 -106.8765384798848 -7.252278818538416
-39.11200226343101 -106.93004304044321 -7.308654296867496
-38.92276817774648 -107.13531478014733 -7.302111978088877
-39.739719322927655 -105.8096524417446 -7.202822024483549
-39.61376428371219 -106.05779119586333 -7.201184386616181
-39.56935886367545 -106.09567696733085 -7.209518370606599
-39.49369832132086 -106.16116289882561 -7.2431165215418725
-39.44317872173557 -106.22396128283862 -7.25863223016593
-39.36826293610249 -106.26637867401303 -7.232453263903139
-39.24620062021542 -106.50593468692446 -7.2309126360578855
-39.21092339449474 -106.57842163716269 -7.266440252946846
-39.03403359483894 -106.85937186656946 -7.25354025460188
-39.00243862517092 -106.88263668671183 -7.313433445712827
-38.950109564431216 -106.9812770349319 -7.292771734919513
-38.86060812444601 -107.06216542906036 -7.291704233193506
-38.77278635005929 -107.18731962324846 -7.325494113137345
-38.481435127291206 -107.6226217357765 -7.327822120984518
-39.41722506270297 -106.1228383612912 -7.235477779975849
-39.37167329678307 -106.16380168235679 -7.221364376959423
-39.17538537641961 -106.44039891775572 -7.273652975849229
-39.1334156593276 -106.55528694725994 -7.243514287067162
-39.06284038795797 -106.62881735987469 -7.304911205466107
-39.042527177438274 -106.67005048714351 -7.292821096007288
-38.984925476826604 -106.7316503072031 -7.2747962357750735
-38.916045700187276 -106.83664330756683 -7.3253164206415295
-38.90055093481447 -106.92679124805771 -7.294873729537423
-38.842649570408874 -107.00048965651526 -7.318841255844291
-38.732611841129476 -107.1406992022366 -7.330656105842155
-38.44010940273077 -107.60607755475567 -7.322554566581943
-38.12399944501419 -108.00581129886575 -7.348902131439566
-38.04632009489275 -108.0941837610115 -7.315849856766735
-39.298626667848 -106.1496151547199 -7.237067100199348
-39.15017350603375 -106.38400906035231 -7.31429321887032
-39.03454876832656 -106.57353942831845 -7.312382285601186
-38.945575680023175 -106.67970065704155 -7.24121862961662
-38.257798617035306 -107.62001761559706 -7.265480096780229
-37.92227319969839 -107.96723968774715 -7.308424003277452
-38.08462795337958 -107.51762912795056 -7.326983684668054
-38.046335177683275 -107.37922805348049 -7.2932731716172405
-38.03294133434751 -107.42285365979258 -7.3463546147050405
-38.02783156358335 -107.34055763267057 -7.26516091172574
-36.23895193842563 -109.91245033057046 -7.41461936445477
-36.228930870127954 -109.94667020570937 -7.414166728568724
-36.20018305301491 -110.11009749872987 -7.378735244402936
-36.08342283385612 -110.15899685121408 -7.372457443921919
-36.38810108532861 -109.51363583735149 -7.374280808742634
-36.36528998433933 -109.56630417707215 -7.390847732534977
-36.31408197893085 -109.70048770773475 -7.402653620155487
-36.20369378952075 -109.7639807037173 -7.383333203588211
-36.18569178699137 -109.845334817317 -7.40711027915852
-36.12016579589619 -109.93505104592174 -7.4112237529046014
-36.1168387743501 -110.01701846780341 -7.413589181040029
-36.03168200709067 -110.08055489254728 -7.452452311033243
-36.38636297662091 -109.39530473515536 -7.345507566178354
-36.398435522850704 -109.4517596866255 -7.355547022338065
-36.23938050725178 -109.62294756677174 -7.420851633065618
-36.18069642604935 -109.74915443608036 -7.4193648099242875
-36.10378895174674 -109.80380125498141 -7.448840429525458
-38.3550786068547 -106.04515446831425 -7.26529229337711
-38.33322553696522 -106.04840959677465 -7.298614204157776
-37.99749606363311 -106.60075325412261 -7.333478927079652
-37.257058521874576 -107.67817646008581 -7.347103404729426
-37.22600432231236 -107.6446372994288 -7.318393246280137
-38.558149820427396 -104.86045272327608 -7.201100900166196
-38.50546524943563 -104.87185666526814 -7.221578748931139
-38.393453539015226 -105.03536112327816 -7.26383481826859
-38.440542067485715 -104.85296550276531 -7.2436740972161795
-38.307495413556694 -105.0407965126611 -7.230130025135489
-38.27581695324277 -105.05117148825238 -7.207379311292591
-38.40232883082668 -104.74446640328365 -7.203916623536991
-38.402166128508 -104.80047995694629 -7.245453712681839
-38.260372024659425 -105.02589218992998 -7.218063067579776
-38.25346442515882 -105.03506520641699 -7.206057219962017
-39.62452031276743 -102.78186758120067 -7.160059408009855
-39.4999246179673 -102.9003348037291 -7.173167145326327
-39.483493972902714 -102.96994723257455 -7.19880360308791
-38.96127102637269 -103.64340864595161 -7.188035032571563
-38.75207397935177 -103.97047819570955 -7.172984431262468
-38.68939888776987 -104.05566417311242 -7.184283839093245
-38.67293249660991 -104.1740550574701 -7.249301183711894
-38.62327887873683 -104.24403047898913 -7.241621867461676
-38.513194444830674 -104.33815667286244 -7.2110828409672685
-38.49412458299735 -104.39631328167634 -7.212329662411808
-38.36690930339411 -104.56999591932824 -7.196780678127145
-38.33016562644349 -104.66396886661184 -7.209161345400737
-38.17414967957116 -104.95840470763753 -7.199572855209329
-38.88797023134521 -103.71060930269523 -7.221061967697806
-38.818815855105406 -103.79247207018743 -7.181640551150291
-38.72794766363119 -103.8829630514254 -7.166272275701522
-38.706783322303835 -103.91030670747656 -7.159782676557483
-38.68555508923507 -104.02525885579396 -7.193248243088943
-38.600994745714964 -104.13347562332123 -7.197529946381261
-38.56109133930934 -104.20404354749613 -7.187222886399983
-38.49089311854468 -104.31833367089477 -7.181545904053776
-38.47078676385539 -104.34827357081505 -7.186481755813489
-38.34014362672982 -104.55003467259361 -7.180322407829501
-39.335911072724926 -102.55899227082654 -7.187852382461846
-39.36168359264056 -102.33965265547526 -7.131581107226573
-39.210898740578166 -102.5967262378496 -7.175873180978957
-39.165119876995945 -102.6876785742509 -7.194482266182498
-38.95901058897815 -102.25134080460013 -7.1210367661055
-38.933064910777105 -102.28050182723132 -7.15089815732143
-38.88874936645899 -102.3442104931225 -7.172408090469621
-38.84134726804609 -102.04873666837685 -7.146592893872417
-38.81945262228954 -102.08357956205529 -7.1605392735013265
-38.85414809938702 -101.81946417137856 -7.154321716572672
-38.842039061804556 -101.8503624543014 -7.113608825368618
-38.8217231835721 -101.84912355463095 -7.155933578309411
-38.366304436579966 -101.31530149027351 -7.1535270505130795
-38.38256281823716 -101.24930180188603 -7.178076744970117
-38.35326314384142 -101.27175286846514 -7.125639192372393
-35.98046564337862 -101.8006358788769 -7.155731530134339
-35.95120356004636 -101.67826012836944 -7.164052972745472
-35.915240363606 -101.61160985402582 -7.149103747580381
-35.86261625828955 -101.47493083190997 -7.144381737805188
-35.83523068672195 -101.41476472550214 -7.142357353660228
-39.728859557999606 -106.13503771476111 -7.140479814894305
-39.70158041549944 -106.12999811341321 -7.178019911932384
-39.85281748092561 -105.80895659685939 -7.161660572701768
-39.63161818926693 -106.06215028131113 -7.190611329890712
-39.625378064302126 -106.11640592479564 -7.155664435705549
-39.29774185528672 -106.62860979499447 -7.140871369969952
-39.116041790045834 -106.89888121179105 -7.216391021089763
-38.898428711805806 -107.19823924378578 -7.195846165472917
-38.69983381288063 -107.46091387579516 -7.1568229465062405
-39.754657526414434 -105.84235049927999 -7.1438845196602045
-39.606666892006245 -106.04926142167172 -7.186610320130088
-39.575874031129814 -106.08606470980833 -7.176324559478386
-39.51643430805012 -106.12354294072296 -7.1866109863690895
-39.43106923536203 -106.23411297826357 -7.153785682030415
-39.23370933588335 -106.51356434398315 -7.176610634009476
-39.22100347790505 -106.57153830627175 -7.165517214893587
-39.06334397879815 -106.73286396098075 -7.188834814748757
-39.04623790407092 -106.84384093551105 -7.19479154246048
-38.95502374779218 -107.00517784371453 -7.213043677823479
-38.85669681891733 -107.15640895298007 -7.1717999941186035
-38.69373427021888 -107.35275140174055 -7.186773341015088
-38.66086386418661 -107.39510430421531 -7.177142929961968
-38.56515838734064 -107.49112965944472 -7.1572711106364535
-38.27732879825588 -107.92163192209654 -7.183424650764944
-38.18971735204608 -108.06043653172722 -7.225824852367282
-39.4959365424341 -106.06559321389959 -7.140405719366079
-39.38711234726116 -106.10378468852711 -7.148629600784751
-39.346038910566065 -106.14478529926504 -7.199109536759847
-39.17860963476067 -106.4903792798273 -7.184412063927044
-39.15128286996166 -106.5218726019185 -7.1882599269114005
-39.080085823377225 -106.56011078776129 -7.138151155225725
-38.998054914145506 -106.71110800069623 -7.200340409573075
-38.9624711631153 -106.76007930002905 -7.170509454944617
-38.873612552680065 -106.85836569536188 -7.195066544776963
-38.856708146036866 -106.89962696204816 -7.199714925769619
-38.63892375850313 -107.30971977628126 -7.166041259032962
-38.56268526494247 -107.38519199258862 -7.165589098407903
-38.53456320238173 -107.4258216281438 -7.184946247621516
-38.36904279083502 -107.67604654504413 -7.252118120743158
-38.225512618509235 -107.85601290600962 -7.1946425856982925
-38.11017113217206 -107.9898420713171 -7.254626959347781
-38.10531515510231 -108.08374964527854 -7.249210360834017
-37.926399940999545 -108.25416763120265 -7.277255539329741
-39.34530487185554 -106.10350571255532 -7.105604969119961
-39.00806352324477 -106.52756449107217 -7.12676333484339
-38.90512915308111 -106.7421677988886 -7.146953659614182
-38.827264496070526 -106.83768708574394 -7.1827125699508585
-38.819606210659906 -106.87111039075808 -7.166540005957418
-38.26958937464732 -107.61270698545631 -7.2130669470089055
-37.92435667230133 -108.21801026253428 -7.268177298270407
-38.2470835068477 -107.53550985294375 -7.169221789631863
-38.19603361060369 -107.5436668060308 -7.223378601055213
-37.89954972700362 -108.08212804979759 -7.1850182492817405
-38.12631965508965 -107.45245989744902 -7.226592130078145
-38.07457626816014 -107.38977900468379 -7.248352570566282
-36.234587380300056 -110.07649610631908 -7.354713937441567
-38.02517697755986 -107.33385977667871 -7.258083875599431
-36.228745967275835 -109.9557832101405 -7.342689559970421
-36.217890801754486 -110.0749378614738 -7.358725084886198
-36.27167039165339 -109.72768389680999 -7.3378850263255515
-36.15870529637726 -109.92899084588306 -7.3599965015333915
-36.39021374793057 -109.29095971471861 -7.320032500582289
-36.395226628835054 -109.37992101429366 -7.330218228636926
-36.32054401509114 -109.49357079256502 -7.331807587104639
-36.37682606118575 -109.28971003098303 -7.323248757702541
-36.360508181755826 -109.3166528338504 -7.32649349349761
-38.353212229594 -106.06241568565447 -7.176879433668149
-38.343882032297316 -106.06074810788881 -7.181100903997009
-37.22922808271783 -107.59063335259555 -7.202941536091472
-37.22200206502963 -107.62330326849302 -7.238420855016416
-38.31387957754019 -105.68541885176694 -7.1185122622450905
-38.30380418246998 -105.52509693290415 -7.181414862128197
-38.27530299214046 -105.61597528728272 -7.129709011280142
-38.25350496440602 -105.65618795022867 -7.1260373792321685
-38.289493041936325 -105.52062577545598 -7.175501614439943
-38.219909279605396 -105.57696345055031 -7.122463740850309
-38.15687548736954 -105.59327125328542 -7.118112976649154
-38.30618600421771 -105.0349419681537 -7.114138281682109
-38.28062516114678 -105.07005499617559 -7.17187073350293
-38.30015419423998 -104.8652151477394 -7.08907532233616
-38.27115365114395 -104.9794441200507 -7.118727358611844
-39.5871634647835 -102.77219689533936 -7.069531739646403
-39.53056555044856 -102.83645956088185 -7.099913272432742
-39.4807360868524 -102.86969783468174 -7.10803120881245
-38.59383462892063 -104.2475624152 -7.084869365370321
-38.52830483412707 -104.31803592081943 -7.121687138878216
-38.48473641613362 -104.36582466609816 -7.161203447364283
-38.34400785795708 -104.5759656141689 -7.136550878049898
-38.32154798032817 -104.66575229185332 -7.16326210015283
-38.26366953014281 -104.76576264925765 -7.098002419385741
-38.1941518086979 -104.82865419458685 -7.1157527008659684
-38.18114768241801 -104.90644967117937 -7.163801021693167
-38.14367725603576 -104.9676750869043 -7.178675841718835
-38.64890672985543 -103.93622466212632 -7.146317719926216
-38.57661982042139 -104.13425760344006 -7.135431723264648
-38.52377414032908 -104.18548884172365 -7.123570313894492
-38.48540101940293 -104.32987937414804 -7.156126486949221
-38.32631116403104 -104.56368653713888 -7.165642573604742
-38.14805251422573 -104.81851140471807 -7.150686604017868
-38.09830487600236 -104.83865876207788 -7.135120116247712
-38.583699067007686 -104.00276525777369 -7.145489087553232
-39.505439328110526 -102.11767533701992 -7.066894925598757
-38.919232008456014 -102.30915477816464 -7.057065546082125
-38.901725132430016 -102.35915578084656 -7.052616466401629
-38.88272910814569 -102.03107880966118 -7.0427964937775815
-38.83567626194337 -102.11613412577327 -7.081045009926818
-38.819896323092976 -101.88346573594305 -7.065916707335112
-38.75783869717964 -102.00550799439839 -7.027087651112323
-38.47259606222834 -101.90050001623365 -7.007546643036755
-38.6470190518177 -101.48393147219252 -7.005333677977073
-38.57992763074128 -101.64681449859994 -7.001604286112059
-38.24290342953997 -101.6743104906268 -7.048040583252973
-38.28832383453263 -101.45536102321037 -6.999789071959043
-38.29602147652474 -101.47493386023368 -7.050778468680769
-38.23125052804308 -101.66206949684484 -7.031862562943333
-38.36915757688568 -101.24426948447481 -7.058869564688064
-35.94089015105273 -101.7701483826805 -7.055300612786723
-35.912041059011294 -101.61149313300133 -7.071348346129898
-35.882210220073965 -101.51567856149823 -7.0857653491294466
-35.88630850414448 -101.54698865595742 -7.067626858719142
-40.31356280190056 -105.43847054662314 -6.97349607847525
-40.01762087629399 -105.85493481906111 -6.991696778180903
-40.20482815367192 -105.45955861869425 -6.978970390052057
-40.15002436416263 -105.47573988786107 -6.9841851252337515
-39.92927906691683 -105.86107134330533 -7.010752058273493
-39.68832154796159 -106.17617691336216 -7.006109728009121
-39.12279250147753 -107.15604600149096 -7.086823954866001
-40.057035995083744 -105.49190977597915 -6.990974810412518
-40.00691124082676 -105.50122514583214 -6.9935650791409625
-39.84201299771704 -105.83656988373407 -6.99078115341944
-39.791678082483884 -105.87431040330644 -7.0406148134121755
-39.74768216147712 -105.94047797349118 -7.044427971365381
-39.65276480865688 -106.18244392871155 -7.019557062099256
-39.231947030079596 -106.73556375669448 -7.046515197346939
-39.17831050583618 -106.75379146846879 -7.0420023241103396
-39.046238131360134 -107.0979428392444 -7.084806500141333
-39.92423699718485 -105.51313816856566 -6.989631704269366
-39.695312547488946 -105.85974913019128 -7.036120593685038
-39.67645462064883 -105.9334854391431 -7.058608123095985
-39.601254143240915 -105.93869819044298 -7.068720536813575
-39.446303456930515 -106.21875000992388 -7.035041585302116
-39.14435816090437 -106.68866946027418 -7.075542235117945
-39.07448684165966 -106.74596660215713 -7.082836322701324
-38.93391319095507 -106.9883394581137 -7.077010152749727
-38.58317802029761 -107.50589135739503 -7.146315986119044
-39.578410351275195 -105.83347237086824 -7.0021873473084435
-39.549392556949364 -105.94299790727929 -7.00583752435638
-39.395611840927764 -106.0817389022329 -7.092951875444107
-39.37205068809702 -106.20928589673869 -7.082769875668555
-39.14947332766894 -106.48083336302507 -7.0757144400353
-39.079984343744115 -106.61704792771894 -7.08527739043118
-39.00929786723615 -106.70715241610323 -7.065760091597019
-38.95579612713812 -106.7833537631171 -7.07499179584508
-38.88416365295819 -106.83935968881138 -7.0476729204220945
-38.87709131728265 -106.93109607020085 -7.074333650235492
-38.51553557315592 -107.45086181832481 -7.145931445687239
-38.41049516981219 -107.5441821140519 -7.115942142888974
-38.43612056553341 -107.59671214104915 -7.101526873900533
-38.236909668307234 -107.87301187978034 -7.1689560664390095
-38.17721125266967 -107.92603538579841 -7.1413817327038105
-38.06870789301556 -108.10838040502358 -7.081991597060798
-37.96970654513472 -108.21857175003112 -7.167819188040402
-39.34846355434017 -106.10189159683001 -7.095149566410537
-39.32045943728685 -106.1197292205552 -7.094347843383197
-38.84006421283143 -106.83926547084558 -7.058081938579173
-38.81048586590105 -106.8779212215801 -7.128716192651045
-38.384724396199296 -107.3928927032091 -7.067041965927512
-38.38407218505481 -107.43277949839903 -7.077943803460748
-38.27145479280566 -107.58913059179302 -7.104008575196332
-38.143437164904284 -107.80578536583515 -7.1437135353230055
-38.14918330241546 -107.89612339096314 -7.143940065294906
-38.05379092061933 -107.93228867562928 -7.107391794375648
-38.03434032679591 -108.03443238653904 -7.080681058230047
-37.94784959894779 -108.164750831073 -7.143867534358851
-37.84893568041711 -108.20946244592905 -7.104205406701182
-38.43442359518151 -107.28555415908168 -7.071553958662924
-38.36591788157067 -107.35904239073024 -7.082493840056614
-38.22824953152887 -107.50876689510393 -7.102784863488745
-38.10346792885547 -107.68048046244596 -7.1347311908222535
-37.838794699209224 -108.17982822266663 -7.1187783087612635
-38.065647098244106 -107.54248222072731 -7.135129960167803
-38.07576828204681 -107.58587661136538 -7.137752178580729
-38.02933276578425 -107.40527662199561 -7.129213048136005
-38.031936825305024 -107.47137194493543 -7.133731068442234
-38.007889155240576 -107.38757793668951 -7.136876497076811
-38.00416635061703 -107.39894686650925 -7.135744707731028
-36.51064603379216 -109.60076743392648 -7.163249300378014
-36.20935437583922 -109.94428508751426 -7.17765353894249
-36.09408062553361 -110.17113996040639 -7.181369223737641
-36.064789957588204 -110.24106980723471 -7.17528518552379
-36.28255016998543 -109.69513291973777 -7.163039960209556
-36.26356735954032 -109.72910145216512 -7.165071214418854
-36.19219379784398 -109.84368399435887 -7.1736803519545935
-36.17012778389888 -109.72649128130627 -7.172814967939466
-38.32944374445579 -106.02115615649177 -7.049133919199231
-38.31709284691054 -106.05026104015217 -7.103975114124999
-37.25224831718337 -107.65553066949228 -7.101117275824738
-38.39135941301046 -105.84352296883662 -7.061528120874451
-38.330557834535554 -105.87912690599947 -7.050370229511664
-38.28863161934771 -105.987160283379 -7.049107082462837
-38.30429167930129 -106.05537832668186 -7.091124649454194
-38.05532464556353 -106.41571130108827 -7.066751586409901
-37.23623095783426 -107.59257421877743 -7.1567281406843
-37.22143941241455 -107.62539138103605 -7.1372966714661095
-38.303530836734225 -105.789777031929 -7.03377942015622
-38.30074986201878 -105.83073698576716 -7.034936207344991
-38.255364637786364 -105.9278081894483 -7.051024479451734
-38.320388830239445 -105.58908505667836 -7.099235190166472
-38.23700802739254 -105.67896988726301 -7.084973204022509
-38.18634061299766 -105.73678811418135 -7.089472972936593
-38.197233310040545 -105.59571013270961 -7.07936423595388
-38.16589271671674 -105.65121586646387 -7.076171755166141
-38.138373834479154 -105.7128849865958 -7.075103053972328
-38.397850931687735 -104.88468378764117 -7.075291544642614
-38.38947572911145 -104.90874956300969 -7.0653881810595704
-38.31498397206478 -105.03703420558588 -7.078415482965947
-38.36139965291407 -104.85495973294142 -7.077107845078608
-38.31269486623315 -104.87603509159943 -7.080668924620407
-38.58242855387977 -104.29458917135865 -7.007059184887524
-38.53757243232276 -104.3365613257817 -7.00571356020216
-38.505872881120446 -104.39272516371715 -7.016731581683038
-38.29665953190839 -104.69763083794886 -7.010205201588248
-38.282766166841135 -104.7417296026703 -7.037767515169699
-38.23365723540726 -104.82150797586709 -7.069987130533741
-38.172816162111175 -104.88606177052151 -7.062749123709505
-38.57385528072887 -104.16278021398857 -7.060596924582204
-38.5739359358403 -104.17302505223309 -7.061830776216208
-38.23891169437315 -104.69814330138605 -7.015453635373926
-39.5724137851884 -102.02101365723388 -6.953666754487395
-39.54364253734305 -102.06249222766844 -6.975405654318102
-38.96720780231995 -102.24566707355604 -6.935563959352143
-38.9342540375196 -102.28143695554556 -6.9615553695322845
-38.89794501988357 -101.97240818619574 -6.963108717211942
-38.87225234606608 -102.02848274217928 -6.964608621347402
-38.85808226751192 -102.10282776319937 -6.982883670346694
-38.8057529175652 -101.98463000167455 -6.971504433344022
-38.77029627562215 -102.06266876182589 -6.968132673202195
-38.474728229499696 -101.89740199691744 -6.991779611003968
-38.591592275781274 -101.61302429389296 -6.915231025555107
-38.52964106340954 -101.74650252191896 -6.961956647484984
-38.361248172389914 -101.2014265116568 -6.926720642460821
-38.3392965005547 -101.2717742712352 -6.9679089029962515
-33.83606694861099 -103.27245131213041 -7.029884553677484
-33.68369692387023 -103.19463048432733 -7.019438274557676
-40.2943813784405 -105.44176794749404 -6.9649671711615575
-40.00028989030254 -105.85539952450794 -6.9831314975322085
-39.27204566601866 -106.78140585831194 -7.021292957399666
-40.01095577451594 -105.50465867543767 -6.9739648807776
-39.70337223306549 -106.03923980346747 -6.931824522724846
-39.14323008588487 -106.79704422783918 -6.959645994315666
-38.349236012622086 -107.98127406565192 -6.988369414348481
-39.75305760118098 -105.82636814023243 -6.972825417366429
-39.62655169783437 -105.92510081338006 -6.920746453830556
-39.5944088462089 -105.94188131444463 -6.987137031497449
-39.33345101384487 -106.4559871128049 -7.006856861328542
-39.14120868537624 -106.66653625244324 -6.969228720642965
-39.08724759763927 -106.74023197036826 -6.969236114482174
-38.96165719919726 -106.90260046077955 -6.992422692211739
-38.320796094746875 -107.85002009845533 -6.999828400274229
-38.31556846355887 -107.89255143594154 -7.007115361061903
-38.22113842284306 -108.01062795666103 -6.987386709043575
-39.64368138712456 -105.8314644361387 -6.98571286023717
-39.56995705667555 -105.89335572018406 -6.9369291369040535
-39.53093074447326 -105.92818645748645 -6.962619239967461
-39.17908532283991 -106.4766699781979 -6.98005971256424
-39.127817330487225 -106.52383293317 -6.941818390066441
-39.088674870491886 -106.62426281496242 -6.977531653764874
-39.026463215095944 -106.70245701290003 -6.9876478598108065
-38.97198584092238 -106.76702631233034 -6.984173475509896
-38.92976897526719 -106.87986343021937 -7.019771788024448
-38.226326731240135 -107.81270721876619 -7.0154775203972015
-38.059320186936965 -108.07085299559117 -7.070326718390665
-37.93713521651372 -108.23259340626318 -7.024951044681056
-39.48693555242519 -105.88262783608006 -6.934774861409568
-39.11226342577394 -106.45193199954112 -6.96489941804504
-39.07266013106985 -106.46172074571047 -6.9452395274909104
-39.01787190816465 -106.57977224864236 -6.948413094041369
-38.960298196134126 -106.6032098159759 -6.9494951056207945
-38.58160227042133 -107.21660759445344 -6.948447851239235
-38.406692998062674 -107.39880302304665 -7.028610795841879
-38.38398473322052 -107.4817036327978 -7.007724632385492
-38.313032187450744 -107.5461612255803 -7.005491380260851
-38.29943713375778 -107.59842456434397 -7.0170375597201575
-38.14324213367872 -107.80259012207733 -6.9915541531047625
-38.14910947347944 -107.87039154260839 -6.973729948307543
-37.918460107396996 -108.13827752415197 -7.013025277889181
-37.894872830334116 -108.21597200112228 -7.0125627601593035
-38.3536843282575 -107.3213105551286 -7.03380740074673
-38.27835309484211 -107.46412207869713 -6.973092150113207
-38.21623246628101 -107.52378266897333 -6.984405917545709
-38.19842910010521 -107.54942902482995 -6.977720678933058
-38.15062783858018 -107.71541408019705 -7.047801766942811
-37.84720390909482 -108.10475783766302 -6.99150234001385
-37.843791055599446 -108.16247731404252 -6.993971394350861
-38.258620200871064 -107.36539691544249 -6.968588028074306
-36.03644416599949 -110.39005802460026 -7.1154687285742595
-36.01274291107781 -110.46707065568145 -7.086170812072385
-36.56951134456591 -109.38440772811454 -7.092392392142302
-36.540236044555094 -109.4902307306156 -7.1016697678201846
-36.51833627121627 -109.59946549067395 -7.13196309273397
-36.18726530669891 -109.9798656681497 -7.124561610282757
-36.12555588824704 -110.10483635469342 -7.0848002522715685
-36.12375905353168 -110.18915754979588 -7.085391505736343
-36.06857257665082 -110.26222176729684 -7.124335582943152
-36.00771667520241 -110.32193675320396 -7.092463636467513
-36.60014881778677 -109.17176804314626 -7.042760997061163
-36.5488628319971 -109.26453671726844 -7.057709110030627
-36.557494992648664 -109.35867076565192 -7.068434178776745
-36.34188575120238 -109.60613529232812 -7.137153966909134
-36.29808779831025 -109.69283320015627 -7.127903442585147
-36.260537918725056 -109.7773478880369 -7.1335438417538395
-36.198054527713815 -109.88212609595428 -7.144812075086689
-36.12731173546986 -110.02375190492249 -7.084247011251085
-35.96544163102337 -110.20377191091669 -7.1048727439501285
-35.903889826382766 -110.29517432048782 -7.102403576091176
-35.87956058874654 -110.36869966905073 -7.0928079661580234
-35.81846605313104 -110.45989259624625 -7.10648350918001
-36.54305596229279 -109.06928028671541 -7.065934992447143
-36.529699839462644 -109.09175853022622 -7.066834137737678
-36.519533238901836 -109.22024937251793 -7.044747123568371
-36.06986590823405 -109.61644929719134 -7.0905179757622685
-36.03791452836405 -109.73309050150486 -7.1042369760613155
-36.01053323086765 -109.82792863731287 -7.100790909799276
-38.32646784628541 -106.03465986893934 -6.9905085001377865
-38.05112496533734 -106.4517411156135 -6.996183097272626
-37.2428764637279 -107.66794751821799 -7.040675160953544
-36.067560621308274 -109.5653034263104 -7.087548468928739
-36.065401855692215 -109.59219402137887 -7.098520778330602
-38.330727404159816 -105.86641875023699 -7.0034769818462514
-38.31340525547181 -105.99259414362422 -6.9984790938561865
-38.02376673594743 -106.4414932848346 -7.014130976453391
-37.22677035406673 -107.65865506282483 -7.045251009698081
-38.31821254531155 -105.84842808535555 -7.006009516311528
-39.588420819600834 -102.76245905619743 -6.8900593295093335
-38.65140685502211 -104.17099927980664 -6.937164259229733
-38.54245402380981 -104.33122814639165 -6.9641877820299
-38.57297187416814 -104.17034611414398 -6.882017327949387
-38.54150434454744 -104.20821931238737 -6.885433090402239
-38.47339389078959 -104.29687292138989 -6.910236207087775
-39.57327993500874 -102.05158916347942 -6.869062574193243
-39.47538613025621 -102.19117442233635 -6.854354058858808
-39.408735476631065 -102.2861801539677 -6.835872571090732
-39.09165095654156 -102.02504794012958 -6.812117875411923
