ply
format ascii 1.0
element vertex 824
property float x
property float y
property float z
end_header
-15.595504939194289 -148.57690199009053 -7.215546902068446
-15.537022047494776 -148.49641638494563 -7.22520208421387
-15.549248064414556 -148.30740498189928 -7.215260969167257
-15.515081631328693 -148.19139071482795 -7.216458499948793
-15.299447745425676 -147.12505828039326 -7.300368231681591
-15.63665537760316 -148.46484335356539 -7.2036395194374325
-15.590634638912011 -148.29308213763835 -7.206173814380195
-15.569166337780693 -148.22495082661774 -7.207308388353507
-15.351506631437951 -146.98362628957642 -7.280468104714317
-15.392572106351851 -146.9053045887994 -7.266604286085199
-16.30497178021718 -151.19336346629962 -7.268755388247866
-15.878469124275961 -148.99379762517094 -7.293977987116308
-15.83159652644327 -148.62841321770296 -7.299392761522831
-15.768558770961933 -148.27587098151417 -7.300871351446101
-15.677919421775904 -147.91846664090232 -7.299876902045571
-15.680989579288978 -147.89744186516123 -7.2982361232394375
-15.632354450712395 -147.76841133604057 -7.298547023131117
-15.433472736653925 -146.94252543678076 -7.26548661045331
-15.44023709148029 -146.734368473175 -7.241199170738996
-15.459942820663002 -146.70166335742144 -7.234922536128857
-15.885661987088442 -148.46987521731722 -7.2868376450350505
-15.852000831246682 -148.1634222773106 -7.282624914518021
-15.749779359461918 -147.838429921251 -7.28377004926948
-15.755506424343606 -147.7046979869293 -7.274901681715901
-15.73466086401525 -147.64926271738673 -7.274659249425787
-15.697062235628099 -147.50104943069778 -7.2704292570822
-15.703091493442164 -147.47689131905037 -7.267736931517805
-16.459447946747936 -150.779667114975 -7.279572842024889
-15.99272706699546 -148.4308263608384 -7.267591746236211
-15.95509500842264 -148.21693202282515 -7.267367137877243
-15.926124681135033 -148.0475375016856 -7.2653815706380875
-15.83630911484644 -147.77121171043672 -7.265923492822283
-15.84208571569002 -147.7199942906888 -7.261963115956825
-15.774197755750237 -147.63266221853132 -7.2673050866895075
-15.752831069361061 -147.53921212310073 -7.264408932658028
-15.952251924466964 -148.06710880591274 -7.26189343661298
-15.821451116448257 -147.3817559088887 -7.2424058781400635
-15.866048300574976 -147.27438971360064 -7.2273815742696135
-15.808005816618191 -147.1705151791223 -7.227857279470278
-16.079208007561643 -148.0162696997014 -7.238578111730841
-15.936178989342576 -147.21458272471978 -7.212004194127183
-15.69256412570845 -146.12079713465027 -7.302756698992621
-15.728693319687416 -146.04507792397104 -7.2917681085973864
-15.77892142579551 -145.9116337679115 -7.273478176293926
-15.886586199956323 -145.86941301045306 -7.259747790131539
-15.830741507768082 -145.78126802780838 -7.255268949513909
-15.95256485724179 -145.7755159071769 -7.244234600800535
-16.20411407469491 -146.43695757847854 -7.279697980994257
-16.059038431177097 -145.9248449862834 -7.2500970787222005
-15.940251567299557 -145.44108931742483 -7.209304210886857
-15.926453757892991 -145.40333244931307 -7.206295940893216
-16.144859870627933 -145.88665935064006 -7.238528339320046
-16.10272992478925 -145.7828123835729 -7.231812956398742
-16.30553842113006 -145.847534852643 -7.219935406201255
-16.192004719201957 -145.75252726671587 -7.220768995916546
-16.407017193214287 -146.06435100265693 -7.231015749371538
-16.341860685664916 -145.77000854685343 -7.208951457626428
-16.285257430932816 -145.69672644940187 -7.206693893251174
-16.411878449299987 -144.60234161711375 -7.298340233038295
-16.5060752367756 -144.6573968789373 -7.298031811554187
-16.390809237583674 -144.1448098193192 -7.258054432400867
-16.40556057466195 -144.0731946567399 -7.250759118402567
-16.547183663332905 -143.77059839741653 -7.215826498119522
-16.566918566130383 -143.68965297759465 -7.207283879109371
-16.96177254663558 -144.72878885506964 -7.27813460475561
-17.51714164012813 -145.15082478138018 -7.2754928447038765
-15.549958160427181 -133.17925950389667 -7.224722188376653
-15.620849953979883 -133.24222119522096 -7.228813005508162
-15.737033725410429 -133.23680563903687 -7.230363305428713
-17.509698567430526 -141.57144624108915 -7.289148394347398
-15.908633559667686 -133.61538236033738 -7.250725369001929
-15.861548223750427 -133.57141496664147 -7.247968512859478
-17.594880888332014 -141.39262100301502 -7.27507937625494
-15.96813654909308 -133.60698333999184 -7.251189189382032
-17.688055108520953 -141.19996774563623 -7.259688579215102
-17.782109276013117 -141.00329629942905 -7.24418312092518
-17.861457217441867 -140.82564307018944 -7.230094664905084
-16.488479725380873 -133.97825070647195 -7.275507784032968
-17.947828716379036 -140.63368995748556 -7.215058427293439
-16.581271513684058 -133.8591087817818 -7.271136218832553
-18.734884082637674 -141.28438996941895 -7.241045927231613
-18.765622359711365 -141.30209791199346 -7.241504806288363
-18.943806071361884 -140.97310424401323 -7.215406342181184
-21.212497860801847 -133.64418818514574 -7.2899889638604165
-21.60374905635709 -132.8408085543369 -7.2570251516693345
-21.986878212821765 -132.03982952337853 -7.224121488951686
5.305670150797795 -156.98404937370105 -7.108076553634213
5.456847137453096 -156.6924955795624 -7.105183758257288
5.151857712149134 -157.42750484198547 -7.108946229168444
5.187135316889545 -157.18723712657504 -7.110482093428263
5.239803901597568 -157.101039063737 -7.109387857736053
5.27279107564884 -157.0427961529569 -7.10866819376573
5.283951949237906 -156.90504843652943 -7.109851810256992
5.296278679886431 -156.80487041094946 -7.110555635491357
5.118115916045699 -157.30242538520645 -7.111912384602969
6.500480510455404 -150.10770530938692 -7.113817684025658
6.515623902222387 -150.0428402707498 -7.113552495641653
6.68547003998216 -148.74584303965773 -7.11089346334194
6.377345175954787 -150.16638566656218 -7.118981091250277
6.651945664747586 -148.68100659800476 -7.11241434288025
6.600198677784753 -148.61653361622086 -7.114945522783037
6.72124005573302 -148.11961143172005 -7.110903505989521
6.791390932138125 -148.01702523193345 -7.108035378924411
6.588212089731876 -148.55149536367023 -7.115526674198709
6.634534255424896 -148.22074476728085 -7.114477682418539
6.504900983181177 -148.35804844520968 -7.119744047568261
6.114215151914589 -149.83879589275156 -7.131643007600212
6.099485034309065 -149.74233543225716 -7.132724104635865
6.383828097553938 -148.4284383424105 -7.124683044957418
6.224521774384424 -148.49897195329154 -7.131495981348395
5.9778796520845425 -149.48629669685536 -7.138970512949488
5.9712845482765715 -149.39569014715985 -7.139633490960798
5.727931346796122 -149.94671734452274 -7.1478872017537185
5.80229224696841 -149.89000565554957 -7.145010618776393
5.927676296320076 -148.82637930699337 -7.143296173444542
5.579915747728975 -148.95544980421988 -7.157935690464182
5.43124027335033 -148.8971111985053 -7.164644729675642
-6.074757790286504 -157.32813091727408 -7.190287259556554
-6.06324457748137 -157.28449936240813 -7.191754194048227
0.5223361985187651 -125.073564952734 -7.213939336779871
-7.1471615501900025 -153.35790594423221 -7.199744638870091
-7.470911089472898 -153.93925245156376 -7.190990769429012
-8.84117304204133 -148.18233282796646 -7.156727642677354
-9.145439906669164 -148.25997354757254 -7.107534383757258
-9.253717007169984 -148.39136001975282 -7.142196091343866
-9.16480500747101 -148.25837705409702 -7.1122477063060785
-9.270167694822462 -148.3308866159434 -7.142874301087149
-9.286296665934584 -148.2302788988587 -7.140552567917985
-9.25756065702839 -148.15470629452915 -7.128266538142684
-9.354338712128467 -148.20305826203494 -7.155478296578522
-9.384048278447326 -148.13573673401376 -7.157860579309947
-9.39717063940882 -148.0519508433131 -7.154486389864763
-9.34850323129552 -147.75954707541587 -7.116578395518688
-9.451690768984239 -147.90773755758437 -7.1549674657947655
-9.369011101833618 -147.75740646058466 -7.1211583596866355
-9.498512930476355 -147.90237626321547 -7.165565928534288
-9.51049633736324 -147.6234726140145 -7.139722237630349
-9.76909875066243 -148.22898647133817 -7.160456493047927
-9.723598356236456 -147.94429824759095 -7.118465225662439
-9.968885716294123 -147.84491757450587 -7.170735466857711
-9.906704576545767 -147.82194683350747 -7.151608570629516
-9.870189633221806 -147.68578077598568 -7.123733661646901
-10.028207523709579 -147.96996474146383 -7.202330263622445
-10.100828221096991 -147.6739694893984 -7.1795843857655095
-10.155782140230231 -147.62004834900915 -7.184659134946781
-10.161620563129086 -147.56817851163513 -7.177750226239531
-10.181052340964264 -147.44810556759035 -7.162375416837503
-9.740381792071416 -145.5774395993413 -7.183020673568241
-9.716216631119899 -145.4603307724289 -7.1653376296574764
-10.275674736677129 -147.43465260145032 -7.18167757097709
-10.341046361141565 -147.40976420398331 -7.191900738411802
-10.420774439134732 -147.33289161167588 -7.19507946336004
-10.444776480662231 -147.21392704826846 -7.177211136339807
-13.299976774821895 -157.7716046062585 -7.121751165775327
-13.333634800065408 -157.79550660398314 -7.119857414701725
-13.348059777174011 -157.67310848938888 -7.131472684216548
-13.348125534856653 -157.450148407931 -7.1525809999979995
-13.489704575279294 -157.62719507490914 -7.136948141418443
-13.375866729136838 -157.44028190388806 -7.153669931918234
-13.517143620030529 -157.23200537505645 -7.174247912753343
-13.531527689748682 -157.14298479017597 -7.182762556487608
-13.530596143271104 -156.9674856390892 -7.1991829765839555
-13.684141437832405 -157.2015933664584 -7.177932687416783
-14.033251439291307 -157.4713032266965 -7.153629641342615
-14.034348460444031 -157.3385853234643 -7.166048895094159
-14.079029447341005 -157.33979854134145 -7.165946191187588
-13.682235717532585 -155.28191251914194 -7.134507819499239
-13.685028576855466 -155.23233461354934 -7.140764437878378
-13.722960215459178 -154.98579490648405 -7.171699288806261
-13.737709080658467 -154.8364189074342 -7.190457880758618
-13.737056779805986 -154.75645500016526 -7.200525300878072
-13.850663989290043 -153.94892886332184 -7.119439644373155
-14.215125370828884 -155.47494394422992 -7.1033578575460545
-13.86166545277421 -153.87492413247116 -7.130732615845321
-13.880673180948445 -153.72302455656464 -7.153974471048402
-13.891380426528045 -153.63254354147224 -7.1677464847247085
-13.892974682696993 -153.5676318196002 -7.1777959149148
-14.300324791347823 -155.29701787031365 -7.123941047962857
-13.930595375296631 -153.4388181484389 -7.1964400538267395
-13.93428132619084 -152.81266935733768 -7.146688346881858
-14.011130651354343 -152.84461571283217 -7.135924702494439
-14.013876584026939 -152.68691937324562 -7.164456624189334
-14.355231307473229 -153.4170236808668 -7.180642950201664
-14.086651532917275 -152.02932827506277 -7.149953353344665
-14.267711964524453 -152.85530923098804 -7.116243575253308
-14.146949436296119 -152.04475940258112 -7.140421772711723
-14.09546268575501 -151.94265255866583 -7.16635398225424
-14.086591537748363 -151.86094695109185 -7.183599754037595
-14.596685968496962 -153.68094989470822 -7.128789530363242
-14.58828541224413 -153.6274461466668 -7.137127046114324
-14.4202436038845 -152.86906815092215 -7.102106264750885
-14.372624856654497 -152.8321987563267 -7.112320146402333
-14.489779721214342 -152.78615201385028 -7.110903080314706
-14.475897339094058 -152.6838069515303 -7.129699130647521
-14.4829630605062 -152.54667862198113 -7.1524903640771695
-14.421313114520256 -152.47901818701627 -7.169326929886122
-14.21573366237007 -151.41369648569085 -7.1414424650059605
-14.223599074522639 -151.34363998402924 -7.154698297337637
-14.21063962912307 -151.21622761241687 -7.182757687436434
-14.512602033667601 -152.53875267893986 -7.15121711154025
-14.516913866431056 -152.47957853724398 -7.160750879905368
-14.477469308457046 -152.29549915712172 -7.195087858735921
-14.413690652492459 -152.0490583559389 -7.109320090979244
-14.418234672476475 -152.02364870507802 -7.113658859032943
-14.293423125916707 -151.0970345074498 -7.1921212104636325
-14.319748911398879 -151.10159222453981 -7.186629255032721
-14.782571703267287 -152.4261620635601 -7.14429796953025
-14.69372629939342 -152.27857115703424 -7.176861650541098
-14.696302813644186 -152.14042547460875 -7.198556790648441
-14.608100926199938 -151.56003296047342 -7.173163220572292
-14.518328579769712 -151.49352231231248 -7.1973565046556365
-14.48049279632794 -151.35612717849352 -7.109703862052473
-14.410967812596684 -150.9337277224186 -7.2010338773264175
-14.776252462453018 -152.3486533608188 -7.157315162750263
-14.689168838207825 -151.88649872829606 -7.104617897158699
-14.696124626069292 -151.8750006325754 -7.1057099741515035
-14.66960276489635 -151.55479729350446 -7.165238997691664
-14.565921368844432 -150.8052858443857 -7.193065741537839
-14.868489616341865 -151.16941033434983 -7.195988235151669
-14.858259460328565 -150.96552610573863 -7.108985689376764
-14.868366871524067 -150.84670345522022 -7.125581552929967
-14.942471418362125 -151.10550035460253 -7.193096107880936
-14.908463303959085 -150.92666820638874 -7.105053268445088
-14.939619342210626 -150.8404458349514 -7.1118324623820905
-14.943465768625375 -150.75944219586884 -7.1230313159048535
-14.995932311772286 -150.75265801157096 -7.112964182135063
-14.993501632165824 -150.57102140890046 -7.138336572282767
-14.92789506782059 -150.36547901779048 -7.178493361336664
-15.082948415223981 -150.64870633697245 -7.108694862591092
-15.068022711328307 -150.4824129125045 -7.133208310107963
-15.057773113800405 -150.38880917624508 -7.146690342193181
-15.04150696821032 -150.34715300046207 -7.155179475017771
-15.266215072250592 -150.78291403479972 -7.178347740291355
-15.223057875044455 -150.65509833991968 -7.200966326444567
-15.107175684981597 -150.3230664267952 -7.143063389922324
-15.29458249643162 -150.77769013384273 -7.173750672393106
-15.304360284182007 -150.67625504383665 -7.183472479069766
-15.210959056716769 -150.33589845016397 -7.118093821102746
-15.213355207290006 -150.05906302221226 -7.144892342879828
-15.180793308655481 -150.0047102600178 -7.157251545720342
-15.15245810193766 -149.92235601083192 -7.170689064322314
-15.131357932626026 -149.79828406810296 -7.184913292021988
-15.137686416148682 -149.74782890976448 -7.186779504308422
-15.353468824369953 -150.52244082793624 -7.190561073808724
-15.270507424944887 -150.10497416642423 -7.127382513543902
-15.206867153756674 -149.88636873207716 -7.160527787852951
-15.196977180263543 -149.79212137745776 -7.169581193863721
-15.194128194209915 -149.69379266240765 -7.176456218343076
-15.194893186314253 -149.57852563581415 -7.182503011527611
-15.201751475072305 -149.51942893061522 -7.1836366949036465
-15.490367363640669 -150.5322601689922 -7.163417828466546
-15.497179525861862 -150.4802046424526 -7.167237762636305
-15.2673461676476 -149.6773002235065 -7.159711273813468
-15.271989090845347 -149.50176015212207 -7.167210934490337
-15.254717227184495 -149.37882188920625 -7.175929972599591
-15.196136426136164 -149.30286739860765 -7.192487770042506
-15.312192965409041 -149.3147174734975 -7.163633097280261
-15.36482605053892 -149.25382601646857 -7.152038738550663
-15.281116636890177 -149.2022200401298 -7.173623920782334
-15.281833946899388 -148.95044302160727 -7.174673704721313
-15.049657223320489 -147.965754663751 -7.181874727879006
-16.0701619339197 -152.4718871260559 -7.172144848057245
-15.610975959398981 -150.0582919700946 -7.17994805039283
-15.378714215280489 -149.2481555956474 -7.148748825376758
-15.376458757364446 -148.9449435579674 -7.151377563283427
-15.0961346324444 -147.8424932850949 -7.159689513195432
-15.129034136532159 -147.76046863815185 -7.144076509910198
-15.67422928032235 -149.83225472720125 -7.1811930952622784
-15.522592373930012 -149.0831989925355 -7.115347118806561
-15.42713571136345 -148.99660544046787 -7.139091541307216
-15.445979544398355 -148.89923556107885 -7.1339092044153345
-15.457379282952282 -148.85594426290348 -7.13065862529529
-15.431260402082588 -148.7466863406928 -7.135179489537705
-15.372337698065078 -148.54922142759565 -7.143601850008882
-15.150617297103002 -147.60674848791663 -7.122751985197797
-15.18176736029362 -147.5451606190151 -7.108974618933077
-15.786349826338215 -149.8354799354855 -7.157982454405086
-15.516244440483604 -148.8165640444632 -7.115636810244968
-15.50031808769819 -148.69250775276512 -7.117009063338089
-15.47665436461187 -148.60280582395836 -7.120148197129921
-15.471478804857593 -148.51335547650677 -7.118136742274314
-15.871859196347426 -149.82639644491812 -7.140873552825556
-15.321855762390117 -147.09675050621362 -7.16007163997515
-16.00323366531488 -149.99916540977532 -7.104151303341065
-15.952637988946833 -149.9747140518524 -7.115965860533035
-15.710484740776963 -148.64775764840144 -7.193470159112296
-15.663208396590768 -148.54578975357464 -7.200698760899755
-15.639775810484974 -148.44016465447865 -7.202137666306802
-15.675301493416226 -148.38351179059669 -7.1927410540801535
-15.66055413162388 -148.22581168136955 -7.188871280070078
-15.627997235973542 -148.158552725411 -7.192025625159663
-15.34069930188846 -147.07002084102209 -7.152539222790738
-15.346827511797265 -147.03502718460064 -7.147396816906301
-15.769173112430785 -148.60177277263307 -7.1802327399166375
-15.782908050172438 -148.56188323753383 -7.176381710429094
-15.759159654529103 -148.42827752571475 -7.177186157205628
-15.66778234608482 -147.8403228075706 -7.164433996042272
-15.595838308360596 -147.74083015170282 -7.171042230586618
-15.399754815117896 -146.8684449748023 -7.118642268995346
-15.76262934066692 -148.06762295583457 -7.160041468434452
-15.786310071572615 -147.92654376404658 -7.1468900051964654
-15.727266490420458 -147.81782941050017 -7.151213029186748
-15.751892111198057 -147.7327962963458 -7.140259382774063
-15.737748291293528 -147.62506701888995 -7.1346570234406546
-15.712711709756306 -147.49239777337692 -7.1282856133127455
-15.814339295129543 -147.88940298914213 -7.138963337609105
-15.83517296776752 -147.83347601311448 -7.131149873692782
-15.810262616150101 -147.75210772461423 -7.130335170896712
-15.762503149211758 -147.59345135850276 -7.127363134696123
-15.764553847893202 -147.51773388768433 -7.120659200282416
-15.74650946141443 -147.42446329609263 -7.115910855418808
-15.96898399126394 -147.82124367780764 -7.104004748541275
-15.934312715575466 -147.0852376923641 -7.201821826731536
-15.988047835432106 -147.12239817130464 -7.19678228763634
-15.975045920191272 -146.88292726843937 -7.178393213439134
-13.141577158384358 -133.07581224093752 -7.172209273481384
-16.223233427772016 -147.6017799795824 -7.193594746669654
-16.107169150044506 -146.96399265056365 -7.165817754259788
-15.887491227661158 -146.061145323407 -7.106485119145135
-16.158984112072673 -146.61436111116882 -7.127152264090519
-16.14114159361226 -146.56863012571512 -7.125364366298821
-16.19359790205535 -146.5129161772397 -7.120620977749028
-16.17057590266536 -146.46866782129433 -7.118908852540141
-16.280350771164677 -145.6516621675272 -7.202559440340426
-16.124434572880055 -144.88995962673886 -7.132707802090461
-16.505717987674107 -145.8279692568224 -7.199376142512243
-16.45496746632658 -145.7736848508732 -7.198880253846549
-16.57866612591369 -145.8550210542995 -7.194992921733371
-16.50094947824728 -145.76124687152142 -7.193326488631175
-16.714997267634978 -145.90742071047012 -7.186755743773283
-16.667904825551275 -145.47378015850836 -7.149687338157301
-13.837436114760584 -131.56534642530272 -7.115246317856131
-16.669114948276928 -145.06426656641736 -7.107653981396581
-13.971978890979287 -131.4276701237618 -7.111535961439896
-16.594544004386957 -143.5949543430592 -7.197135468067058
-16.631066373881644 -143.48724034119488 -7.1853271961790375
-14.257313941178325 -131.64728329031465 -7.128077306281916
-14.509285218813604 -131.6220281286245 -7.13195623441039
-14.564265551524024 -131.66554204069683 -7.135121256741099
-17.340007042175273 -143.147727149584 -7.119858978812988
-17.80163621113036 -143.41146894265498 -7.118974230115058
-18.04080603391476 -140.42943694079491 -7.198812516699275
-18.214795605580846 -140.09957636019348 -7.172378737851874
-18.279612347829406 -139.93200532291604 -7.159382874480791
-18.334058230743523 -139.77935453792767 -7.147687271839681
-18.83637640257303 -140.45403569031552 -7.183490125902265
-18.94348455989818 -140.24989608182148 -7.167346725238584
-18.08955282965524 -130.29074209179367 -7.124206309751219
8.739320155729263 -152.26762681564236 -7.005575253354027
8.777184901155067 -152.2020223204613 -7.004467891629535
8.89550154368013 -151.4028681134465 -7.004000050047889
8.679054111312794 -152.0394653040556 -7.00970519270899
8.838112823338118 -151.46902995499775 -7.006220632960424
8.876432519170042 -151.2560074749253 -7.005617981059786
8.700131909119573 -150.87635314387217 -7.015315764190233
8.591027671844198 -151.15621361063575 -7.018573211088959
8.906715966373365 -149.71917082726773 -7.0115648730437625
8.271681869466804 -151.05226609501608 -7.032788271171235
7.813525873877104 -150.73415488626546 -7.054179056736844
7.226168617622214 -150.55041404856152 -7.080437014584717
7.195432422457614 -150.34910659541245 -7.082816516699489
7.073648248277571 -150.60860299064277 -7.086841652117577
7.06353250812408 -150.46947394508467 -7.087954750870088
2.953559985628827 -167.52149288063416 -7.028831541445699
2.8008881610695724 -167.46595341122546 -7.035331401685655
2.685104356487656 -167.45482814927018 -7.039600260677539
2.5704046959112805 -167.82647116192314 -7.036201010097795
2.5582070510752217 -167.67778521387714 -7.039622385680289
2.5943814377015357 -167.59765218873906 -7.039938445595065
2.6265563890871366 -167.51260929473418 -7.040525542039985
5.409236644604736 -128.8005123577908 -7.076314226323749
5.316261656980714 -128.62045884628094 -7.0781413612178525
5.398594530036284 -128.08822493690897 -7.070072070490124
5.304051016245371 -127.9058583371596 -7.071881079432809
4.847715740093193 -129.57841624565282 -7.104586295411944
4.695228984590674 -129.48877332665325 -7.109494958826343
5.320117601680586 -122.5481917513639 -7.017449547784639
-7.511415927928368 -153.28869670105163 -7.015384767715114
-7.58362655948281 -153.4895527618091 -7.0060145600155845
-7.623923171668818 -153.39327391782425 -7.019265765549944
-7.685031413761861 -153.3660299284912 -7.028748059719988
-7.885274453592811 -153.27863585277183 -7.059543139157078
-8.362989712504868 -145.81432376875813 -7.027867048877133
-10.472714033411293 -155.40832777898106 -7.0430151156673295
-8.994023903506186 -148.2394395221365 -7.068602607458088
-10.54739192841923 -155.3933933078789 -7.048936495429304
-10.610737751863835 -155.4188282731742 -7.049122286497294
-9.309829751272108 -148.31999505700003 -7.03843169714406
-9.306497039912765 -148.23079787112312 -7.030835464648662
-9.312265011372194 -148.1657312435739 -7.027218682468815
-9.359879785142967 -148.09824732014997 -7.0346779812232345
-9.378891808181336 -148.03815524414338 -7.034375600951163
-9.220766554068657 -147.3736384655975 -7.045895027842059
-9.430429700984254 -148.03090871717023 -7.047902578176859
-9.54404057457197 -147.46475499551704 -7.010024021767745
-9.688577690456713 -145.680368775342 -7.033797640498967
-9.703259332068722 -145.6372886722116 -7.02920595627274
-9.753597491569838 -145.64365246681814 -7.037186202112307
-9.764584661202962 -145.63363759342474 -7.037133041921453
-9.734698572044493 -145.4832210933479 -7.009477796086868
-12.6476155330628 -156.29434153808458 -7.001235157645425
-12.682262188669133 -156.25743223905312 -7.006457489740703
-12.754401637210774 -156.21514901987632 -7.012802813830745
-13.38080373796985 -158.83003990216588 -7.022495751509427
-12.819675658060191 -156.2622926175417 -7.007331433404692
-13.962777486149054 -159.03031737575697 -7.007714141677885
-13.97610603389278 -158.2716583531319 -7.0788657130033865
-13.940961817012 -158.2559849758607 -7.080145506354591
-13.594463724291506 -156.24420643749772 -7.012125788608725
-13.601073017107268 -156.1499262872854 -7.024125797703518
-13.609142447276207 -156.0634303586057 -7.0352296097492975
-13.6489186586216 -155.67002477172304 -7.0852636628397585
-13.657909573967217 -155.60308490651525 -7.093795545074234
-14.215377020976819 -156.24071548481385 -7.007384524075777
-14.212371645963582 -156.13637927972263 -7.020506707680429
-13.80919126031232 -154.42073819588893 -7.045756763439579
-13.798259581021878 -154.31888932872434 -7.062307463419147
-13.804054105701214 -154.2737304701927 -7.069302115128296
-14.233471346006489 -156.11802381250928 -7.02257221344605
-14.252000976851484 -156.00515428846643 -7.036473992709922
-14.261334621449146 -155.90815560975562 -7.04846747973648
-13.829822286156835 -154.14253393860955 -7.089444955893305
-14.312727692355441 -155.94960681542804 -7.042442002600443
-14.33057670666885 -155.92338792746742 -7.04547610848804
-14.311048505085182 -155.663195339777 -7.07824549419342
-13.889886730612695 -153.59027230168783 -7.003708082634512
-13.900265947101685 -153.50449175225185 -7.019431271622752
-13.915410800879785 -153.1834678846577 -7.079009185324976
-13.946680577739746 -153.18026308109918 -7.077884583078429
-13.96838602812952 -153.09833467785333 -7.091868095324813
-13.987000448374868 -152.73751221807987 -7.011336152952022
-14.021530125274278 -152.5077340545269 -7.057377641564407
-14.452398070419699 -154.0932380128995 -7.07403093678076
-14.477411187683781 -154.01244924607872 -7.085175770255243
-14.402984979035498 -153.94000738059802 -7.099596197838758
-14.163371606759231 -152.51858462107737 -7.042030692043815
-14.353438700240922 -153.10594986029093 -7.065246412786575
-14.360066631609563 -153.00392142293805 -7.082943112676034
-14.235698896203381 -152.41312353044893 -7.056689032716717
-14.154412754868574 -152.29746484568153 -7.088504304375459
-14.10875623889425 -151.9266798986748 -7.043950829690896
-14.412048216306673 -152.90740515928434 -7.09603966986883
-14.367712675257899 -152.48859792324274 -7.027771996280044
-14.445032584013617 -152.28906333534692 -7.059127988100202
-14.530804816754756 -152.38644747860266 -7.0302616766346935
-14.502195164519936 -152.32271155529935 -7.0460371470738465
-14.604529654281812 -152.3593700563484 -7.0270330385990185
-14.639745587179497 -152.2579445742278 -7.042266473029907
-14.616911396796466 -152.1421483606334 -7.0669431515650025
-14.696612132636783 -152.0940171280397 -7.065882702684246
-14.672644323774634 -152.03514387248933 -7.079790591330168
-14.576956846920492 -151.5399899264442 -7.057133385614586
-14.71108540822891 -151.94011440900175 -7.092032241260263
-14.647641124471459 -151.5613856150845 -7.040997652222636
-14.740638563098205 -151.54414638122574 -7.02843357853091
-14.810194422055165 -151.36743508855162 -7.049171079878113
-14.904544244998583 -150.990831042249 -7.095725190826334
-14.927346947474334 -150.93436836289243 -7.100017827238253
-15.138336625103111 -151.1670808401853 -7.020737665423029
-15.139360267180288 -150.95166226255824 -7.053958204979844
-15.084170314513102 -150.71930478574092 -7.098871757548875
-15.113808768274783 -150.66490599657791 -7.099852270643285
-15.319572589603522 -150.69364716677873 -7.051331129884231
-15.202272771324546 -147.5340542892554 -7.103277831660803
-15.187953588527385 -147.41620560817148 -7.092303041902117
-15.24547111112663 -147.5703229907205 -7.098069226585495
-15.216151746496436 -147.4165748532889 -7.086381915436602
-15.220996097865903 -147.35530662329762 -7.077794878750268
-15.560006991800964 -148.65556786182339 -7.1014655840140435
-15.586830667989823 -148.5805680023301 -7.092615014149863
-15.537343858519117 -148.49459149268648 -7.10150936054773
-15.602932914214794 -148.39755624738277 -7.081484762985628
-15.545482200212456 -148.2724566671655 -7.088794225193969
-15.295739405821344 -147.19599038635016 -7.041832525949658
-15.698891466376198 -148.5856410623631 -7.065554501128416
-15.623611655812361 -148.45970471300095 -7.0792313935329485
-15.637444962485851 -148.3411245144915 -7.070464979363408
-15.65879322976065 -148.27426220623687 -7.06186853909295
-15.630625131713142 -148.20668586418816 -7.064721517995828
-15.634006415422578 -148.10491809928862 -7.05749870781459
-15.797969002090422 -148.7831176084591 -7.045986509233283
-15.690530381463969 -148.13944483083213 -7.046379626818435
-15.690459458197008 -148.06592731368858 -7.041570740146323
-15.45789753194631 -146.73972392699767 -7.092188663738915
-15.771478678333507 -147.83424859069368 -7.005412853234407
-15.665081578577418 -147.65519902490777 -7.013879910601754
-15.505822973881905 -146.63164599566096 -7.069951015640378
-16.211137123200942 -149.33417713581372 -7.0882023226586055
-15.910768277042155 -147.26618289714708 -7.070802183429075
-15.793458948599893 -145.86862982159656 -7.0928019397273285
-15.784824085517654 -145.80276421001435 -7.085151879832925
-15.851721669068976 -145.88045219976084 -7.087765837484412
-15.813960300303881 -145.83367617979388 -7.085933043367029
-15.95111244087148 -146.0508295608546 -7.09772194468109
-15.966917018865663 -145.9373420055136 -7.081756901277114
-15.9598637104437 -145.85174282910705 -7.071774983944902
-15.899599859544164 -145.445764082514 -7.024929286213351
-15.955981574723019 -145.4405438636827 -7.018218171546484
-16.340758186317036 -146.13703785932012 -7.060415310992187
-17.080498299435305 -148.2003630260119 -7.0762240927134545
-16.29805495141556 -144.3780116183837 -7.060056184668821
-17.013696575149332 -147.64623523890967 -7.066880302953612
-17.132548555474436 -147.63712903742802 -7.046812400222381
-16.413721710500372 -144.06696807304786 -7.014770985577676
-17.250889765888566 -147.62004492772576 -7.026437065531617
-16.803914556259034 -145.1124705573186 -7.100950365971331
-16.8842289457367 -144.74330797299265 -7.055136206059072
-17.08250351929287 -142.83798671586572 -7.10325128038092
-17.022036558013113 -142.7126766412957 -7.094003183595169
-17.11745589762357 -142.7245113473417 -7.090840996854239
-17.158897807824253 -142.62371415534363 -7.079457018201286
-17.107606695568343 -142.5261153195254 -7.072283219571252
-17.154388155579316 -142.3902754795483 -7.057105251247852
-17.22207057636913 -142.24775869135064 -7.040497440175099
-17.256105211766556 -142.1240754963454 -7.026993032199516
-17.535417679162443 -142.96134434936027 -7.0932096777849285
-17.549120892981815 -142.58742564438242 -7.058105089944525
-17.748387284423995 -143.22542119302395 -7.1057946425481004
-17.7253053284214 -143.04280124071877 -7.0907664865758235
-17.6716400082371 -142.86847860990977 -7.077885087006719
-17.750240968444096 -142.84179301081488 -7.071446102373095
-17.892342569717954 -142.81318854524932 -7.061666746191722
-17.992642166708844 -143.00688772831424 -7.073405736482487
-18.028518528453823 -142.6828028106394 -7.042885179129051
-18.19627674583716 -142.37809392736781 -7.006976368367106
-16.61143568430162 -129.745698731129 -7.079430111479257
-18.71238239287387 -139.12339892537832 -7.094371112898366
-18.74611987735209 -138.99332342911302 -7.084646071311657
-18.74464901607927 -138.87884732122035 -7.0766926679409154
-17.051531747979762 -129.70217286205207 -7.08380855300155
-19.0829338985532 -138.22180120450628 -7.024055044529939
-19.14260370952548 -138.04038339376268 -7.010176515044732
-17.733133846047828 -128.05298067179248 -7.016175464294607
-18.00879221558161 -128.29470454817573 -7.031025071859419
-17.952956806217934 -128.21926405467173 -7.02681345360889
-23.44259751249718 -153.9355623479321 -7.042383824699235
-18.38836951671883 -128.20887878731185 -7.031721207003744
-18.514339899739063 -128.18682550422352 -7.032183650762419
-19.048386733638598 -129.16998542404994 -7.082976723003517
-19.240661700597467 -128.37627756610385 -7.048720188979239
-19.38086545993044 -128.4283543329482 -7.052465053600196
-19.46900517567269 -128.51515750509853 -7.057247027013095
-19.652397109167108 -128.78979518451277 -7.071350205224343
-19.825749935448126 -127.85807887215672 -7.030770102178629
-24.098631379731852 -127.83856131384724 -7.051604362232069
8.714225131715203 -156.00872170680813 -6.976212386331298
10.385544053231893 -147.44803723180263 -6.954020415866789
10.201491857063921 -147.30122095749596 -6.962228144532296
9.935843541169028 -147.74811544090545 -6.97293187429164
10.442028965343098 -145.00583524381045 -6.955915747806738
8.996418156173334 -151.34046641657795 -7.000104235745242
2.0460569930406045 -175.03220696282403 -6.900457063529605
2.3039329664978876 -174.04924839122518 -6.9139121890339945
2.2017204928743315 -174.07866239069517 -6.916567289499982
1.9429205585501723 -174.22667019368873 -6.921549411625103
1.9826486719128145 -173.90269238313496 -6.927428587474455
1.4984110240702098 -175.75043405770597 -6.901560445898171
1.5505986465511619 -175.62425989150773 -6.9027380939607585
1.7883532122950747 -174.36146590503625 -6.923474635618863
1.8601714471649125 -174.2847727826702 -6.922922207900769
1.5366506551377057 -175.37448734107693 -6.908818292731327
1.628345194199083 -174.68886412588938 -6.921278085036999
1.6665777001428967 -174.5473301791845 -6.923194477048579
1.518756461869641 -174.6980587745372 -6.924489192895563
1.4055954186182937 -174.90574943254657 -6.923387227196965
1.442064995456679 -174.76415217117278 -6.925448610005707
10.06898533377596 -131.0712442608164 -6.9185406034788
8.929663193440064 -132.24397306157155 -6.97194169765688
8.847227409085793 -132.18281326678286 -6.974817857104558
9.10808928435726 -130.20875347704214 -6.949176340767034
7.677791788369891 -125.6849049510422 -6.962242196010227
8.102049206378101 -123.06823941593115 -6.921455497278592
8.0104538953251 -123.00724719723604 -6.924255068903839
7.800222955940331 -123.09261078420677 -6.932828459870825
7.815601066474791 -122.88284998982265 -6.930209775189834
7.752502242347614 -122.78472035304264 -6.931544157171297
7.662442588716534 -122.72176800988298 -6.934241628648478
7.644378421776626 -122.55837815613404 -6.933259461714307
7.614313811579077 -122.40892011685665 -6.932881302103331
7.723148731179869 -121.8561154618743 -6.923349089559824
7.534291748197777 -122.31754512062359 -6.934879901303208
7.0334056754566845 -122.60772652775131 -6.956098536681593
6.820332364426466 -122.70780899197521 -6.964892478586635
6.852510783969134 -122.28854219974951 -6.959448964159905
6.870739713984925 -121.85147614009597 -6.954306559466511
6.749865582650539 -122.23069584229404 -6.962569246815023
6.3648743176344915 -122.19637468233316 -6.976168829640843
6.0821287483874045 -123.55608342412002 -7.000373895294029
6.1262570714723275 -122.73139630769771 -6.990315767027906
5.966014173651256 -122.18103152077262 -6.990381643402081
5.445493148647941 -121.74231769069657 -7.00441154725849
-7.19936349351154 -153.26297074622565 -6.9804625088541625
-7.130766253834649 -153.17437125061366 -6.979455542297136
-7.320246732688778 -153.54752797620728 -6.970402407835689
-7.253893318127222 -153.396288477038 -6.975718796669243
-7.294659202839606 -153.33122782216608 -6.98609731884726
-7.252484073128837 -153.26219627198648 -6.98690275056118
-7.390031592284936 -153.5774392324888 -6.975875206247839
-7.377807294121992 -153.44992347834017 -6.985677561863112
-7.558073472374985 -153.5432879828998 -6.998263182071874
1.739900644633373 -104.59242933464444 -6.925624983175786
1.1834184232289306 -104.2069927786034 -6.938276594447283
1.0167143999446733 -104.1930311019504 -6.943331386416466
0.5234455539600784 -104.15055657602278 -6.9581870324715585
0.3861993914435562 -104.04960359458582 -6.961180346059321
0.4022177503967992 -103.37758609186855 -6.952117509415215
-8.906671413498572 -148.28680516378606 -6.920960990715821
-8.872590247230896 -148.2656776698222 -6.909818720563123
-9.318015622112503 -147.39695378208495 -6.943099371829243
-9.51783981286982 -147.45702046726495 -7.002297537995317
-9.552068266441502 -146.01392489676167 -6.911814293083449
-9.741592039308763 -145.88384899709058 -6.921231514634591
-0.7724272384223134 -102.00124744297256 -6.970638853070358
-13.359624649105339 -159.5599640711856 -6.953237544549456
-13.387646845871885 -159.33148469222465 -6.975181191581579
-13.764314726299089 -159.9700239610631 -6.918177724349699
-13.79901685718101 -159.95495615988816 -6.919768482635015
-13.834971111932282 -159.4461236054561 -6.968004568592022
-13.774599751205923 -159.29214455080842 -6.982027178909413
-13.548990527695643 -156.943858622791 -6.92229537810987
-13.607072714797322 -157.04058014551464 -6.909753064744012
-13.573676386735157 -156.54677540110418 -6.973296434688772
-13.594334128395383 -156.37547942279392 -6.995230643807002
-13.521954472929615 -155.2612199271618 -6.915663787871084
-13.660567138415018 -155.2851269461821 -6.909794519635602
-13.692247661182503 -155.2323474875305 -6.917842834376954
-14.172161643845133 -157.0172805854927 -6.909631732744431
-13.725020188839073 -154.88397891232668 -6.973457444605514
-13.739502520258458 -154.8179305375219 -6.9838122519906
-13.850667091652276 -153.9859833169262 -6.929869396387341
-13.851033474156129 -153.87924355141737 -6.950373940818597
-14.208308382105141 -155.21060800415424 -6.9093735413500665
-13.870672783408704 -153.72956878426947 -6.978083753049668
-13.877733389661445 -153.6271805908665 -6.997260735788932
-14.269699895180402 -154.98778993047353 -6.9426264099574695
-13.911251573469576 -153.60109657727833 -7.000580552517027
-13.955057745164199 -153.09289764602175 -6.936595475391125
-13.978069751338776 -152.98300489969034 -6.958922398290493
-13.963694359806665 -152.91667494983838 -6.974412658034563
-14.034256672453195 -152.45856558391208 -6.926878806767782
-14.05599265067183 -152.3745694611476 -6.944822972016163
-14.431902903025035 -153.73530324528622 -6.9460628812726295
-14.070898336061841 -152.323835712915 -6.955354216532597
-14.446037571178602 -153.6848734721183 -6.954350846235114
-14.349750572618998 -152.91200758346034 -6.9425319437461415
-14.274699873033137 -152.82847018560824 -6.966991708305501
-14.309585704983315 -152.71494468683625 -6.987328716748114
-14.562818741679715 -153.6040255198544 -6.961053324429728
-14.368883935549325 -152.72986339758953 -6.9784631051141215
-14.41857953932584 -152.62028253062928 -6.995834123226681
-14.327625471608672 -152.27359060815323 -6.935834983904817
-14.26497036501682 -152.20378647086144 -6.9600138784051
-14.276403599016023 -152.151867637522 -6.970431213274915
-14.438688339662502 -152.67905360539513 -6.981865385238153
-14.445633944529584 -152.59732754479094 -6.997666837940038
-14.389859132856841 -152.27233238809396 -6.9280139986797735
-14.36605092647705 -152.23822335881786 -6.938910815276705
-14.514822417626053 -152.29791296371639 -6.905380675635796
-14.579952725409974 -152.2511448093435 -6.9067269959038535
-14.563644244367092 -152.16384667732498 -6.928284099957469
-14.590225751565592 -151.94145493760774 -6.972361757624863
-14.670164506843038 -152.1373855705048 -6.918428289338738
-14.625433218716186 -152.00287328268817 -6.953976020101903
-14.594167180455063 -151.91660418404234 -6.977033977532309
-14.731648535083993 -151.90825265209787 -6.957215182641348
-14.683758848015618 -151.81842371384823 -6.983374626998298
-14.866506743259531 -151.95799856261894 -6.925310922761896
-14.827182337563853 -151.64405708067744 -6.99413781728621
-14.844944438735943 -151.6786034384518 -6.984415893181744
-14.968210296125395 -151.65553519204641 -6.967289298833286
-15.122511890069859 -151.55039647857734 -6.958612911227503
-15.567194958025881 -150.6968835091492 -6.996296924237512
-15.831149330227966 -150.97295121808688 -6.903561181391001
-15.37640964294466 -146.95165383097438 -6.9908352863664085
-15.375200865641077 -146.90325835548788 -6.983574066844291
-15.401332246658674 -146.83372980274055 -6.967948266804919
-15.792279638976579 -147.840429678689 -7.001106653024229
-15.754163383678849 -147.70225698549484 -6.998091212354818
-15.715687526080552 -147.60542372322595 -6.9977717575614005
-15.714587674782354 -147.47617089703962 -6.9850640766860055
-15.637722107347088 -147.3814173219496 -6.991746620553314
-15.475581207498202 -146.67420133024538 -6.929006726518119
-16.034878387506833 -148.57335341045908 -6.98332040412011
-15.89312930572198 -147.8816877005097 -6.980958133529681
-15.82204113310612 -147.82285228367692 -6.992810987242358
-15.822101320929551 -147.73169530753853 -6.985167860981948
-15.754562721491336 -147.4045790326753 -6.96871012920492
-15.718056764633307 -147.35513588475058 -6.971335995878141
-15.974686912620852 -147.8320009632958 -6.958217421410086
-15.90371052085024 -147.70008517563127 -6.963802130371512
-15.634418989846322 -146.27801069049346 -7.000195526029465
-16.537777701730878 -150.1996841366901 -6.982702225132342
-15.992463349406652 -147.67950925039054 -6.941691423965415
-15.689408930491625 -146.06154774936311 -6.959921297666117
-16.114568905410884 -147.7610449464217 -6.920271632489256
-15.756240573895694 -145.96904630670255 -6.936404267385404
-15.760890019361307 -145.8388143689617 -6.915603921079854
-16.678373895902414 -149.7732185519239 -6.976559774542174
-16.0863539280679 -146.77057791200386 -6.988673529230086
-16.10234256931565 -146.78754263418523 -6.987681525974281
-16.143818559563396 -146.60421680075996 -6.9600236366331725
-16.240744886037792 -146.59962172140376 -6.942624506581372
-16.68570813098388 -148.60434154169712 -6.989709963415977
-16.27580523872669 -146.35532986222887 -6.913576231424921
-16.26518489418884 -146.33172765008283 -6.912137064192223
-16.817739055655103 -148.70059435246327 -6.963549543473512
-16.789003673289706 -148.68748790735202 -6.969390555979541
-16.89747436437794 -148.59533159355138 -6.945431689025326
-16.17204846269257 -144.90922345727122 -6.922424578696857
-17.027564703391928 -148.60505765523675 -6.91846029424882
-16.849037765270232 -147.6440296436067 -6.918491479108095
-16.48282354671099 -145.80080847481952 -7.003766922631307
-16.405608222860195 -145.6446259749065 -6.994017630400142
-16.256943210309778 -145.04113113634702 -6.9319152630904055
-16.288055813925396 -144.9807352083182 -6.920430027752147
-16.217747852832872 -144.87894977460348 -6.91358275177602
-16.904280851172466 -147.6693580124722 -6.9089920387815384
-16.895562850446723 -147.65472047529985 -6.9098645440043915
-16.60711922800286 -145.89383371169424 -6.9993328433606745
-16.56424743781621 -145.79579096403575 -6.99320817895579
-16.51356942570453 -145.7761331445727 -6.997028826021968
-16.543762433392704 -145.62959833213677 -6.975828721027435
-16.554292856523276 -145.5701780596685 -6.967296055665249
-16.506021597077854 -143.80789821906868 -6.977064631916992
-16.5900552469296 -143.664619360215 -6.953807644644482
-16.591652491945197 -143.6028914514395 -6.946208797264649
-16.61583801310919 -143.51125908445556 -6.933398306567778
-17.371476825604788 -141.88272866979224 -6.998595681953949
-17.75219194256348 -141.2871629862663 -6.924701453507533
-17.708578919185104 -141.17709974505283 -6.9155455793069915
-18.332479087127176 -141.87912072001515 -6.954673311046346
-18.41880737043225 -141.82690398222604 -6.94573898749268
-16.80169491633958 -126.81484701034364 -6.9442470692612295
-19.291362186799812 -137.71241309010986 -6.984259324023841
-19.4461064156066 -137.36966773439482 -6.957188937019442
-17.649011803997077 -127.9321360350463 -7.009394063164893
-19.629188509791287 -136.97653975742884 -6.926004604339475
-19.984295813628933 -138.09637750842393 -6.997204376059312
-17.930372840776123 -127.73918898865716 -7.0041919190597035
-18.60326020667837 -127.06113832119144 -6.981258663401514
-18.98393515598318 -127.15569537380735 -6.990085466897067
-19.274938031196495 -127.02690410775992 -6.987397711827986
-19.348062263942005 -127.07127048063703 -6.990207121736404
-19.483887527274966 -126.90527920721803 -6.984052517473421
11.880501003724028 -158.8420143682148 -6.8134136471823945
11.764991204312373 -158.88790573172736 -6.8178064917040055
11.741652844653508 -158.6940128592842 -6.8209439588553655
11.734479946925504 -158.5927462087821 -6.822279104819406
11.592193172927967 -158.91490202353884 -6.824607575060411
9.880029125494321 -164.27866947321087 -6.824292184805817
9.799123799696439 -164.33655660701652 -6.82652910933325
13.164853365945334 -146.91783408872564 -6.8349007144479135
11.426402644821781 -154.6073322312041 -6.873604389342033
12.98970592428942 -146.84457754000007 -6.842731439832036
13.76280077094756 -142.70671028145034 -6.814369603164205
10.989540475049544 -155.79031336695243 -6.881954457140734
13.25827626860394 -144.57739841386274 -6.835116146587447
13.683177585081737 -142.81776372713543 -6.817725997517285
10.892722821929496 -155.67760476913594 -6.88718345889479
13.107405741068412 -144.87509698056357 -6.841317422899981
12.772084054911833 -143.8529419897291 -6.856644901301392
12.12654417771759 -144.8668772126732 -6.883566836693568
12.051009195095382 -144.35491934080756 -6.887306853433449
12.277073249937374 -142.89516251773927 -6.877939279221935
1.672582335456175 -176.55495047240984 -6.878021190918095
1.57835001112554 -176.6047525700389 -6.879761587714944
1.4022535559984455 -176.7082260405383 -6.882830985937613
1.4693746313333342 -176.61467843998514 -6.882934308472291
10.425024566793365 -125.2376207220942 -6.8553136828692445
10.259214783443063 -125.24608518598941 -6.861730077559164
10.128089784446864 -125.22735987383815 -6.866328042400301
10.011854741003425 -125.19290121820629 -6.8704678202919744
9.944044677449064 -124.92123776583755 -6.870424256285805
9.944149100527554 -124.75909433804803 -6.868740006387438
9.68968985551789 -125.37152937754922 -6.884056341040796
8.974497686987576 -125.67168723847163 -6.91366566258103
8.962150754101941 -125.52083659051122 -6.912546483704172
9.179567725839128 -123.00756425506304 -6.880914827854981
9.394248410923158 -121.9890237263349 -6.863168748411626
9.316742026635971 -121.89190867699237 -6.865084105926382
9.188057981380073 -121.85931518383669 -6.869547046510506
7.111889697750119 -118.69319047561399 -6.912438926302328
7.2415921845813145 -118.25010190542875 -6.903086521581708
7.459826128365769 -117.1897028911752 -6.883888179509462
7.243223857043446 -117.30544173660302 -6.892820173664971
6.973428383506491 -117.24944984358324 -6.901736008560825
7.334517606454188 -115.06422698011687 -6.864988737470533
7.168436369552293 -114.2473787623449 -6.861657137215847
6.843078917491027 -115.37810177969533 -6.885632725379858
7.377410458234365 -112.3878496577652 -6.833416314660668
6.798254293076443 -114.63212639981481 -6.878818896026011
-6.224637149211695 -164.55318319622057 -6.813092424964849
-2.249015114795231 -135.66440510509423 -6.839108042481618
-2.450717747005511 -135.7886080245784 -6.855418173677602
-2.540576585505791 -135.62028893463813 -6.854051163398474
2.5656044059937564 -104.13915574387337 -6.893769457496776
-4.012235283894331 -133.37278062127444 -6.841498097285736
-3.9583631145000293 -133.13544238223216 -6.8286860095800535
-4.138444301647887 -132.94344879742584 -6.829490142214628
-4.17665625823301 -132.87765699235027 -6.828568026724727
-4.2369221851579795 -132.85694186698314 -6.830652702854407
-4.342663584770882 -132.92973879427032 -6.8390070864495796
1.6133933091867636 -103.90443985038652 -6.920948907249413
-4.488692500326803 -132.94368678404558 -6.846770066884742
-4.388882884922118 -132.8808319458526 -6.839160815405506
-4.734237460390897 -133.3243817958656 -6.875237585754572
-4.632216375854428 -132.96858491603209 -6.854843062093213
-4.658109099190032 -132.87723266251888 -6.8521241527556205
-4.707636271857449 -132.76096560579776 -6.8494537126863175
-4.767345066340616 -132.66905197564608 -6.848311635523206
-4.908285747947003 -132.67594583894393 -6.855343455734996
-5.015863023089158 -132.7616199348675 -6.864209099898338
0.5406418686857624 -100.97292102891718 -6.917148487198511
0.34791217542679576 -101.02565640726064 -6.9237585823483325
-9.58565980587742 -145.90458785775348 -6.898593476943989
-9.573884514653008 -145.86670483219712 -6.88988602879234
-9.599844757201742 -145.85099569610594 -6.891534565681364
-9.733933321463914 -146.12880293394556 -6.816766465238264
-9.720338556715108 -145.70748878941748 -6.885614614839289
-9.906089458084526 -146.15434101814913 -6.855367542084142
-9.86785525892888 -146.09272772892612 -6.83519631212082
-9.73277261516304 -145.50296854044274 -6.849648648925642
-10.174075734016666 -146.13200218411285 -6.899800736036251
-13.406047378991284 -160.53526146984234 -6.861356698817603
