ply
format ascii 1.0
element vertex 829
property float x
property float y
property float z
end_header
-39.49177613501171 -101.17308835325916 -7.715551134701366
-39.722022368566584 -100.91468557918093 -7.711764696663449
-39.73869834736387 -100.82616865581407 -7.71743166247525
-39.813653301588154 -100.94836672827006 -7.747628250239699
-39.82811873669611 -100.87893937623353 -7.737752858528117
-38.6830618157458 -103.19777228249183 -7.814067481811097
-38.70318998982604 -103.16417634732794 -7.791874911587353
-38.30733605884794 -103.96057442378844 -7.778305411790688
-38.6741359790672 -103.29082871386264 -7.8243812652665845
-38.70796068985465 -103.22771410478605 -7.815575875743412
-38.795670397804315 -103.17948398505496 -7.796128966339018
-38.33469026914458 -104.16155257087107 -7.833755751967448
-38.3415023843871 -104.05702394444815 -7.813930843718903
-38.380977204098684 -104.00920233397977 -7.785401799187926
-38.7032313013581 -103.52033672919546 -7.841012525990173
-38.720050140509045 -103.47294065888974 -7.826543327976115
-38.780511510438856 -103.39152196538156 -7.825146502202819
-38.809670216945364 -103.26955087730438 -7.806139998673681
-38.825485009107055 -103.20970470549565 -7.813845709182763
-39.1875068890731 -102.77023728493971 -7.787385639178526
-39.205529103174094 -102.71623237011212 -7.7912280983036375
-39.21450777321338 -102.65109790136356 -7.8151218099824495
-39.540316747728475 -102.18113191425124 -7.772656615828604
-39.544808493936934 -102.11625580995276 -7.771976770285401
-40.095199421667864 -101.28874133478193 -7.730982196475563
-38.38835751890156 -104.19247639268686 -7.815534429854302
-38.42301562064997 -104.12167822771178 -7.777253387383516
-38.71783672636217 -103.70625156042688 -7.776190938100949
-38.74972463085791 -103.58900713971656 -7.825016615252876
-38.79185145589445 -103.49808475790121 -7.814983053994289
-38.83808538883622 -103.42443332286771 -7.808724164488105
-38.87324911073857 -103.36993651602747 -7.7823239356503064
-39.22279785326996 -102.82706621217429 -7.7461913502677096
-39.28426083954889 -102.74760112685672 -7.775425565611456
-39.34417558511851 -102.69538739495987 -7.764089356826508
-39.45435548221538 -102.52217263022928 -7.766180815467883
-39.48313324226601 -102.41918567904865 -7.775079687177995
-39.53839570705358 -102.3421669180082 -7.777273935313728
-39.58869966902677 -102.25662653498928 -7.752613926575592
-39.64277725392124 -102.16896557238437 -7.752950707818966
-39.68048926043122 -102.12532882775426 -7.735797792637224
-40.1413074515981 -101.3702921581964 -7.7238344488442365
-40.17343473774213 -101.33098842132362 -7.737485237193962
-40.54241974340209 -100.73935304652589 -7.712051894710126
-37.91005804449019 -105.0839217630653 -7.792682648627555
-37.93797568151453 -105.01219486248723 -7.769898292337935
-38.30750247219227 -104.56975155944387 -7.841900492502838
-38.36156127333238 -104.48866597399166 -7.789281036348455
-38.34436455785184 -104.40505391657804 -7.800165405911337
-38.40105580492385 -104.35727276940385 -7.79432215754214
-38.470961330044574 -104.2614531584967 -7.790870705608702
-38.47982399708333 -104.16939994663655 -7.762858190787457
-38.687677083214226 -103.94585295846602 -7.7944607107665975
-38.734118578734765 -103.8153781101216 -7.774333662127124
-38.77194607169606 -103.7258082815242 -7.815210007711764
-38.8304731226336 -103.67249440274404 -7.786239297932413
-38.85267502661244 -103.53750050267483 -7.826621380901117
-39.25513380773433 -102.97431408316447 -7.7753734368140694
-39.28884001718747 -102.8643748617405 -7.742865771153969
-39.3222669787441 -102.78708344267335 -7.744121405560401
-39.380828953066946 -102.71579253917223 -7.760834051188445
-39.443375760351145 -102.62747740151649 -7.758087718357382
-39.46595090175214 -102.56257168959661 -7.766998104654105
-39.55868958534716 -102.43928205483111 -7.7686119090678245
-39.5929723707905 -102.3760904187316 -7.76809013272462
-39.69251350763865 -102.25584211399794 -7.758291308132083
-39.711986981149025 -102.20497115341375 -7.745013906974767
-39.77686873402999 -102.16359961001258 -7.7492446427813455
-39.85931480192941 -102.07353586159778 -7.741865230710806
-39.905686729104 -101.93966520982045 -7.750988486113625
-39.94638018144023 -101.92529720776635 -7.7490196374364935
-40.099781529423595 -101.62292455405773 -7.724212407239429
-40.16643416761416 -101.53230903141623 -7.723202659533129
-40.189803327038064 -101.39972506735856 -7.726091912351825
-40.22402069384644 -101.33698318495712 -7.729402036955689
-40.60957915777914 -100.72579105851223 -7.718127553139021
-40.7087172567804 -100.67620272273 -7.709119332893222
-37.88111528142569 -105.31616854387609 -7.82311700427572
-38.02120942569312 -105.13989392849831 -7.7819128803803475
-38.36808533933193 -104.53993309450311 -7.783891736990158
-38.48991895234666 -104.41153018598523 -7.781266090381298
-38.52947263600909 -104.30421687297607 -7.768166490159504
-38.53899828431341 -104.23373623339324 -7.7558604737730725
-38.712753776729535 -104.06437514124013 -7.7883067719214765
-38.7408425787206 -103.94353353693153 -7.793829590431962
-38.78378122990099 -103.85911234081715 -7.77004027877188
-38.8511311948167 -103.75920631381318 -7.776070774019921
-38.865350294327904 -103.71367668283024 -7.759378009670303
-39.840452453157695 -102.15174692415549 -7.750416564273972
-39.89343935013367 -102.07926864885371 -7.7436621599615565
-39.953098169802985 -101.99309000868737 -7.73029628556668
-39.984348929516536 -101.9325913763449 -7.743719421052511
-38.03808820049272 -105.36737026441993 -7.797542635436814
-38.07331716654056 -105.28789845448152 -7.782077189617211
-38.35390847649393 -104.78152453088786 -7.778222227815101
-38.730690276503005 -104.14255679327815 -7.766573533580582
-39.88894170555006 -102.38901340288115 -7.746175716760925
-39.88400579942211 -102.36528961736492 -7.737951630684202
-39.961678916182144 -102.20348922963178 -7.728342320826424
-39.95324920701197 -102.14185935111 -7.727093209403552
-38.05363010193551 -105.37691200529133 -7.7975402980013255
-38.130933378269845 -105.32183263805517 -7.786353492091068
-38.168923541864785 -105.24567181590655 -7.784259709315963
-38.33315021199927 -105.11414465868572 -7.781238990014815
-38.42595244859331 -104.92376459445367 -7.771968429268083
-39.90547490378724 -102.41879130593219 -7.750344805594257
-39.992178351516124 -102.39810644445438 -7.7349377781561355
-40.05709082354661 -102.271735038802 -7.7310989940596215
-41.140810833735806 -100.56398595126699 -7.712940362402715
-41.17527919339084 -100.52618660683478 -7.705153475786708
-38.17444433712148 -105.50817671971183 -7.787609196844475
-38.178825814656975 -105.40264551913972 -7.7897026670415155
-38.334068535153264 -105.29506753764146 -7.7935335317649495
-40.012365473078624 -102.42649712104988 -7.741025340077965
-41.205556823151674 -100.52064183141555 -7.70141657663675
-38.17082269515438 -105.56550690901582 -7.777635894522953
-33.38442902202265 -102.24959804689736 -7.672111678873412
-33.494849886550526 -102.23867245413125 -7.678504170008429
-33.51535547548932 -102.32998063429795 -7.672092174438022
-33.5867307354203 -102.25186148453706 -7.672584899808181
-33.66163791860811 -102.28878803438553 -7.654700735857205
-33.701452250883136 -102.2249491423361 -7.659266960532668
-33.77777059429412 -102.19237047467551 -7.648402158386852
-35.10801093099097 -100.99369654161522 -7.658961699458119
-35.178000711371325 -100.8678251861155 -7.633163022929363
-35.249694464759735 -100.73062784430681 -7.672512101296814
-35.36793219314162 -100.43327277587885 -7.628525688141515
-35.155765437218975 -100.97998788154707 -7.673559767074626
-35.197473016077396 -100.9529155991956 -7.689083503247229
-35.2824328870589 -100.8394019784695 -7.642046706586751
-35.320312042958314 -100.75611762983189 -7.6748900599237455
-35.386181763150006 -100.73072906398312 -7.633729210939835
-35.38335896035227 -100.7705882650641 -7.704074826078572
-35.933613837138864 -99.90065165915102 -7.66525300568605
-36.05830385127936 -99.73620383120699 -7.7012356588077875
-35.837827763426745 -100.40703095264013 -7.673147759201406
-36.149201760286296 -99.7725076599164 -7.631757292601644
-36.561047665144415 -99.2460855018055 -7.622277369337123
-36.95546948697851 -98.57654721902146 -7.603181988185562
-37.03837836282885 -98.4385264619359 -7.61233008890835
-37.134532140783 -98.32564519636645 -7.631909299595819
-36.23210457588249 -99.80726073376992 -7.62029353360193
-36.31625640189216 -99.7065666789364 -7.6275308046046995
-36.732057748097404 -99.12982512862253 -7.632976125548341
-36.86651386817167 -98.92981726005142 -7.606003554417357
-36.9682066708252 -98.71938426801411 -7.603701610671507
-36.991730748762635 -98.62138104554192 -7.615893762106358
-37.082713578560174 -98.52649957810281 -7.61881862103888
-37.102544083695335 -98.4792640914182 -7.635009968942988
-37.161928984186986 -98.39950516923945 -7.619786815958367
-37.2360852087809 -98.3400619476202 -7.618995492043426
-37.3461780199621 -98.13959636658367 -7.602858634939093
-37.623092794672466 -97.7022101081394 -7.601248535466082
-36.41596392528601 -99.80936918333472 -7.682976433540681
-36.473988648003804 -99.71163433418272 -7.693049131986547
-36.49725281773591 -99.5934403203694 -7.627626107764915
-36.578911914171464 -99.47106573914132 -7.646308578437083
-36.68894266152805 -99.34592239168538 -7.637116358058622
-36.71982687730264 -99.31206209858583 -7.655718474142739
-36.763407243269306 -99.1702947048248 -7.616632098583269
-36.80919349452536 -99.15660808931776 -7.647790671635171
-36.886746111230565 -99.03435072989517 -7.608338564497625
-36.87821101998865 -98.94250376263793 -7.610145296577821
-37.05526133024955 -98.7846299466074 -7.649652452778558
-37.06555012599381 -98.68373675832063 -7.650460633448516
-37.166796557511056 -98.60124003838357 -7.67124254736511
-37.167994276394296 -98.52426120552012 -7.645720704270737
-37.275854950716784 -98.41899887296803 -7.630564391005554
-37.29711708246092 -98.35049876981579 -7.630890038924942
-37.379807940563104 -98.24708973109385 -7.602861884707306
-37.41440850986336 -98.18871074182128 -7.608739528463386
-37.44166805459046 -98.12278714509786 -7.608878686924038
-37.647860017812654 -97.8246930652988 -7.633921902712404
-36.510009236444375 -99.81631805547735 -7.679344336291869
-36.53928385499494 -99.7751396302528 -7.663840443393872
-36.6223584341154 -99.67420859747453 -7.671212346168159
-36.762677732866564 -99.3770035335908 -7.667837593107681
-36.78582015095702 -99.35746751053718 -7.657783951636692
-36.87727816773333 -99.22248647534971 -7.636781526075998
-36.92264669094013 -99.18137969877624 -7.63763401592227
-37.063049894669234 -98.89719750681007 -7.6767935693046425
-37.11455101622255 -98.83402256957679 -7.6394641078880205
-37.16431510179361 -98.74775969079631 -7.659763141411233
-37.19569837615674 -98.65722245355474 -7.663907771019322
-37.33973939158929 -98.55543210245825 -7.6294646455694295
-37.33691765222973 -98.48677653842505 -7.641544118294732
-37.37632924786491 -98.40785088748252 -7.620307625442266
-37.43901378356123 -98.33203214553501 -7.618026917325124
-37.47342195384647 -98.196050021299 -7.5996518897089596
-37.64432276817582 -98.02028168045263 -7.618699503817205
-37.67254127578829 -97.9164882873706 -7.609513674331724
-36.450273704270664 -100.17874361817275 -7.632480080314304
-36.63359328980669 -99.78399031917219 -7.662390404540657
-36.65729774622768 -99.71504611721983 -7.6638802793104235
-36.72109734012688 -99.65085636614141 -7.687563381946267
-36.79171825162681 -99.53530211460445 -7.628219533722898
-36.804948182607795 -99.50878280287158 -7.651849171064837
-36.865902193788 -99.37036408010125 -7.6415577478359875
-36.94129160171789 -99.26358377700566 -7.665562291693702
-36.970685455945315 -99.21273835369837 -7.64656318590976
-37.13985276538987 -98.95937832406081 -7.682094223916411
-37.151608619559724 -98.90180301160443 -7.667823633153373
-37.273620543281304 -98.84888906783675 -7.672675586580259
-37.38003439884403 -98.62417523884002 -7.675370561641008
-37.47990331301811 -98.37364309209865 -7.60688730028984
-37.62570080381105 -98.27717869148519 -7.665393003434964
-37.649762859186396 -98.21497086660409 -7.644250795848788
-37.68028217282687 -98.1009045847838 -7.610637051872738
-36.58054053262706 -100.13653489080974 -7.639512758724905
-36.76284587206208 -99.6847504596568 -7.65303982923975
-37.038877925346824 -99.26853424620111 -7.681080517305514
-37.223490706253266 -98.99113661901407 -7.683341750239154
-37.418684231102894 -98.78802521850913 -7.688801086276556
-37.406095576702086 -98.65380089218097 -7.66675975740897
-37.49011109071714 -98.5309393110285 -7.6920471187126385
-37.61953927339288 -98.4135503153898 -7.654930928485657
-37.665601419403146 -98.34087461840055 -7.620999996394391
-37.68482686684065 -98.24087604669914 -7.606912770536166
-36.51652459817837 -100.327541500989 -7.627634232246147
-36.62497680863829 -100.18018633306407 -7.639338235887273
-37.38891868907758 -99.01750198005304 -7.66265713660019
-37.65713778105211 -98.52395509497971 -7.635506634282604
-37.71923009635235 -98.44107717670244 -7.595578690774987
-37.69972519138143 -98.40190039281633 -7.597750634471645
-36.69129211801897 -100.32292256118782 -7.617661646967833
-36.71868103674757 -100.28324671283995 -7.624697336234489
-37.427956907146346 -99.13565201390587 -7.651546285054283
-37.44270097581796 -98.96982944614494 -7.68574203966902
-37.63111105053685 -98.79308391375235 -7.692558105075666
-35.819026153743074 -101.9489614848888 -7.673431881648187
-36.74748023313282 -100.30305656896195 -7.629479860927589
-37.499521520155824 -99.19199929352064 -7.641436935373905
-35.79469802664315 -102.02066251170568 -7.6446727903928
-35.88675248177533 -101.9368325754594 -7.6670942824678265
-35.933053040259416 -101.90000955407832 -7.671106039180562
-36.035753548911984 -101.77904036959859 -7.673335653487507
-36.07126622886179 -101.74026737507651 -7.68271033256124
-37.690049661187885 -99.0840548602293 -7.62375868404766
-36.0202865985283 -101.92915732518539 -7.642835378118787
-36.05670469539857 -101.78715137562797 -7.667476663264639
-36.0974090719434 -101.7293758354411 -7.678448635978894
-36.17525663310405 -101.68470947362472 -7.696979131687964
-37.72352684348583 -99.19867613051971 -7.614000290815954
-36.01198678337897 -102.13833878590044 -7.666000117198703
-36.083610519021235 -102.05446299558697 -7.665291240614276
-36.07671130987865 -101.93214835455582 -7.637938147451146
-36.19173802188118 -101.89956216747376 -7.657820500230292
-36.21659602003155 -101.75800190626279 -7.714555680279622
-36.24479250351755 -101.71933589925796 -7.716003463700398
-36.11450002594548 -102.19998391489506 -7.657107502515415
-36.176320563668256 -102.08950772201564 -7.656323164499073
-36.191504439656555 -102.06543777443216 -7.6424942291861
-36.22291218935278 -101.9098628048202 -7.658667808970054
-36.308284701746125 -101.87206097574558 -7.66292202827413
-35.83640088202179 -102.80272228365197 -7.735069630290527
-35.90372705654281 -102.73725633165844 -7.71474700910268
-35.90982123376033 -102.67946408514761 -7.716069340485651
-35.982794259017275 -102.613595049754 -7.707263765217414
-36.15118844194653 -102.32062356608046 -7.702660579690481
-36.15739404272475 -102.24484201527015 -7.676516637578866
-36.2219762418112 -102.1648619095086 -7.669529830531877
-36.269374368709855 -102.06271879450128 -7.6958923101188015
-36.3663617550649 -101.99316463516989 -7.7092044995472655
-36.389465521463514 -101.87440457285712 -7.703061160779433
-36.41569125050518 -101.8334827726262 -7.695955483971476
-36.496528924207304 -101.78804783068894 -7.686610899166229
-35.95806850803461 -102.77342940673833 -7.706376509641853
-35.98911959641746 -102.73480743653937 -7.701863052879448
-35.99364471767301 -102.64029997805534 -7.698518249678488
-36.07719337436909 -102.54912845395309 -7.695251340918162
-36.178139783065134 -102.46142320058793 -7.688001201609466
-36.39295064278515 -101.99081896332882 -7.713857512988973
-36.47596536216414 -101.9458644749824 -7.727645297085452
-36.53304180930535 -101.87897746991214 -7.718918275084701
-36.86598512773598 -101.33072095050944 -7.7246017105976446
-36.91873315324522 -101.31356539901168 -7.724160001175715
-35.82339615225682 -103.19396151474291 -7.7150618857622995
-35.89807200319386 -103.14107507954257 -7.695273873563773
-36.029758139752175 -102.82044098361013 -7.711384270521688
-36.06533090106001 -102.75777866655008 -7.707488527079996
-36.09908927348971 -102.69780921229288 -7.689472766815063
-36.26902089356843 -102.51567969541892 -7.708026403174334
-36.30596911641223 -102.44840912625139 -7.691206977144306
-36.54003683354655 -101.94219782060046 -7.7236781066402855
-36.60640733662483 -101.90735063106203 -7.723206326064153
-36.65044407040311 -101.88758506195606 -7.724313109467518
-36.930037086237604 -101.3700459035182 -7.7245921742143135
-36.96374796569189 -101.34257321342268 -7.717823432223348
-37.289448966175456 -100.7866064786676 -7.621436284535271
-37.38425006375281 -100.74082654417242 -7.627431947256185
-35.93269776657861 -103.12758798762503 -7.696863299496958
-36.10185216082953 -102.88745223846186 -7.713365179292201
-36.17255599987542 -102.82707067485079 -7.716808655657349
-36.2071138453206 -102.7922737795568 -7.708970417579113
-36.54075567294555 -102.18656191221015 -7.728609591647581
-36.67067248921623 -102.07948120944032 -7.731958907558462
-36.690410982638134 -101.9466223854553 -7.7282947112622775
-36.710672420405686 -101.91263636527331 -7.728891266476687
-37.109928480132346 -101.33956366651978 -7.718549130603741
-37.21719150990138 -101.21217382503764 -7.718095145142619
-37.444730665026356 -100.77105589927683 -7.645472784312936
-37.49508731738517 -100.7191293616923 -7.656358053523983
-37.5705338462423 -100.61606599851031 -7.645244552153474
-37.59469638310322 -100.54770632872916 -7.646054473966711
-37.65746048396993 -100.46625227220373 -7.6576851234936445
-37.73042224836192 -100.37074065634324 -7.656686528347683
-37.756350036929234 -100.3214285129139 -7.622057886325754
-37.8311551909933 -100.21027774095916 -7.630584871955855
-37.95334617096554 -100.035193889931 -7.621502104068102
-38.14492864466126 -99.58481747243367 -7.60587166275269
-37.00078201731025 -101.58215963576882 -7.717093959119087
-37.23392450048306 -101.21456889009991 -7.714943207209594
-37.510684893211106 -100.81081847861188 -7.671535833030083
-37.55262953814056 -100.74746501549237 -7.663136035138412
-37.60730594517381 -100.6672914750185 -7.6637449448757025
-37.65846349309817 -100.5785536474082 -7.664931087534322
-37.71114276805985 -100.4964264403089 -7.684142046485808
-37.77077066287616 -100.38142444602394 -7.672284728056236
-37.84032386901939 -100.30382503959378 -7.673842173496954
-37.85974967383872 -100.28002727020319 -7.662979294224275
-37.97971169727005 -100.06177160671022 -7.64132115519555
-38.07816895827952 -99.97305991825893 -7.646121252040684
-38.09698468901839 -99.91679897132983 -7.653373721901952
-38.139313474032555 -99.86927400249489 -7.6524778267050735
-39.71387501399161 -97.36921676978636 -7.631837977409745
-39.77150030376526 -97.2952045738692 -7.650196444387122
-38.72512335722273 -99.08127243986387 -7.619456522533156
-38.78544197347923 -99.0329534126109 -7.641834038818619
-38.82271283525187 -98.99292451603732 -7.616838594265996
-39.107118710746406 -98.53304548058811 -7.600940774565787
-39.620100171621196 -97.56908626827753 -7.584045160579507
-39.725329084621215 -97.49701144491989 -7.62496824802052
-39.77317535455935 -97.41923301834518 -7.636218756493385
-38.57364696673867 -99.58460654330173 -7.697126745008407
-39.127759273443736 -98.61969679056473 -7.610290877491479
-39.13995072784663 -98.56593005872108 -7.61943214287928
-39.24366185231841 -98.4837101650728 -7.623944078506699
-39.26415904064943 -98.42922983936833 -7.601184552237736
-39.36868751668218 -98.30768839883434 -7.589950110784898
-39.388773609527135 -98.26146731176723 -7.599962857392326
-39.41137737049735 -98.14172004768496 -7.595381880621613
-39.43247673876019 -98.07509190797944 -7.596091364576804
-39.821262305020085 -97.4217122637235 -7.646871797760575
-39.88561634592385 -97.35845986349518 -7.651984429514698
-39.96857687079773 -97.30475516240188 -7.656301105094812
-38.60367014665607 -99.57701313057893 -7.699067811273397
-38.62652545627471 -99.56778794443004 -7.6981815927385675
-38.75066191260225 -99.4992779755043 -7.69438981391663
-39.29136875865101 -98.51660320320967 -7.60136711675082
-39.32736127276527 -98.43482755720359 -7.61237797144781
-39.369634043801355 -98.33998628969037 -7.612238127051529
-39.99430427679717 -97.409520192494 -7.6284279925693355
-40.01928602227168 -97.364683188663 -7.644961557851022
-40.082629445739535 -97.26839927214195 -7.641251594381189
-40.1324676707097 -97.17073812139748 -7.647085455093064
-40.173735169390405 -97.1107590118256 -7.6472343665453675
-40.24258580474469 -96.97248904749615 -7.658928511965937
-40.28295186709986 -96.90138159669857 -7.650624100349182
-40.37741628781246 -96.8180183625184 -7.631446095691805
-40.42727720660591 -96.76455752097941 -7.622182551100231
-40.47271427093887 -96.67927040036606 -7.631235995278825
-40.58488795192546 -96.51901785805325 -7.653011571118451
-40.694323595699345 -96.36180384994697 -7.644418404649949
-40.75113951883033 -96.27079304408028 -7.6486025860455085
-38.74851683346351 -99.6890425577607 -7.6943789091773604
-38.795878889410496 -99.48569393451926 -7.688307333961497
-38.86973404054676 -99.44453234810112 -7.682499360981286
-38.932604947030235 -99.38552310380813 -7.68225888111012
-39.00889594811902 -99.27473124725981 -7.673762775964908
-39.026116210932315 -99.19705297635223 -7.669241193137644
-39.08624925935067 -99.11210391848932 -7.664293714781626
-39.14600875789242 -99.05103286487781 -7.660194095678167
-39.223557412788146 -98.94141421733484 -7.661666774901977
-39.47556883508834 -98.526648263037 -7.613720533649366
-39.52401848840476 -98.42563454723684 -7.614731270743489
-39.558023073801024 -98.35174244266902 -7.615891872153853
-39.63046344641589 -98.26261369031893 -7.616853739472759
-39.6695679157954 -98.19397523953671 -7.62586055984568
-39.729963939286776 -98.09070534122232 -7.633288050339428
-39.79525794750561 -97.9856866470106 -7.640009865493239
-39.84011942485404 -97.91411470751456 -7.634661338532019
-39.89068232765826 -97.82915674420394 -7.634491207600318
-39.91654016644276 -97.79129596777939 -7.625802934240891
-39.98288969947872 -97.66156735640318 -7.631527438687016
-40.035970842140365 -97.61503098584068 -7.624272303939834
-40.10745588709901 -97.49077603264632 -7.639873818440861
-40.15513011873572 -97.42986571348973 -7.630388731077922
-40.20567370047979 -97.3245128969736 -7.64624276146222
-40.48445273225953 -96.90389652932633 -7.6281193720063705
-40.576637301072466 -96.65625024835123 -7.644986084855558
-40.61218786762845 -96.53435970288997 -7.641941321374477
-40.72132514077704 -96.43941231077095 -7.619761833857228
-40.77662434604109 -96.34077204644316 -7.634906060702037
-40.81176586600813 -96.2610445809962 -7.6274121057235345
-40.84414167422892 -96.19557603781716 -7.64510313653008
-38.770325123053226 -99.79801826745106 -7.695222574750359
-38.75885650956472 -99.75583951348996 -7.695197040349319
-38.96386036058644 -99.37952570474971 -7.666454547553009
-38.99927986539436 -99.31434969711788 -7.672543402611522
-39.18118301849912 -99.03962656015163 -7.650136329569792
-39.24431287233523 -98.97097146285279 -7.644706002214433
-39.326800862172554 -98.91735908606186 -7.6443226459592095
-39.38185919909301 -98.85958494322175 -7.652982154341058
-39.46740754458558 -98.70540085087552 -7.6292967172954596
-39.4667960941706 -98.62944897585685 -7.646230441901142
-39.482447061180515 -98.55673492656976 -7.639107450281629
-39.54781415646245 -98.43717684689062 -7.588843328418434
-39.57798934421474 -98.38676210351139 -7.595836748727544
-39.68705075840356 -98.21233150945513 -7.612026715619729
-39.75613135809725 -98.09126669055797 -7.626191952511887
-39.8150553576976 -98.01008321164697 -7.619626083050055
-39.85499885723407 -97.94929845446043 -7.6079216642835785
-39.98057055860597 -97.74469420604484 -7.610659370963833
-40.06890011939174 -97.61180554935561 -7.619763969373016
-40.14560524951964 -97.50789686399051 -7.615332479891269
-40.17883036926751 -97.43557905649482 -7.6266473107126025
-40.24548377645281 -97.34770124118192 -7.618042946549649
-40.27987420360168 -97.27910140008672 -7.626044608028233
-40.35227518792099 -97.13366994542022 -7.643197098526921
-40.39947586372851 -97.08864975780688 -7.622578590360788
-40.43659458638069 -97.02842603313576 -7.6113826068297135
-40.603441675042276 -96.82619746081437 -7.612916709145429
-40.6159131297823 -96.76081067150592 -7.608779762079668
-40.67960637487567 -96.67524485151253 -7.604039595677883
-40.73407406296779 -96.65408284815328 -7.585165476780737
-40.88807476948575 -96.29142293099535 -7.591883172952359
-40.92905642683382 -96.24778076754399 -7.601464191898411
-37.7538155727827 -101.67295484889192 -7.7227664826537366
-38.86536376221887 -99.87805525590176 -7.679862054182195
-38.8862733505556 -99.83272393232511 -7.677277130281246
-39.24366365428716 -99.27610359551326 -7.638217889433395
-39.25111755385679 -99.26714958007298 -7.636784077648086
-39.39250446551492 -98.93752700582068 -7.6278652394840085
-39.45061741031914 -98.87638503097516 -7.618002631444567
-39.48253107702468 -98.76898269640903 -7.62498918318963
-40.77345226413873 -96.66266198771109 -7.577980615352085
-40.93182734072803 -96.4681864472087 -7.599661437097412
-40.952792172159135 -96.38414157196462 -7.605239780220859
-41.03097794470243 -96.29242462197125 -7.6064222082030035
-41.054936473706206 -96.20094157840339 -7.612357997972982
-37.34845475531013 -102.45957167806363 -7.730027736393027
-37.39548191008968 -102.4073199937066 -7.713287718814192
-37.44272877881028 -102.36016280885501 -7.728147504986788
-37.76152833719479 -101.82695698964793 -7.71286299763113
-37.77675112358275 -101.72819482918027 -7.719934206431253
-37.864837327682764 -101.66750236002521 -7.717578689538997
-37.93333291595228 -101.54545834927684 -7.719324427522732
-37.94620734511469 -101.5124216655297 -7.7181435400659
-38.900441170614315 -99.90688989156476 -7.667205033830896
-38.93231551901464 -99.83672853738473 -7.670127407759293
-38.9982177492405 -99.74471557622957 -7.64547232312928
-39.055690415061015 -99.67137993816651 -7.6542550883539375
-39.117875155785896 -99.60107726851423 -7.659551480037119
-39.18543981443889 -99.51769913037455 -7.650242464784067
-39.225859618319056 -99.47525396283224 -7.632139947285117
-39.25585138259334 -99.28085291027016 -7.634760609264525
-39.319657902024645 -99.24284915967854 -7.633509722286359
-39.374626955359254 -99.19587471211409 -7.641073859618684
-39.81292780935914 -98.44773679486279 -7.6040198212431545
-39.82627545822795 -98.4080319409856 -7.613279368544507
-37.418127702390876 -102.49228226079788 -7.6908874809404155
-37.46913381032392 -102.44055066125414 -7.69908786576727
-37.511399408813226 -102.40376762394773 -7.676750905652514
-37.57417388964859 -102.3068739589706 -7.724595138926004
-37.64369804808504 -102.22359668753352 -7.72544058750335
-37.6963873820024 -102.11571653254984 -7.704999700705142
-37.814912956596515 -101.9199212362471 -7.715729024660994
-37.83324286548373 -101.86544060373384 -7.7103590206497685
-37.85745153642926 -101.77294512794025 -7.709353550915644
-37.92963555586748 -101.70044373710482 -7.716285640224213
-37.97879231217131 -101.58152913690024 -7.714922711851239
-38.9599470613501 -100.00181381972689 -7.622851960280691
-39.033439852558665 -99.85748633623334 -7.642112318161153
-39.08375129774437 -99.80849724324277 -7.631374107827956
-39.15015968297269 -99.7327166368915 -7.640560469543997
-39.19315263464114 -99.6507003141348 -7.646188081925055
-39.309049953662424 -99.48104823570914 -7.6154412120628345
-39.377366493635094 -99.44086797980901 -7.608370675327469
-37.485679064139156 -102.56912800418789 -7.682943616090275
-37.555025980704926 -102.49697635333213 -7.686443565022892
-37.58394234277218 -102.39535942577137 -7.707776019564397
-37.64733658075979 -102.33131966368734 -7.7208074496792625
-37.689825809474954 -102.25031165748422 -7.721555671298164
-37.73349536544897 -102.1939579472337 -7.7198469448371085
-37.82544854956747 -102.06500624950037 -7.727063469964725
-37.843536423676696 -101.96875439786854 -7.719191563848555
-37.8935231018406 -101.90100186544589 -7.718885644932772
-37.97294878988094 -101.8434001006228 -7.71974458410012
-38.02450601113654 -101.73663829386139 -7.7124128444670745
-38.06989440770947 -101.65195768188842 -7.69869232023307
-39.430826570668465 -99.41712770298092 -7.6100860866691225
-39.49663383251346 -99.39978328615751 -7.617971965647837
-37.63053009156212 -102.55302702427652 -7.663338166924102
-37.67384478211274 -102.48062238739742 -7.679388210954929
-37.729053109200805 -102.35609396921421 -7.713414495702386
-37.76147253106529 -102.29612716601098 -7.708647710121047
-37.8184641226048 -102.1896830123923 -7.726607666069675
-37.90622582380045 -102.14336463155789 -7.7120908458817246
-37.96239569303116 -102.05888504279793 -7.715741129086817
-38.02229618303474 -101.96060029123421 -7.711152250952099
-38.05243737642195 -101.88930785926348 -7.705979378501443
-38.11160692880208 -101.78898890177969 -7.710453140771897
-38.12395121406322 -101.69163056077198 -7.694385621727502
-39.56907148532486 -99.38541683371567 -7.60526363847964
-37.60684299652153 -102.76910550544734 -7.656044926575275
-37.62496835103137 -102.68262732880754 -7.663210710350512
-37.71827678514943 -102.51597759703412 -7.651207163164151
-37.92205817729755 -102.22046881712525 -7.725172471872162
-37.967169029924555 -102.169434702717 -7.715668930439555
-38.01058406512501 -102.1040858399536 -7.719951622830935
-38.08426961605545 -102.03883224519943 -7.71351850201247
-38.105880135481655 -101.90530903368898 -7.70607750638342
-38.206293378387066 -101.83984068830478 -7.706912749839702
-38.2036483629701 -101.75842647309028 -7.685243169270333
-39.282265519756585 -100.17294194235453 -7.65296683555966
-39.29336386519838 -100.07926514498403 -7.651924925886096
-39.34566541416527 -99.98557461454979 -7.643147434622875
-39.41222360689657 -99.9044862467522 -7.636645974262344
-39.46697854716943 -99.86574346587173 -7.629536007183272
-39.55691532254822 -99.72626706997451 -7.630940483410046
-39.595917624167946 -99.63839045186455 -7.626382447868966
-39.618904972790844 -99.56331989271195 -7.614562739391489
-39.645395333455696 -99.47966326812832 -7.611382997631476
-37.58283342882102 -102.96583066659079 -7.673336336797876
-37.69009892744911 -102.82276976156767 -7.661476997245667
-37.73512546443926 -102.71071197630516 -7.652714331637484
-38.02588192853544 -102.21745562961169 -7.712933326348336
-38.103648789514395 -102.09626487762628 -7.711174886292819
-38.14285621928473 -102.05158134420371 -7.707074967007844
-38.22693892516547 -101.99195116602893 -7.712211888271229
-38.29819814724268 -101.922286940231 -7.711894058742799
-38.34414447686313 -101.83803426323968 -7.715762495445362
-39.27427297109136 -100.22991889451497 -7.654231998420797
-39.31768848890604 -100.1940430058784 -7.660951303949765
-39.36794680399262 -100.1518702409902 -7.666021684100885
-39.4935717168529 -99.93691941302396 -7.624048570959717
-39.50746146648294 -99.85675933405592 -7.631769340269905
-39.58100598381615 -99.75760342020983 -7.631092769571775
-39.59179848053913 -99.68788693387108 -7.640351252595786
-37.616331976395486 -103.2221078675659 -7.69543145521183
-37.69401102639365 -103.09848138635758 -7.678034857022558
-37.930433744127335 -102.72319644737206 -7.736045903331693
-37.951684971988186 -102.67850114979069 -7.72002189960806
-38.238626740303474 -102.23139554811108 -7.722887587783732
-38.29520215264568 -102.0066275218532 -7.723278433646635
-38.333545079009774 -101.96637358623697 -7.7183681252086656
-38.42902584705099 -101.87523291864936 -7.684445228012718
-38.4428479316127 -101.79534886201935 -7.695132121074383
-39.3745404649026 -100.23760800904867 -7.663347713165454
-39.534528706966434 -99.97184825714453 -7.630745815736814
-39.62928199700157 -99.82089167450813 -7.63755240260575
-39.74175825811593 -99.64370169469748 -7.600639403073889
-39.813492675257564 -99.57758187258598 -7.6114396966816935
-39.88579425961345 -99.49019138187398 -7.610613285589922
-39.937244658648176 -99.42396582531583 -7.615683198425093
-37.57984811654292 -103.45437315716562 -7.679306540248064
-37.63890415641813 -103.25645349780471 -7.694451876988872
-37.6792075388042 -103.16798702565204 -7.699876486129139
-37.69725756687484 -103.12774831614428 -7.69504115656668
-37.936534543123514 -102.74945094453862 -7.734507573338921
-38.12597119239648 -102.5899978901057 -7.7152103569847865
-38.25123534969112 -102.37038657872756 -7.719664733387885
-38.28187599344602 -102.24165529440768 -7.72410152857095
-38.35014805637183 -102.15652231256077 -7.724039926453893
-38.37129001704928 -102.11409777087297 -7.718754899980691
-38.47660768708844 -101.98798286002551 -7.716553324097254
-38.48639435228942 -101.90128033471036 -7.6906303463327195
-38.51711541230221 -101.83147524735513 -7.677320594582502
-39.35134676622276 -100.62862005643329 -7.648291428199598
-39.35448613255413 -100.61518053498514 -7.64796322414979
-37.499555653182064 -103.79194694937983 -7.742434943670598
-37.52583851119716 -103.69839100275355 -7.734360329856337
-37.54759418431248 -103.57697454524823 -7.724568985422234
-37.62768123414688 -103.53385578372404 -7.664691031925734
-37.74584476588601 -103.36693595004056 -7.675570624370591
-38.17166971681627 -102.64097929297667 -7.721519839530156
-38.209045486600324 -102.60870900449332 -7.695857711544206
-38.27229056369732 -102.47644572434822 -7.721123990328262
-38.30844021126181 -102.38833658243811 -7.721810801131345
-38.4074721984357 -102.22477040411268 -7.727474236008688
-38.468625686257454 -102.13922989288835 -7.719256303430016
-38.52081195631615 -102.06831110471201 -7.720225923473407
-38.558408900065004 -101.94258983170621 -7.694011221687351
-39.032070200888924 -101.3012069470946 -7.708943030600371
-39.13738385569515 -101.10315306043512 -7.6910344760194125
-39.171691710153944 -101.04337657172995 -7.689902023095708
-39.21040909015136 -100.98257871954237 -7.673773939135739
-39.35677865111607 -100.63454677840271 -7.657925158801875
-39.40219645498445 -100.62771893674228 -7.672319991612153
-39.49936142077133 -100.51523208069857 -7.669257799617693
-39.539398419553315 -100.49571909571618 -7.658928988880485
-37.64813473799214 -103.61713177137834 -7.690573587016097
-37.65471902411484 -103.5703266071296 -7.6746359019936286
-37.73314205083185 -103.43919891096009 -7.680924202258038
-38.224797371074395 -102.76515097485441 -7.723569996924111
-38.22838779522061 -102.71099199816382 -7.716170417933489
-38.29037516074409 -102.59160694554011 -7.723538353501626
-38.80817949923868 -101.7860503217878 -7.7135028990795895
-38.966391761742514 -101.48344389302342 -7.71890558733517
-39.10089953915539 -101.38658688782321 -7.6744106217238555
-39.1388469097377 -101.24829453863167 -7.6940092993691565
-39.19136660006387 -101.16944605769892 -7.692680740251475
-39.223327862604435 -101.07139462417722 -7.688283018718623
-39.261616963447 -101.03498941343092 -7.683660830458524
-39.56406388903489 -100.64859354775511 -7.690454096451564
-39.5728289986583 -100.58629588251533 -7.67965162879097
-39.606489521155524 -100.49913949770108 -7.663097505791885
-39.68028316287355 -100.47280931472318 -7.679665421675135
-38.27272555749305 -102.78087838180721 -7.735241169047729
-39.10914533039021 -101.43034114631274 -7.6962342190763815
-39.13592074384416 -101.38931081357543 -7.703998946866215
-39.19754418659759 -101.27895216247249 -7.710984515161476
-39.26675970661269 -101.18049993375274 -7.6977414157368305
-39.339357770549455 -101.1325081493856 -7.684180812245954
-39.38460010411526 -101.0517213706674 -7.703017447827285
-39.620442968285076 -100.61742321987965 -7.6894078730731845
-39.7030570068746 -100.5379532304638 -7.679459951935655
-39.71440579033958 -100.48476689244718 -7.685467244725815
-39.416637776336316 -101.14805456059455 -7.694892360622801
-39.44394300140102 -101.10847352585408 -7.7023531267793395
-39.666732590576935 -100.84110691682275 -7.7046237303540925
-39.70649052416682 -100.78105225710246 -7.705872920295731
-39.741760810386594 -100.66317552047056 -7.678473725070051
-39.749163643214814 -100.57044422562093 -7.679223810697739
-39.49891260161795 -101.178242237485 -7.711284826324627
-39.69872228687953 -100.9624059200854 -7.694254023222932
-39.70158225930852 -100.88987793598984 -7.697685190018828
-39.18146295545555 -102.73297939746068 -7.730024872051923
-37.977274291301 -104.88545041769042 -7.74620305562661
-39.22563953392018 -102.82646378934723 -7.722667267843772
-39.25556896616053 -102.7846497034154 -7.7284664394390195
-39.58066178474554 -102.34247371194242 -7.721687117974098
-39.61085273412466 -102.2839230743984 -7.693191054943706
-39.67249739134654 -102.19504031343554 -7.694828764329174
-40.095187543280794 -101.51801959594376 -7.684385516778907
-40.15846678272218 -101.39765850923108 -7.7022948951214305
-40.19041162873861 -101.3241114346987 -7.693380420946883
-40.27868912210732 -101.21815910781866 -7.6912761630882756
-40.2899217242933 -101.18787088123705 -7.697581605549754
-40.41394753516801 -100.98649487116452 -7.6778430952867165
-40.488308599806786 -100.78541269871533 -7.692457352651072
-40.55601651316419 -100.73488891870112 -7.699850762868806
-40.95701354314409 -100.09985336992945 -7.599721883710613
-41.01997186373183 -100.0313978956343 -7.604431340748237
-37.98724563570026 -104.95540283016261 -7.75622392347144
-38.42294237379281 -104.34700638156947 -7.721841734889408
-38.798243819222016 -103.7779595071959 -7.7205972140182375
-38.843432510051976 -103.67308010912835 -7.734704599469195
-39.278846254245465 -102.96470488515665 -7.703437206953359
-39.28389055856418 -102.89703727552258 -7.704729082384914
-39.31345065775681 -102.79610693224107 -7.725731280606382
-39.558907752623206 -102.43760310286436 -7.725062979976034
-39.579164080802045 -102.37867129518824 -7.717887528890042
-39.61449414686058 -102.30950316946819 -7.706344302652572
-39.691947262038724 -102.21614379297465 -7.71387367877188
-40.05344134703066 -101.77158110058404 -7.656209966027796
-40.04103572427696 -101.7041837449892 -7.657952081277085
-40.10822071883058 -101.62572626224004 -7.6833607426156165
-40.13448273021515 -101.53699385196339 -7.706303380796956
-40.17816044262358 -101.43085526495807 -7.702401829687936
-40.26429147134345 -101.35286561321087 -7.691621056743347
-40.324679820581316 -101.2704348644687 -7.68452569829824
-40.31730113831553 -101.18828932548801 -7.701791542177396
-40.47304942390977 -101.01235730114826 -7.682264701770256
-40.50660964937089 -100.96900634501807 -7.6803416975238115
-40.56253217625527 -100.814673012402 -7.688255383859916
-40.608033720269106 -100.73786109885832 -7.694685043520865
-40.66663930910452 -100.68624635966307 -7.691166965337225
-40.934635646972026 -100.35048256220502 -7.615598172162185
-40.94937838798758 -100.29142279885107 -7.616335886841478
-41.01144293290802 -100.15280792272598 -7.623279596332928
-41.04821587301452 -100.10066672798636 -7.613781859987075
-41.204384836766366 -99.92276569255147 -7.606711698753681
-38.1115893992682 -105.08014197331453 -7.746708563590307
-38.10199461679743 -104.9464225155619 -7.727162616543643
-38.41909887271265 -104.55944475323088 -7.731031492146846
-38.436228487881564 -104.488355611552 -7.737544931228379
-38.44570280261357 -104.38768363454385 -7.7417549229029206
-38.56952093974196 -104.27950295259103 -7.735417527942549
-38.583674481249325 -104.23836152376535 -7.72312101712571
-38.66354615493895 -104.15822805419918 -7.699072974580612
-38.74090584268551 -104.0653789296896 -7.7216096909146525
-38.76651954842488 -104.00099318660435 -7.71155413983647
-38.809233755659 -103.87607380053497 -7.73093614861066
-38.82880739169453 -103.82493978881763 -7.7384331654881295
-39.33745722818982 -103.00383308449616 -7.69705024856576
-39.35921048601387 -102.93301948009352 -7.701141974137352
-39.746701815610884 -102.27307023521158 -7.723739707214247
-39.94077465548464 -102.10802447591011 -7.712448357395427
-40.07199825138771 -101.75254826395552 -7.63521655731927
-40.15195378928025 -101.66063337676553 -7.663828527984456
-40.321709152610794 -101.37645949357044 -7.663129877446558
-40.35142550311467 -101.32592901569271 -7.664698214250101
-40.50311546021187 -101.20514456531753 -7.671506308817988
-40.54188531555437 -101.03338951239786 -7.660199023479619
-40.58690169848885 -100.99006841911053 -7.6602916834874195
-40.78433223216318 -100.66087594998228 -7.6895823845386
-40.99499611260606 -100.38329383358838 -7.616268650534098
-41.037519969848226 -100.32022860641075 -7.634530846946739
-41.07963125760482 -100.22660819376799 -7.609990803126813
-41.13424243199059 -100.17991261330047 -7.616550401949335
-41.1976314376182 -99.94394372306807 -7.598343651519148
-38.344049072039034 -104.87851197705214 -7.757003437296664
-38.34367030093903 -104.76472610267476 -7.753150614275504
-38.41405334912511 -104.7302395052012 -7.717120010511928
-38.64034896654172 -104.36932434560592 -7.705177998900326
-38.672247263872144 -104.2680734302051 -7.689457056233822
-38.720883192384434 -104.17564033905322 -7.714434939820725
-38.77251504742105 -104.09658532455606 -7.724910469713535
-38.81509053466229 -103.96922154411295 -7.720314878556733
-38.85690847937635 -103.915513364948 -7.723844985794774
-39.426779820069484 -102.991926639448 -7.706165695514663
-39.79325494973744 -102.5530969368433 -7.635923467922038
-39.78289872544331 -102.52552647061911 -7.641487246571371
-39.90099699251116 -102.38237670096265 -7.720587158824672
-39.90606343235843 -102.37421223913553 -7.720557438541524
-39.95273796469236 -102.22215777354633 -7.6943930352283125
-39.98211336342818 -102.1439792377197 -7.716914671762282
-40.05829171924041 -102.09567096875924 -7.6947743302472045
-40.12557121922789 -102.01042448796169 -7.647696941130673
-40.12780111934274 -101.89059547585177 -7.624842086795259
-40.594763685780606 -101.21282343946241 -7.639696914936653
-40.63260801716319 -101.13417994077317 -7.6449041672595195
-40.68498903974843 -101.02976553903999 -7.646270875957419
-40.72757204799643 -100.96377238635088 -7.647280895630832
-40.81775110923923 -100.89770927216863 -7.644065044264652
-40.92015330580125 -100.69300596633579 -7.668572606986068
-40.95920122498891 -100.67274288539723 -7.646975064855848
-41.019811193410206 -100.54346245726914 -7.686239555002673
-41.031161538480674 -100.406079377571 -7.610396098948171
-41.06340512606507 -100.35581809647817 -7.648595268257736
-41.17402100771596 -100.26688050818255 -7.6420150988729825
-41.22997725338804 -100.20470742827322 -7.628616886197534
-38.027462556330526 -105.51365826539964 -7.670016912210426
-38.16521949428561 -105.33085745975113 -7.673053847063777
-38.39094968432887 -104.9887360613813 -7.754643269435631
-38.39834503079713 -104.91892716165859 -7.737137702662174
-38.42299564371346 -104.82378613526355 -7.724130351312022
-38.64742250642439 -104.57370175186243 -7.68760036649251
-38.63688161016805 -104.47455026579294 -7.705258309804295
-38.71826445286692 -104.31912856441966 -7.680171140902074
-38.818542927675104 -104.14996625839446 -7.737770447055305
-39.58903308036516 -103.03775996214227 -7.661671835157474
-39.61792087190926 -102.96045799128734 -7.682812214220663
-39.66381577518684 -102.92879459312073 -7.684237926526315
-39.83600799000142 -102.60710276829346 -7.635862154538886
-39.88938631598397 -102.55778845740824 -7.630421883307278
-39.990341829567036 -102.37475122837625 -7.719404729679002
-40.00879910962631 -102.27265413225985 -7.710607494060308
-40.0814217962833 -102.1472406489488 -7.678319218384328
-40.116853764340576 -102.11201650275787 -7.671883083445641
-40.13846069075319 -102.04906571759007 -7.673596273330537
-40.438722260966806 -101.71117730998841 -7.662143011566494
-40.461070762721256 -101.64275151165258 -7.631501825617063
-40.79307592476433 -101.08493254621992 -7.64420983981646
-40.796550302705334 -101.00488046506945 -7.623805501812587
-40.86726107869805 -100.88702863099617 -7.654537238095096
-40.95875095003531 -100.83250069089465 -7.644407260006522
-40.986086914059236 -100.75504395094887 -7.646375491051302
-41.02860194644735 -100.66360515831062 -7.643561376099683
-41.08509564877811 -100.56433055469807 -7.646314329404606
-41.12617174646739 -100.50272519905117 -7.640202870780795
-41.291895038839684 -100.22193301449165 -7.658737121867293
-41.36703444971131 -100.20501758761104 -7.663004757224738
-38.16482082444271 -105.47463490122041 -7.709858843345537
-38.16972978644833 -105.41744639620009 -7.729035263314834
-38.315991640930314 -105.27736717437081 -7.671374998865528
-38.349059739134255 -105.12747502404417 -7.718273013543742
-38.65485393684989 -104.72570423490075 -7.691508276226725
-39.62723233860129 -103.08104385296738 -7.660483761572769
-39.67612468485754 -103.00653567428417 -7.690379250832191
-39.760295571767756 -102.93454709282383 -7.652897246027037
-39.79651996031049 -102.87667208929942 -7.634052716085811
-39.95162463755777 -102.54287308535777 -7.652845468919434
-40.01404345083733 -102.52145538780071 -7.650344265315421
-40.156137187059294 -102.19605049737221 -7.631771209514808
-40.22738881355037 -102.18401148925639 -7.645957423766102
-40.47729481496727 -101.7221061472904 -7.664386779866027
-40.51703222093644 -101.67679162330155 -7.642460653326644
-41.02518935255298 -100.8097869411098 -7.639123085168828
-41.42966353654744 -100.22229414007535 -7.607240842270005
-41.48040380418959 -100.15890102254657 -7.6105858568765115
-38.301520713545244 -105.5129216398788 -7.685680771027388
-38.3155051036546 -105.423126246678 -7.673031351832885
-38.31116951016119 -105.36399398614408 -7.692011725262059
-38.66687859159254 -104.91904756355076 -7.669857804581159
-38.66816900482221 -104.84714003315895 -7.677139814625998
-38.705071867184586 -104.77521835695882 -7.658625523369997
-39.46931849419171 -103.58509438677831 -7.642690736284847
-39.77580602688025 -103.04072652719086 -7.677875048053139
-39.8106496273088 -102.97506046185984 -7.64663366722488
-40.070874575183325 -102.54943076851958 -7.649808558758604
-41.5431612364979 -100.26135285638054 -7.618773980185097
-41.59725116058594 -100.2130333787998 -7.637889639471857
-41.64707419278828 -100.12043261066219 -7.647046383201959
-38.68587281023208 -104.93070929610523 -7.669854981620218
-41.597560658844756 -100.2780314407075 -7.6356772009527605
-41.63736552788819 -100.21020933561627 -7.631414380954864
-41.712790368398906 -100.13249328490518 -7.6421586391830685
-41.74870271768248 -100.07404844518217 -7.61690208390899
-40.28558056171062 -102.66916149481078 -7.631624467064951
-40.36755305188837 -102.50369047040081 -7.627091900863285
-40.33309823569004 -102.70237102996607 -7.632500744060305
-33.20675545336498 -102.46594232846998 -7.605401733973694
-33.414467546364556 -102.38861718756789 -7.600516476113656
-33.436763762062924 -102.40230608963547 -7.60051316953523
-33.539529086808905 -102.35585160060369 -7.6392662599029215
-34.52132978565469 -101.33622215810682 -7.536235729099971
-34.574161432604825 -101.24869733356061 -7.556158567830132
-34.62746120205995 -101.20202000502103 -7.559115234403599
-34.6844272619115 -101.0577679211316 -7.554683801587018
-34.733903210040936 -101.05382804342223 -7.555118290114607
-34.58248881688229 -101.33857336070209 -7.541729117630146
-34.65736875648919 -101.27912418860262 -7.567402667922072
-34.69334546003778 -101.23585571591623 -7.56551726460099
-34.74646287538652 -101.07231137011745 -7.5383374147010525
-34.8089874843429 -101.02481334869671 -7.54679856553261
-34.82155054434542 -101.23507762852746 -7.55579354370158
-34.81377227247499 -101.20609510694321 -7.559193299859278
-34.956921585404004 -101.00155163524187 -7.576586009443451
-35.01900827110608 -100.97274296114811 -7.581717077714128
-35.12735422320961 -100.73220400480697 -7.536900197925146
-35.169605253198704 -100.69694281701805 -7.559392078997681
-35.2440635486954 -100.5843540584522 -7.531347673101937
-35.295450536531746 -100.47817103593056 -7.571127039172719
-35.286074425388804 -100.45506235544188 -7.581094827348608
-36.4565958210507 -98.58008086381854 -7.521973613994055
-34.8848150143474 -101.21557404496235 -7.548007146145403
-35.05144715536144 -100.9817897596696 -7.563047300816691
