ply
format ascii 1.0
element vertex 839
property float x
property float y
property float z
end_header
-42.97819286939414 -86.72227988033403 -6.500038951060357
-43.073800837190845 -86.74175563203391 -6.5072910215109765
-43.17181897701571 -86.3895411663203 -6.546293831894905
-43.19176067195476 -86.31086170436289 -6.556701713883776
-43.27362955637773 -86.20163785700795 -6.537896665442538
-43.25781359936605 -86.12660559102098 -6.545754819018375
-43.311874723358656 -86.03165419048797 -6.496571193211595
-43.32806089402847 -85.98192045740238 -6.476064707851189
-43.42769862284375 -85.85817821312531 -6.51432038413251
-43.43934245827075 -85.76638163039317 -6.52748167807857
-43.482900252884775 -85.70384347424869 -6.491267529407979
-43.77834571623085 -85.03973810503624 -6.5177207476201335
-43.82250149460375 -84.93595556153211 -6.52561542101383
-44.219915896176865 -84.0022029255619 -6.465520813231617
-42.26457552123773 -88.72480997053292 -6.630199067447411
-42.30093925462484 -88.64161111393977 -6.64222593660163
-42.68778708195632 -87.79008472234086 -6.621412092572314
-42.66384126569618 -87.73616111772009 -6.624051481493266
-42.86082712748974 -87.32404773424292 -6.5847558957813686
-42.917420734639464 -87.27087647615542 -6.55263729523622
-42.93280001367329 -87.15768448770163 -6.576728334746512
-42.96722173907441 -87.11998665253358 -6.595946386160862
-43.053833442327374 -86.88742328822208 -6.577655881762683
-43.251489585872534 -86.438082715687 -6.553551122508198
-43.30983180787237 -86.33775946887445 -6.554724532259511
-43.33899940163943 -86.28653388601867 -6.551371447519661
-43.415498500424434 -86.14249008182023 -6.552103895271183
-43.369617926807855 -86.09941612371883 -6.537192310482826
-43.47113999403796 -85.89300442908859 -6.526975219897991
-43.49730057963311 -85.81197502680557 -6.534629626796694
-43.798186401541145 -85.22768620093616 -6.54452285286864
-43.84211373451663 -85.16718750356873 -6.500676894797239
-43.86168563709435 -85.08378712840708 -6.529595653729239
-43.89078849006681 -84.99135690609168 -6.512114787488352
-42.40053707557898 -88.69585818376117 -6.627106060537581
-42.79969911568801 -87.81157936365433 -6.615122066966248
-42.91950556079634 -87.46617877927441 -6.525461273802377
-42.99636325920962 -87.29313546443551 -6.579812540150803
-43.020371255385434 -87.23117597902417 -6.543077162827126
-43.07718665183942 -87.14106521690326 -6.604265086642481
-43.16234274084116 -86.93869176559508 -6.586361301098772
-43.186598977305145 -86.8104689308351 -6.5126930635506195
-43.31989703761042 -86.48712380062739 -6.551843904860517
-43.359486054591486 -86.39671253913308 -6.549094073128296
-43.4044933851506 -86.31924531412827 -6.5458332100240995
-43.4749715292575 -86.1994666383912 -6.564873328667043
-43.586400637875585 -85.94102630153424 -6.5511159906533685
-43.854322586376306 -85.26044176109762 -6.531044277897337
-43.88810161885036 -85.15494720986271 -6.537085602678542
-43.99200860173207 -85.11018479097903 -6.514229740804376
-43.998633821770824 -85.05398833186831 -6.518533132251297
-42.86080385869438 -87.79094975657227 -6.611729591701116
-42.98344526739769 -87.47285826406979 -6.5271938184889855
-43.07083830512585 -87.36309100617972 -6.565542836951586
-43.22644944414294 -86.99515722696236 -6.580027936226285
-43.459605891924056 -86.37583221795907 -6.552838536599286
-44.034024910266375 -85.10367063041788 -6.533918659010265
-44.05293314294249 -85.10195581989387 -6.537884372107593
-43.11735942981381 -87.48980843852033 -6.52961454534684
-43.16113840216082 -87.39742313374755 -6.559957672440837
-45.530042614572935 -88.71954784999247 -6.531814572226119
-45.534745607909024 -88.71008314008563 -6.530276767931081
-46.73610737315931 -89.26836673821153 -6.596749513345102
-46.8104618517329 -89.40158023242753 -6.534871516941561
-46.78729342350876 -89.31624376883954 -6.5608390826875285
-46.77780562298443 -89.26033120401074 -6.575925065161929
-46.84789388758375 -89.17886604424888 -6.523612275004509
-46.72585024598914 -89.62219525858357 -6.562780348245446
-46.826880663316956 -89.44364275120154 -6.542616769851166
-47.27374629882016 -88.50382683225271 -6.586610742746314
-47.258818325056836 -88.48830008751138 -6.583461501820261
-46.888376997419705 -89.82109690626817 -6.561515894626809
-47.618224291614645 -89.06411080642326 -6.5696497742009665
-47.62951720648475 -89.06853462911371 -6.570840291889223
-47.77698678571288 -89.13597365909351 -6.517461045601902
-49.012643466972285 -86.43753315769168 -6.456836096490824
-49.066048843829705 -86.41776501374737 -6.4619673173212435
-49.120947264454216 -86.32594509262942 -6.459437940930168
-47.39177108807258 -90.57893562991461 -6.549870877176557
-48.87948483718041 -87.14965178862109 -6.521600184244055
-48.97434732486427 -86.97266965856696 -6.491814507987387
-49.10751799481447 -86.46954640592982 -6.467273335281571
-49.15301505279295 -86.44282042398393 -6.44762707774921
-49.20513688740373 -86.36391545251418 -6.469828774994057
-49.23163314107157 -86.2607285402319 -6.458657445021419
-49.32323286370375 -86.14462843947736 -6.47230146076165
-49.369546978216505 -86.10878396018879 -6.46561688080145
-49.393975763215565 -85.9924267828172 -6.41093112120108
-46.62651415354676 -92.5345397479565 -6.625086208974377
-46.64055925283948 -92.45863346966655 -6.605336140746601
-47.39911659028728 -90.60518633698611 -6.551387682740446
-48.943411027260055 -87.13803401526314 -6.524852604047072
-49.05503983614688 -87.03789338471718 -6.516247936592956
-49.05916321874462 -86.95295886629958 -6.4951672701813985
-49.42832861082613 -86.13959789509622 -6.463770472035708
-49.46876443393889 -86.01967201254658 -6.463297899374537
-49.48174598307965 -85.95772011979172 -6.4018447060703565
-46.629417050254304 -92.76870255095612 -6.609277781551551
-46.60859399041376 -92.66497393745871 -6.611489083091756
-46.667102712278286 -92.53947691237347 -6.620401758302611
-47.16037724037422 -91.56000934970629 -6.569560774575717
-47.18236447905128 -91.50765030373496 -6.57233268958055
-47.20812366407525 -91.41831579975252 -6.5657676368863855
-47.280003585037406 -91.30389191931717 -6.606149296993388
-47.432438564532866 -90.92314640326661 -6.638832105178798
-49.098180770153995 -87.13208893386025 -6.519763615630579
-49.09912010766952 -87.05754263963334 -6.521512328554048
-49.11570034018908 -86.9808440405481 -6.508822793731788
-49.183686330689355 -86.853450092395 -6.510324630900608
-49.27104606097319 -86.81713705759559 -6.517621116450686
-49.47971059692973 -86.11478268634865 -6.4570284498180595
-49.56874659950198 -85.91263656426327 -6.457659727437849
-49.62009951988504 -85.9133693888223 -6.47207477120442
-46.64707064295399 -92.84928210867116 -6.621272122132233
-47.15932475384523 -91.64045298928674 -6.633446131226639
-47.19933231858257 -91.53656605202696 -6.5743526477096275
-47.25016572328581 -91.48181643667245 -6.5759108082929005
-47.30444680418764 -91.41139949148153 -6.606679470303792
-47.32512697723203 -91.32305993790173 -6.601795732133327
-47.390328350441294 -91.23670620373275 -6.607349130516862
-47.42555153251785 -91.15677815370162 -6.626126290744598
-47.47330697267716 -91.04942061195045 -6.602540452452439
-47.457976216712375 -90.94882812080203 -6.642135058615053
-48.15192970237704 -89.55272882460658 -6.592145064857661
-48.13641979283753 -89.50209563886858 -6.559140955254377
-48.9708237141999 -87.66872983847087 -6.516841484151923
-49.23616248409836 -87.0154243504985 -6.505911781317644
-47.4022851627819 -91.41667416561125 -6.59337606132231
-47.44571044864217 -91.3582841793457 -6.618696847154045
-47.4733486145159 -91.29088885530446 -6.588955812831957
-48.16665442061674 -89.7432296893885 -6.578292113514461
-48.16453155089255 -89.64294171204375 -6.584887502507782
-48.22724251699959 -89.54505313582003 -6.575568141960874
-48.64176753678388 -88.58920576509162 -6.486872568406159
-48.70310073540056 -88.5628910381465 -6.496543609244003
-49.01089296216608 -87.80426194348932 -6.50536779332392
-49.039324493933066 -87.69033588330298 -6.489137461022535
-49.07865122009659 -87.64938841233578 -6.513360772618282
-49.2010857014627 -87.41214025023174 -6.449662372863939
-49.22891594070422 -87.38977097988014 -6.47531032357367
-49.27441933752913 -87.11158303476317 -6.517945341776378
-46.67112572048637 -93.38759357000436 -6.661570156194397
-47.45552158174222 -91.46942563426212 -6.598588545011571
-47.523501166216796 -91.35011437465866 -6.59026117872136
-48.2971308597248 -89.56037970836822 -6.517742956788874
-48.788562277745086 -88.56553736865727 -6.504508034753501
-49.06324061189711 -88.00038165068237 -6.453574782003065
-49.075535723644784 -87.84202045365143 -6.526305990807566
-49.4096575026684 -87.20723579301598 -6.51183917011143
-49.44910746693644 -87.15321966331248 -6.522213932122264
-48.84686076543367 -88.55752657662109 -6.5065468689858195
-49.445589336414294 -87.3203326856985 -6.495046479200948
-49.46849397403911 -87.21145804568147 -6.503381089596116
-49.50649055068869 -87.15247491446117 -6.480941946272759
-49.54293749067581 -87.24974987454102 -6.524251177186752
-49.59922782399543 -87.17673813855332 -6.49051618957772
-49.64175947066899 -87.13311124408582 -6.482074774819236
-41.88179604794208 -87.06962570806326 -6.430480319161448
-42.17764209943482 -86.95522136825088 -6.421084441794593
-42.20018966638158 -86.90372833842852 -6.419518312760819
-42.84642424983822 -85.38231201838023 -6.436580258685747
-42.25450487848367 -86.98724898419107 -6.429989404023053
-42.64871192131679 -86.17718708990034 -6.4546946250228086
-42.922210813839776 -85.43084027495107 -6.441806981534076
-43.52999499941801 -84.17440237151946 -6.3476425892301584
-42.30365421999991 -87.16560073624873 -6.422231609611445
-42.32049201903778 -86.96881739139236 -6.41791563021732
-42.40422512556377 -86.95270879521834 -6.440086473264493
-42.66978620472403 -86.21105189511658 -6.454277095193342
-43.00022228085595 -85.5457395573723 -6.447351510186851
-42.99829947963018 -85.47079288481011 -6.4466145843693905
-43.5811257346083 -84.26090416850053 -6.3664253228983
-43.61815178064574 -84.2148012640676 -6.348993808525474
-43.66836573760317 -84.14388623788645 -6.364784910479184
-42.43925303666924 -87.14093512035544 -6.504120879582168
-42.48836904527793 -86.9953747159556 -6.450020780948709
-42.80740606013731 -86.29063639419748 -6.464085899335638
-43.01772813931857 -85.7791633132514 -6.43947420741116
-43.036859113713746 -85.60848102760475 -6.43178852545675
-43.0743692059181 -85.54222604115178 -6.458645256009988
-43.29441976455426 -85.14030579606933 -6.372404951391874
-43.659167531271855 -84.40243313206325 -6.41948680100607
-43.64830164693288 -84.33501651711337 -6.392104457450766
-43.69415365690714 -84.2597552290763 -6.375966813057316
-43.766099554550095 -84.15383381829747 -6.324275405603255
-42.52229346778476 -87.14521921373544 -6.504755263008537
-42.54160420753062 -87.02483110009298 -6.455748578993131
-42.921376055595964 -86.29371228134949 -6.479896177768265
-43.07582888831719 -85.94097992014852 -6.4691679547683085
-43.09743228005861 -85.7994030080992 -6.431782671937894
-43.13896262536856 -85.75530176027488 -6.436503559377326
-43.31701691983609 -85.44355694073354 -6.377258759009876
-43.32265885073551 -85.43067229618897 -6.376866870173046
-43.35586433396552 -85.30548906576932 -6.369072274617369
-43.3585622331822 -85.20982048017856 -6.3718595532109745
-43.69553766975634 -84.54065209191815 -6.422017249170835
-43.67792132557778 -84.47305248221444 -6.420718800529832
-43.73960863370816 -84.34249211439129 -6.39527427166088
-43.791488800454445 -84.27206367923023 -6.349339181623123
-43.76613482039217 -84.20484331620254 -6.351963069677487
-43.859821828453974 -84.09105836320595 -6.346849895637539
-42.62156163165664 -87.14681744731085 -6.49987468915749
-42.866491288996286 -86.58444912610885 -6.478293323811285
-42.973944010009134 -86.33223406636115 -6.461762873682767
-42.996676580559004 -86.22978464688414 -6.482466908871697
-43.130341942001415 -86.05473853894011 -6.474143774851549
-43.19646968932981 -85.83086000813552 -6.4553732388610285
-43.25027339196256 -85.71701482451354 -6.465342292277791
-43.35924981443986 -85.52341447782167 -6.394154336971294
-43.38733784913812 -85.41513285643016 -6.374766768868093
-43.43456256326446 -85.33904031579762 -6.372061409775016
-43.662739085399075 -84.89035716984384 -6.3841800197191425
-43.928817267170174 -84.21334612344728 -6.3716730248496205
-43.93044664677097 -84.13385623780597 -6.401181881241734
-42.61596820723438 -87.38502527485021 -6.4580699656446505
-42.670058807627655 -87.17229445987205 -6.506604788454117
-43.270791340699866 -85.92462342396759 -6.465795566066863
-43.4077392676764 -85.61283590588697 -6.425610163808451
-43.41468145611725 -85.55243805301754 -6.407008867575139
-43.5138080830942 -85.36866914834395 -6.393712696255011
-43.71042742622174 -84.98452172667713 -6.389397494915272
-43.672237546004524 -84.92503948915073 -6.407386462971963
-43.968272667399496 -84.26311348795527 -6.385637108894316
-44.16070175667528 -83.7990517280836 -6.386476171417025
-42.72422074306488 -87.43246557034536 -6.467804254388605
-42.872388819466394 -87.10381832407178 -6.457500968212628
-43.01299480349364 -86.7516646786242 -6.485461025847465
-43.059498789752055 -86.70442348569888 -6.486883404989686
-43.49482033202849 -85.62596756259602 -6.413547946219608
-43.57191231039427 -85.42657213681744 -6.403624483172512
-43.728146455939395 -85.05971123583636 -6.435353560407068
-43.15531348659986 -86.7640547769727 -6.490226677934593
-43.03468793524337 -87.48823219499418 -6.512488279929174
-46.66476489257161 -89.39730795367112 -6.492151209804067
-46.81229587687849 -89.13272609639215 -6.482281009308762
-46.79782802933743 -89.4048210845586 -6.4515329436684015
-46.81987412941524 -89.39546001670038 -6.43657457489748
-46.83950687450021 -89.2285327986661 -6.459147510484192
-46.87634001357189 -89.20007493345909 -6.41855863534536
-46.785881426123716 -89.54832525299648 -6.494968020422843
-46.83923100502545 -89.44077308837551 -6.481805491939638
-46.89946106857722 -89.41090469606944 -6.509322753807887
-46.859522783223156 -89.68575747083015 -6.506303444856633
-46.956717249770115 -89.47817635017618 -6.474881411699193
-46.93623983833985 -89.44341547169351 -6.4774292568299225
-46.91997860526706 -89.79764696291419 -6.523395968152885
-47.70855693905338 -89.1133720686777 -6.481775908517506
-47.76267150819238 -89.13120067683988 -6.456209964718752
-47.8492613950451 -89.1722369783674 -6.402578508989846
-49.229070743674825 -86.12063557090075 -6.358263517455321
-46.33584019054912 -92.83257376397572 -6.573389366716217
-46.392457025157995 -92.73879903206526 -6.5052846261308686
-49.180790176107834 -86.4122631084211 -6.352122083334512
-49.211524988658745 -86.37697208539664 -6.341045023290667
-49.21130592703529 -86.28095352978949 -6.328821595243384
-49.277930712053795 -86.14813021716922 -6.340430763233224
-49.36857068370655 -86.10070890077523 -6.338464839230089
-49.37850274118893 -86.01250288998304 -6.357308760084693
-46.375908816011346 -92.96953068870945 -6.578551753535738
-46.397443000745184 -92.87770294961898 -6.5173050424646695
-46.538254553941 -92.7386110900556 -6.579368174098387
-46.574950726641674 -92.60872535002115 -6.539935866473346
-47.42760625611878 -90.68070652124966 -6.4580395506101045
-47.97834402706398 -89.45521332049077 -6.4462811044117885
-49.26157496801673 -86.41817819699497 -6.386158685721475
-49.33349047950698 -86.28912538099306 -6.316137228956106
-49.402347534449994 -86.21851458230115 -6.323559495261722
-49.45530618380289 -86.13340309046205 -6.30157206003711
-49.45155835153326 -86.00570484351476 -6.356872517655217
-46.378646063804496 -93.24030517796338 -6.573001494890335
-46.42286652532049 -93.02455972203549 -6.563058890688172
-46.5703718047646 -92.90316584885834 -6.602700841027323
-46.5740542384689 -92.81895417270755 -6.558872641889352
-46.58949628748651 -92.70577006946283 -6.556085534391305
-46.62577373308522 -92.63802772993776 -6.517691965172719
-46.67527560473407 -92.5153965706438 -6.578917133805033
-47.47297099428227 -90.82315411503315 -6.45889488695076
-47.45015503673287 -90.7349537782888 -6.463809162073021
-48.02929108725121 -89.55686891587035 -6.443748777991037
-48.047629577684454 -89.4940481564122 -6.487699735776885
-48.247532752883565 -89.13652977426227 -6.410464020153775
-48.35309412844394 -88.88602992192456 -6.422475979993775
-48.750442252133055 -87.87706526869744 -6.37372965422225
-49.454471484927765 -86.3158128922687 -6.3494042968607385
-49.46654837289024 -86.24031385659362 -6.3190533373130195
-46.581562613039026 -92.91848280454592 -6.570942815611344
-47.22895002020761 -91.66102665050553 -6.527734996897393
-47.209869257213285 -91.59497251383607 -6.52970736433218
-47.31980014502804 -91.31617599847552 -6.542361067406729
-47.4598849663244 -91.1465956937857 -6.50428448531354
-47.49285403946152 -91.03881295292173 -6.517183517753307
-47.51009071480359 -90.95146874831391 -6.477053756340192
-47.54413224924958 -90.84136247755666 -6.508329470225504
-47.78500601181565 -90.3281746426041 -6.449246572720274
-47.81778399984977 -90.26196340812358 -6.435841237902902
-48.035728368093864 -89.62352608177054 -6.409493186884345
-48.09779191801455 -89.56977490398977 -6.4581297250013785
-48.16009193743578 -89.50899174126843 -6.467675574705739
-48.31451321089132 -89.18364487656399 -6.424390677039014
-48.31954162853007 -89.17226769716089 -6.424140513174629
-48.4111888496562 -88.92554247159518 -6.426607148456025
-48.42361617858707 -88.88327029783376 -6.417471334283093
-48.53430121339215 -88.60281360275647 -6.381448329682708
-48.58680932061661 -88.53788860502141 -6.374028038856531
-48.836852905272025 -88.03791318776176 -6.405498598913569
-48.87626415462259 -87.90863322276464 -6.402373271775896
-48.88991683971655 -87.87373638870721 -6.407627490851873
-49.101039541225994 -87.38235525598826 -6.336667114169007
-46.70372762247627 -93.1188389969662 -6.510483324233601
-47.46904195722576 -91.25956179979687 -6.497347968974517
-47.51068461671681 -91.18805996359123 -6.501279888499089
-47.54452069768061 -91.09012280076509 -6.465468845803351
-47.54502057776367 -91.01747715657477 -6.48675153155163
-47.86453890926913 -90.27142036313604 -6.424350891651623
-48.365545899681585 -89.227219530258 -6.432420736095659
-48.37294935772991 -89.18648796189723 -6.425269521794518
-48.48292371536962 -88.97880336170958 -6.4223175369826455
-48.509458088670954 -88.90791323172503 -6.444118555112189
-48.6493765881788 -88.59997595533899 -6.4300032998032135
-48.66263111135338 -88.55071027550721 -6.424053506744247
-48.891434243804945 -88.02501707080717 -6.424527300193137
-48.93796623177729 -87.97567292689165 -6.423967975122938
-48.94524357020928 -87.85547089654877 -6.408041389327014
-49.04552456023879 -87.72267737542312 -6.362398307982187
-49.179230802645485 -87.40838592589877 -6.376763831585343
-49.22424015776853 -87.35107523259205 -6.354344149321002
-49.25662128558631 -87.30431623919652 -6.3346316820999515
-47.57134137693789 -91.29282322333208 -6.489367704024283
-47.56512259655559 -91.24086796869813 -6.488760986116843
-48.45470211606764 -89.28585132895677 -6.429143425186619
-48.559311100598364 -89.00601147722791 -6.430276605401017
-48.60873294262294 -88.93284548426642 -6.456703360006251
-48.7398945154941 -88.63861914838502 -6.4148938393538915
-48.773873174467084 -88.55992699982606 -6.426269012547357
-49.01179218098579 -88.00777381083807 -6.433006241949707
-49.067968515564374 -87.91630294746095 -6.42486900898344
-49.10769720276579 -87.8713333013278 -6.424302262101271
-49.282872624070656 -87.36639937330625 -6.370677762930516
-48.65787483323872 -88.95668107498463 -6.46194329319922
-48.83515905749746 -88.58615725589284 -6.435282406252635
-49.093971153237185 -87.96997988874034 -6.440244553418001
-43.206480857099905 -84.02864003127517 -6.239377124374307
-43.25596408241486 -83.9661906781318 -6.237477828882833
-43.26593003479151 -84.14599622317715 -6.258871196653459
-43.438299019028854 -84.1186243616246 -6.24211504701236
-43.454798110443576 -84.03507378104884 -6.238090124263233
-43.465301014241085 -83.94182768528673 -6.2212883227383475
-43.42452039491449 -84.4075526408346 -6.280607403172093
-43.50618102449863 -84.14974671413857 -6.306398671585256
-43.64905089982103 -83.81715531694444 -6.245758823568784
-43.42780886110682 -84.47033899457539 -6.267524805905222
-43.571481100745935 -84.38491416970749 -6.278824625385861
-43.69905613409255 -83.93373044041527 -6.286978859653776
-43.54206460882703 -84.67454459332097 -6.286855932447739
-43.49404743037924 -84.56175310333107 -6.284203117970788
-43.77013826619788 -84.06450178977204 -6.3116686082538545
-43.59568401596777 -84.77375266066053 -6.307206425481912
-43.832578450994795 -84.25844413691063 -6.310423405566265
-43.79274593946893 -84.2292953092342 -6.321687591182204
-43.63100578709394 -84.8364947355169 -6.323816228089498
-43.84852846743597 -84.25699768592933 -6.313768637315087
-43.88681551804947 -87.74456210454628 -6.410166577403869
-47.76719911513618 -89.20787840938222 -6.300088156750276
-47.35373622255759 -90.25141159680034 -6.375987380945919
-47.81988583105746 -89.22470275216078 -6.313269320150555
-47.88158910526823 -89.19267737713446 -6.346981685848553
-48.18736745862348 -88.52019091204883 -6.331935211531153
-48.28586154972979 -88.24407073655941 -6.305948927905032
-48.33400179093157 -88.2021108768136 -6.304366166435988
-46.4052461701186 -92.74942437038713 -6.489834640801807
-46.4021032453647 -92.69720638473783 -6.488582682844464
-47.278501329059196 -90.82779751000542 -6.370409307486271
-47.28999614473897 -90.80891878620038 -6.359281485533428
-47.412249943933034 -90.39463379124179 -6.349442120578062
-47.42636118245359 -90.28313713273614 -6.370441863560197
-47.92451280992067 -89.3590185079142 -6.3488217063176595
-47.912392200951466 -89.25365966932772 -6.352521309062202
-47.928555661258066 -89.20940095515608 -6.353274135622525
-48.2186099700878 -88.60838263742266 -6.306583819817241
-48.271251199437266 -88.52630426382285 -6.3414130719499315
-48.37286302697768 -88.25428828113186 -6.312589551833962
-48.3934367485405 -88.20046776606763 -6.316181301802175
-48.474983733205825 -88.12066549889059 -6.310876096823093
-46.31308940311676 -93.25219663741493 -6.45113451933624
-46.31381571013722 -93.2035425620948 -6.447603860815642
-47.336656138669106 -90.86388267766296 -6.358907819688221
-47.30597751947903 -90.8165422232267 -6.359017592268083
-47.437855478821206 -90.70353823382692 -6.412453011733543
-47.422729507780545 -90.59360033709729 -6.379322746504614
-47.52512518008184 -90.40098779710802 -6.359957127131983
-47.951952684139535 -89.38429621809685 -6.348819205830379
-48.3342508626585 -88.60170573191361 -6.342369717784742
-48.35582538210212 -88.54320237179562 -6.351798847028125
-48.39778567671185 -88.4222316631177 -6.28554746805197
-48.41904927600364 -88.27217265066535 -6.276713476817571
-48.544589666885656 -88.12901224105106 -6.316571789220249
-48.567929553816604 -88.09016996131551 -6.303381289908959
-48.656756707394074 -87.906311986015 -6.2716885222550225
-46.37711308559674 -93.32116691220553 -6.477887773979642
-46.36234518133844 -93.19111621365563 -6.449826604489004
-47.37528787145879 -91.10272287263702 -6.391662507743792
-47.38423127044166 -90.91240478888417 -6.354707100343753
-47.43172096118204 -90.77674723939565 -6.42871626354374
-47.4465936804413 -90.73669137081095 -6.425927465453859
-47.56589740292959 -90.45995552740489 -6.337788525619401
-47.71173184269453 -90.32779212624169 -6.370859702396476
-47.765726908161476 -90.07589459504028 -6.401991336908021
-47.84491716617686 -90.0221467577959 -6.394955149878155
-47.975027165126725 -89.5893596713635 -6.374267701649563
-47.95801875357448 -89.56671434939558 -6.396422698061232
-48.03460164502886 -89.45340359309087 -6.352522257333481
-48.20556489827177 -89.17369132279552 -6.337417064061929
-48.223449498021175 -89.10745170380383 -6.34060228152759
-48.41551141929057 -88.62292249454813 -6.338018286720928
-48.47445137285466 -88.51924726061551 -6.358162222600524
-48.51637868387913 -88.45551968018368 -6.314842308888
-48.64200630980581 -88.08476078433745 -6.301748166010876
-48.71571704647835 -88.03172247430928 -6.29383633186017
-48.74333338617863 -87.89860934531518 -6.289391712224944
-48.94662864046914 -87.54206726908761 -6.248390017503042
-49.523077365648355 -86.07172004120045 -6.289424971397494
-47.41135596237543 -91.24797922388147 -6.3738296566826245
-47.4087407258227 -91.14131827912793 -6.389943377764088
-47.76056466177448 -90.38969806735393 -6.345128146920036
-47.75677975935758 -90.33947521006522 -6.390071040838222
-47.82355428156162 -90.23785715147932 -6.414431126784064
-47.90724084676886 -90.07035031093127 -6.377927188286558
-48.05125543173149 -89.66409011307624 -6.347900299798306
-48.26265981642847 -89.21978375749835 -6.32698111031695
-48.28787063420161 -89.12806405919494 -6.338394157198327
-48.400065208311176 -88.96836326235595 -6.371545438569534
-48.53379325780759 -88.65330820182216 -6.3468535490648605
-48.57527819433495 -88.47120173809272 -6.343193791076051
-48.79607248824077 -88.00964781675503 -6.291689181006246
-48.84471669650329 -87.91715810751752 -6.2778612310618325
-48.85926839049621 -87.85654125202088 -6.341209922217478
-48.9296117378479 -87.78612776127727 -6.321647944498009
-49.07638896566445 -87.50174362120478 -6.24369822672784
-49.078609559033715 -87.38950977491834 -6.30237033879986
-49.117838042409666 -87.32893090560289 -6.282405334933182
-49.631345226903555 -86.07634959082225 -6.295117342587519
-46.66222079172302 -93.01617448440902 -6.508281256952818
-47.46074526332079 -91.25628193069883 -6.411033429982929
-47.576007185938394 -91.08739256913078 -6.362455628671691
-48.00616422656065 -90.0552246518807 -6.332155048999538
-48.00420041067339 -90.02004122518109 -6.3217229247358615
-48.347288059632604 -89.24992013328371 -6.377581119029491
-48.36714182526697 -89.16834126274327 -6.375765628709646
-48.49069067394333 -88.99878365047677 -6.345659228677683
-48.931994113582704 -87.96227033000034 -6.297045435437519
-48.94977550013317 -87.92865338467715 -6.301955371906165
-48.98956582809628 -87.79444075487288 -6.324644689580769
-49.028866879664946 -87.73718121655665 -6.341166924513691
-49.13500848358925 -87.47765597742132 -6.241537730812694
-49.15396610402367 -87.41231421771933 -6.260379611197393
-49.19575898334805 -87.31164312116991 -6.28135434560564
-49.244386873133166 -87.29207650507396 -6.309767897930662
-47.56627669142317 -91.37296241944728 -6.410990913858683
-47.53739422847195 -91.31875057960221 -6.41004250930345
-48.43103116954499 -89.27909538404352 -6.390555636921921
-48.57122052187187 -89.00174662014894 -6.302479499967864
-47.59600085422909 -91.37585001800863 -6.397926838589706
-40.759129915471696 -88.65726116406856 -6.32627248511385
-40.8375471233749 -88.5833225157273 -6.306878112074191
-40.89669674167317 -88.44823919440582 -6.302769672774752
-40.901221249620235 -88.33275975286641 -6.316402967010683
-41.05711266883333 -88.31111810638093 -6.300192062779836
-41.03686601274545 -88.24534646145726 -6.297413447054422
-41.09673311838154 -88.34418347656919 -6.319139847978831
-41.132467531353825 -88.26257382918975 -6.316657783891854
-41.240069946926944 -88.3230944205076 -6.303542836692181
-43.196048794313285 -83.97980917038001 -6.205020888603011
-43.294459959007355 -83.74401357995485 -6.1814135979346245
-43.17599402786605 -84.16903142631674 -6.1310052694611645
-43.221299903873366 -84.03442516473544 -6.2232939924483075
-43.3085994942897 -83.91487162029684 -6.195687834986545
-43.29801268444928 -84.13946716302705 -6.219106275011702
-43.30193248623176 -84.08066499244597 -6.1778734495292955
-43.35255150399105 -84.02021210445633 -6.223359927371836
-43.41458991227348 -83.88969074778734 -6.214134857205436
-43.446153678150054 -83.79779737802848 -6.204691623171511
-43.83750440683526 -87.76010288688238 -6.266234692447768
-47.753817846366374 -89.11924000578581 -6.2064192544876375
-48.26782955645463 -87.97764636028599 -6.161975663273636
-47.80346817137763 -89.22452419508741 -6.2597779735477275
-47.87596652279327 -89.17072664611509 -6.233550927512615
-48.25980566631591 -88.18543988884504 -6.246824513534368
-48.30589193146769 -88.19267908628899 -6.24473616331713
-48.37369004121659 -87.98045760599733 -6.1631385249516235
-48.79073506570091 -87.10890743193991 -6.1588533156705205
-46.25000134448544 -93.15427881815076 -6.3648651342294125
-47.3997738741241 -90.53349360751615 -6.332348642777554
-47.42878527706754 -90.45480188400225 -6.273335014896556
-47.399757086599614 -90.40962456243906 -6.331273207807954
-47.47489608606372 -90.31945629755933 -6.240072341536039
-47.906194443634206 -89.27492320522737 -6.251115623077066
-47.92149948803429 -89.19031823860351 -6.26411929960132
-48.22071707422998 -88.63523283801675 -6.249409362942127
-48.33818186131248 -88.39710550990681 -6.243639014276337
-48.38339032160975 -88.18158391546706 -6.2283549837811965
-48.46222270015793 -88.11468319240717 -6.240088469659684
-48.5260800451289 -87.97937903839012 -6.1618054524667105
-48.596862548152096 -87.80059886024036 -6.185867603225831
-48.62184569093582 -87.7834287383302 -6.187866182707163
-48.62803703403571 -87.64576652212324 -6.218788390616739
-48.832992379634106 -87.12610079170126 -6.145299270007196
-48.88221861034554 -87.09168262119283 -6.164717301969459
-46.26531823023819 -93.21573331181558 -6.347167017913058
-46.30294689200564 -93.16479371113132 -6.356296296310253
-47.34804598966138 -90.86736974744781 -6.336805912916157
-47.37002459304041 -90.7978599851734 -6.277855050064347
-47.456409500112194 -90.6131526048123 -6.286694624778138
-47.47146703063603 -90.50213709640018 -6.2727924601168175
-47.536735693097555 -90.43035858546469 -6.287152913201758
-47.86255749254684 -89.73990588950235 -6.256924763937966
-47.93557466955216 -89.51049185307306 -6.2176429905120845
-47.97157011709112 -89.31057273035111 -6.199044923284
-48.07813584848205 -89.20800636433555 -6.246192285673811
-48.1500599235985 -89.089409877574 -6.242619547822042
-48.293297447908216 -88.653383786194 -6.250018378123303
-48.399738360200686 -88.40122744017717 -6.239064741244896
-48.44626735783733 -88.27857263025622 -6.250948225282838
-48.51455264261614 -88.11904277237097 -6.206937588945123
-48.563695193051686 -88.08754853372038 -6.254375694728567
-48.62109273874973 -87.9904461961548 -6.203004803554997
-48.68044804610852 -87.75993849585109 -6.179112497171544
-48.71870463396267 -87.61913000002622 -6.224857801173173
-48.76955761490455 -87.59761641088112 -6.2145349443740265
-49.01128796976949 -87.03468096035843 -6.172958417654009
-46.29131829400824 -93.36549862069617 -6.390039545106647
-46.36823699524849 -93.31384587684865 -6.366925596941865
-46.39755815662285 -93.19068754837011 -6.3769725404345134
-46.45823231358601 -93.11299313517178 -6.342560962886856
-46.46253637911481 -93.05467381479755 -6.345953731132735
-47.33593809618521 -91.18289116718574 -6.260643403843312
-47.32731188097466 -91.10038145248824 -6.2795037420443
-47.31885221175599 -91.02635261045252 -6.339065689409113
-47.42061423747641 -90.90243000550217 -6.318184875704346
-47.435674783824545 -90.84830764286359 -6.294893646999054
-47.485151678447764 -90.65287102293102 -6.271304720090791
-47.58254049265401 -90.4836954069635 -6.3152543982520815
-47.668769485725576 -90.38375701222095 -6.240542936872574
-47.91910109084218 -89.81434888795731 -6.247416081047579
-47.90342038338858 -89.75708867782787 -6.259409712644587
-47.99186102032151 -89.62330911032454 -6.253091036151774
-48.00265319294781 -89.49920360209069 -6.206217837952306
-48.12761418766408 -89.22622286705649 -6.2547638996325094
-48.15922178371267 -89.22081132404317 -6.271935465075101
-48.19068953159379 -89.0997147321206 -6.243010804605698
-48.43119997403692 -88.68481444099773 -6.217444806735861
-48.52738914583694 -88.39831582529021 -6.190632864262298
-48.55000715606238 -88.27157267380443 -6.218356381762488
-48.638001025859964 -88.14189250491324 -6.196166469971465
-48.71680923305065 -87.99474954747149 -6.21466126298282
-48.727289905354134 -87.92568527395383 -6.2473298380452205
-48.824588122004634 -87.7046077389724 -6.1612072352856755
-48.852432019817385 -87.67790285652443 -6.152217708553696
-48.908037140616685 -87.5539670747375 -6.202807818441471
-49.14813126357349 -86.95834100074845 -6.176119591563127
-46.398735641026235 -93.36261971851376 -6.380596079461621
-46.52096079445592 -93.13079615667617 -6.3258681094125055
-46.574912252594814 -93.06289130448766 -6.3162851340370345
-46.62556559502137 -93.02125438155704 -6.317157910409538
-47.401549517394635 -91.19565246774955 -6.31471490051803
-47.39740556512986 -91.17906569681948 -6.314917572747196
-47.49886710054247 -91.02721114091968 -6.310144500123667
-47.50223917461803 -90.96419824450588 -6.328225652824124
-47.498520604380175 -90.87381096482488 -6.275100495858302
-47.72282405290138 -90.42089350596619 -6.290766304363071
-47.962702515435936 -89.928612256486 -6.282927680479581
-47.936564068376086 -89.86269806953275 -6.264665902832288
-48.0109693371631 -89.77735445603852 -6.266857052601066
-48.08060113676604 -89.67063703491162 -6.23842906243595
-48.25708843829273 -89.23486868048951 -6.2836237408732245
-48.273663304038905 -89.11380533074465 -6.282216738674097
-48.3931675377687 -88.93989727211154 -6.226646436496469
-48.428137169250775 -88.89212384379599 -6.209568363067586
-48.47664137225351 -88.69150398895958 -6.1808764328112575
-48.72992957813661 -88.24124103021528 -6.188258429907347
-48.78280516102394 -87.98809647743872 -6.199732591353311
-48.83869558374708 -87.96026283804198 -6.2200881028075115
-48.91119281161101 -87.66637255769145 -6.148283619211437
-49.03558623245717 -87.51063449241373 -6.184714266747968
-49.1509228995524 -87.3428052281481 -6.187177810561024
-49.26148928794417 -86.9196782407143 -6.172325888833412
-49.313778406194245 -86.8827445581477 -6.1598614619641
-46.62273208062103 -93.06244242057471 -6.316386244118675
-46.64074072678406 -93.02784233951033 -6.317064779010899
-47.45013050836764 -91.29273993562735 -6.297980108003964
-47.52172470851157 -91.073562099679 -6.321431657103857
-48.02789426651428 -90.01242699086244 -6.29857544094204
-48.062144454395884 -89.82040413790774 -6.258840531612366
-48.46940926537142 -88.97846600519286 -6.241924927842901
-48.53292932397662 -88.88029057635237 -6.211696052551539
-48.565123352374016 -88.7127931610829 -6.269515361574095
-48.78412150698967 -88.21073118383585 -6.187593859128592
-48.820790326753134 -88.19307791711726 -6.169799289835546
-48.9146957948726 -87.96706461417986 -6.2300396820957165
-49.10412388377097 -87.50260488519129 -6.148122739033662
-49.178438118388776 -87.387469995279 -6.227416994346858
-49.20576735405583 -87.35502663346251 -6.199738255137122
-49.38211300772775 -86.87840312248488 -6.168314284478716
-49.47744519012299 -86.84211076619312 -6.165835664761642
-48.578147236707245 -88.99213469159575 -6.18454623825476
-48.62288768900398 -88.90289070432344 -6.206866112257506
-48.673232987288195 -88.86277241914364 -6.183525085192673
-49.29874913223941 -87.34133145236088 -6.136586425329022
-49.320246309841245 -87.27572963828973 -6.202926657262605
-48.71044760085702 -88.89527496526748 -6.189571637592876
-42.7252211417857 -84.10682750365015 -6.098072843018396
-42.78041190838494 -83.96871184810982 -6.075911822023141
-42.86641424615862 -83.77230340073021 -6.06993815900545
-43.12621829150237 -83.20312214674618 -6.088546970082724
-42.70407863437075 -84.61571229861536 -6.119920726113831
-42.79080956350911 -84.30215758525142 -6.104439467357885
-42.86845844433135 -84.24030922044072 -6.108503054108985
-42.92120219407463 -84.1083173243562 -6.087324620148517
-42.86059294789412 -84.03320599595229 -6.099091333058499
-42.899914514049485 -83.93160550253694 -6.0784480522685795
-42.93645913479874 -83.84814616616313 -6.075909783782858
-43.082638290975304 -83.51430965448259 -6.065756245271144
-43.186719122469746 -83.3002143693563 -6.094350509822965
-42.949446282476345 -84.1538591665518 -6.090420086781995
-43.26919614017719 -83.44645018724185 -6.102852221829359
-43.02745338073076 -84.18531604070614 -6.0946345278885685
-43.094827465031806 -84.05378459369325 -6.1238578278948905
-43.21424891690407 -83.86090498495797 -6.086355725286567
-43.28197159446901 -84.01301761755303 -6.111507954749271
-48.4390605887633 -87.19416600170696 -6.082153408930573
-48.45728800297782 -87.12239725841023 -6.066856810882744
-48.4797647660551 -87.1976661196656 -6.081150277153447
-48.50395213202517 -87.15890698487702 -6.0843108020017596
-47.7895691445472 -89.13425168055568 -6.17541538089131
-48.29570507771135 -87.98270010234631 -6.159679376468975
-48.28774803596484 -87.96664153593477 -6.160530038135765
-48.6087238735174 -87.15187031857513 -6.09829985120523
-48.70535582296555 -87.10798874326963 -6.099061602069953
-47.865016821199845 -89.25467278130043 -6.113522566853844
-47.85993447485962 -89.15686426154625 -6.154520328113549
-48.32661204113662 -88.11577922809835 -6.069002640779562
-48.39808217197939 -87.9617840607271 -6.134768164106576
-48.44730370753069 -87.92719986786334 -6.099363926389785
-48.76237378571672 -87.13317701093953 -6.116606413196157
-47.47726153009759 -90.37336788659306 -6.182959416475469
-47.55698358257137 -90.16489646684235 -6.1590759965883715
-47.82478545108093 -89.57747602648148 -6.118355392635165
-47.85264615104974 -89.46160714387321 -6.14242151936435
-47.8950719741732 -89.3636540544198 -6.1229421562849655
-47.899795741515426 -89.27893349773515 -6.125958650796142
-47.91970884085368 -89.18370826602701 -6.131650622388554
-48.39298300297441 -88.14679055876728 -6.070400193876883
-48.390206871369415 -88.12839357550918 -6.0711943404560085
-48.486643594179704 -87.97699196939269 -6.1494786918882305
-48.49909325670691 -87.92438866701066 -6.092766020524544
-48.5830997576404 -87.81547851031837 -6.149113226322397
-48.83955800443052 -87.12422517827801 -6.1270069132893905
-47.17456784462978 -91.25027809920962 -6.163567375627807
-47.372613289003844 -90.86255197184832 -6.19504818242699
-47.3457374012045 -90.79683739755971 -6.190311436545166
-47.47519825485891 -90.57900952599702 -6.222533414346054
-47.48954051082114 -90.517015665591 -6.221990952245334
-47.526381764201744 -90.40009746319028 -6.209940435017048
-47.57028034123334 -90.35775876092094 -6.205078283221038
-47.607418799758015 -90.27228384796652 -6.2053715361365125
-47.66321777899792 -90.15665979395432 -6.14951196808357
-47.89881850137701 -89.57873279950056 -6.158082918282107
-47.908591322552624 -89.49620573446872 -6.1705026313888025
-47.96131967076748 -89.4214145925575 -6.146664829057764
-47.97394121025987 -89.31242902502757 -6.1636278730599265
-48.35037809592478 -88.62020289438667 -6.125580114933757
-48.45007852142729 -88.4101431761236 -6.162998991722893
-48.51863735469676 -88.15671768235805 -6.142230356363421
-48.55234989951267 -88.06014866966014 -6.152817791568492
-48.64194442433781 -87.97603184127507 -6.15345236765419
-48.60992307294276 -87.85254928738726 -6.06453750774299
-48.71909745262211 -87.8148680603608 -6.064409657024666
-48.78720945545953 -87.62891948330373 -6.059146463738771
-48.99374218826525 -87.10129930382178 -6.088962971783446
-46.278960504325674 -93.39257585690414 -6.2918160954160625
-47.20488888663747 -91.38781026171098 -6.1774804974589586
-47.19908838849475 -91.32170314631409 -6.170519297868438
-47.334099585992234 -91.1149652958105 -6.232140011369794
-47.38777383714867 -90.90771481564335 -6.177074462182133
-47.484340252864875 -90.6249775315979 -6.232319074313515
-47.54018380271291 -90.51329082723282 -6.207828153500249
-47.64311752498992 -90.33327092277904 -6.216686420926734
-47.6778640637895 -90.2779411526856 -6.1920104848298845
-47.93416893205756 -89.63617950927667 -6.1343537921792795
-48.24200647811753 -89.08722842327387 -6.1408469710613485
-48.424351967203464 -88.6529515402059 -6.134254782906573
-48.48407293302536 -88.42001756577785 -6.133400796525386
-48.545801559862696 -88.38368638844973 -6.10565302779046
-48.58192386935612 -88.22674602208019 -6.075994947733879
-48.62008977236614 -88.19125398735939 -6.112845184064933
-48.69054701386155 -88.00759263231761 -6.145242531774657
-48.89028313285175 -87.62019606434077 -6.095130517593069
-48.93765741643093 -87.55250753446292 -6.04812620963318
-49.0588554735934 -87.09885446122261 -6.0880272616235125
-46.557721782057584 -93.18421755452077 -6.303044536242558
-46.542060411866736 -93.05394081299166 -6.300391710032469
-46.65210498345176 -92.94283837648952 -6.227004778391582
-47.40045266254961 -91.22971671139761 -6.167079930261669
-47.416436412455305 -91.14253508311688 -6.174542029777226
-47.417648117529176 -91.06644235425527 -6.155256746347559
-47.75861905240336 -90.33145993697886 -6.193835497893389
-48.31073255908885 -89.10534570681234 -6.132181428815825
-48.35671164205003 -89.09937132332925 -6.094274057682963
-48.50356852905258 -88.67689791650747 -6.137040917056434
-48.614520402352426 -88.37245651087295 -6.138851936206293
-48.65726874240066 -88.35172423826567 -6.14291194196363
-48.704994332129196 -88.22855893111114 -6.093987229226605
-48.76344854262635 -88.18474484356341 -6.142570488502432
-48.79204262379367 -87.99639412471478 -6.149949934355891
-48.881211257587836 -87.769155559637 -6.085853728466276
-48.95819459540358 -87.6528810607116 -6.099768224328432
-48.98697658785174 -87.59397401427486 -6.090094760465745
-49.027910220233196 -87.50532499244474 -6.055655412664672
-49.0841042398131 -87.41472604437854 -6.115628933714148
-46.59519171567525 -93.1870168159582 -6.297590650750804
-46.66528324751927 -93.10853832127216 -6.268925849224702
-46.664210029558625 -92.98737575503596 -6.225286189381581
-48.61603393908727 -88.77940368914507 -6.1592653357177145
-48.58553898486796 -88.72840212438689 -6.138540196284549
-48.75272191972403 -88.32638219354327 -6.12438669571012
-48.76004959059964 -88.26940576202587 -6.121041854616807
-48.81637256714128 -88.19304097703004 -6.1445042509455305
-49.004196985381846 -87.69486053626817 -6.04940673717542
-49.121934577805995 -87.4702586437759 -6.135462157414375
-49.12811225742162 -87.44203743101029 -6.117798633990352
-49.237622899263954 -87.3784375882173 -6.12030195928803
-49.46632947453809 -86.67461059782384 -6.031842782463377
-49.50531692770375 -86.65862524644021 -6.0140964263765175
-46.70034047590143 -93.17058957280601 -6.2180523370289045
-48.62677346888765 -88.97069257025171 -6.181688265099961
-48.65631027166445 -88.81753081879211 -6.15618584104996
-49.18424945531208 -87.69134629532525 -6.049901973510661
-49.23838046709297 -87.43284705309328 -6.121746492792727
-49.286691203973334 -87.3803034499349 -6.120356432879668
-48.66945763704994 -88.93403682799878 -6.179267779793979
-48.69755508953184 -88.8747009010917 -6.1715962182395945
-48.157902223680104 -88.08003446279163 -5.974928641746999
-48.54011804225339 -87.1355179101167 -5.9368322476064055
-48.54623915759115 -87.0993589463606 -5.940267214965125
-47.942646694002654 -88.77289684176434 -6.0170023638810415
-47.98887123161892 -88.6607234783723 -6.019528718267271
-48.02437190359211 -88.6161228602384 -5.998188352880018
-48.181333486034696 -88.09220657477819 -6.001918213656176
-48.2761294887597 -88.02416083648741 -5.968761522488031
-48.66383205261804 -87.06115035853436 -5.93465470296222
-47.76521410285069 -89.41216301573661 -6.058173562587613
-47.8530824118649 -89.26129188455248 -6.090472212322523
-47.98859708000741 -88.78990135214455 -6.009566344620626
-48.04788020664975 -88.70147676963897 -6.030249854565861
-48.08842933124402 -88.60419255835322 -6.001238190910889
-48.30829378262701 -88.11948198920007 -6.055315101656289
-48.36077237619507 -88.08174973877979 -6.035541765408268
-48.66284413587716 -87.4414835464295 -5.978083720636983
-48.789803495032245 -86.99766305678284 -5.931849943352536
-47.13177158010192 -91.11721060061276 -6.135092612331052
-47.44314734476211 -90.45714964624466 -6.1133733009400215
-47.42083047058319 -90.41229414333935 -6.10059822107944
-47.55421436571984 -90.18657676619311 -6.063338599687425
-47.54894030186297 -90.14492003905407 -6.085281574926018
-47.71393608459503 -89.81764948429161 -6.03580424747192
-47.704724276909126 -89.77808573236862 -6.0238211398254835
-47.81341930262341 -89.57597381410929 -6.059260663116654
-47.82902803536765 -89.48316951130968 -6.0477154787525675
-47.88910050343345 -89.36553176895221 -6.067413969029567
-47.907368307813925 -89.29441847205237 -6.081382799898799
-47.97978049161421 -89.22399678444422 -6.057105031925049
-48.08949381563995 -88.75953274706004 -6.029637883074295
-48.39661293163027 -88.11197561993254 -6.05385966250237
-48.53738290278926 -87.89626374251068 -6.011915776656298
-48.574776595119616 -87.88466613323413 -6.017292725110343
-48.71738722710816 -87.42278596768213 -5.9856470948589715
-48.78544800221108 -87.4286859419789 -5.976188902374634
-47.1803429063075 -91.2483547234299 -6.071165149106407
-47.17054791854733 -91.1868156738569 -6.113569420065769
-47.38166163805272 -90.8184949904975 -6.131478640053353
-47.48085840292001 -90.58240040631055 -6.111118880757961
-47.47819558688742 -90.5228079041911 -6.101350351634993
-47.45391311672905 -90.44666755810114 -6.092290882443394
-47.56892441253319 -90.20984542132665 -6.072424876073093
-47.651795752001696 -90.15701014111754 -6.1035863477246695
-47.72148679701369 -89.83597911168587 -6.029128280875578
-47.868682229726865 -89.68264812443618 -6.061361439331352
-47.87227440653983 -89.60121342029447 -6.085786126381936
-47.881328775023455 -89.49810844956016 -6.043628287967061
-47.931499896452294 -89.415185922178 -6.026589214405184
-48.01583547028149 -89.29671603042176 -6.070981570003974
-48.02281159426993 -89.25868271287733 -6.05898136742651
-48.196414076925095 -88.82967336173691 -5.99286117449419
-48.39472202898969 -88.50313406591725 -6.022773211478457
-48.414470071509385 -88.43907509848756 -6.025920171279498
-48.63479823334001 -87.8725423603917 -6.011873034499452
-48.79924837137774 -87.42783237383956 -5.959366354143684
-49.11736186025021 -86.85083163529194 -5.932632267465418
-47.21616963429252 -91.45374821649555 -6.124536614624616
-47.20815370706874 -91.39806013549767 -6.096798889547509
-47.19756251269943 -91.30626077692 -6.067850720892277
-47.36423440887793 -91.08943434385894 -6.056754385679712
-47.38566654040296 -91.01515461614615 -6.07904288981081
-47.45010190901618 -90.92570772761766 -6.111047807876799
-47.418554558318625 -90.84713876477227 -6.127030879721099
-47.52170635513921 -90.63342167017113 -6.0757420276463705
-47.52174696458832 -90.58180678601805 -6.038337748295757
-47.712576316009866 -90.17317013498332 -6.079178472965179
-47.78090868656475 -90.11169592803726 -6.053216966049933
-47.80811424142923 -90.00752553387589 -6.055852299363023
-47.91946499524847 -89.70635217947537 -6.074674176014862
-48.07941127101946 -89.31281847382253 -6.02129618156368
-48.1504688173736 -89.26452022415845 -6.005005975797071
-48.19079903848413 -89.24691895026697 -6.009288285201511
-48.26080977639744 -89.08851434538668 -6.005804825763213
-48.293257750922386 -88.84343497235022 -5.9892437969507135
-48.43951723795546 -88.55781458733416 -5.980245973300553
-48.48851522122767 -88.39234557723908 -6.058666220520692
-48.59848113422903 -88.22990900856513 -6.061793867149461
-48.62290863451574 -88.22460485162875 -6.053878375763566
-48.71970703315962 -87.85325511425285 -6.005496103760012
-48.74332954699166 -87.84493281413415 -6.002863088465583
-48.84306443832344 -87.63451849195208 -6.008009153545274
-48.892225605686676 -87.58987184699453 -6.008856923591784
-49.183676813222625 -86.84668149687899 -5.922299972987316
-46.70532059901627 -92.84757122137867 -6.129625407040193
-47.226286426206336 -91.48080018396655 -6.121210432774341
-47.37233750730542 -91.29973197501137 -6.1099763948519135
-47.37516788290743 -91.26159424541993 -6.140591487793708
-47.42562118049272 -91.12901085064752 -6.0918160086865045
-47.46276108102595 -91.0664613604733 -6.080276389768995
-47.502867115072284 -90.96130534560092 -6.09462598271259
-47.536853719731056 -90.8827290356669 -6.099906376199851
-47.56290526136864 -90.81542190924709 -6.087860703258231
-47.80514112609427 -90.19390584050714 -6.0586347374570355
-47.92977030711766 -90.05393015729938 -6.0593890233802075
-48.258201852025614 -89.23390103908774 -6.012137493894059
-48.298097393638 -89.11183644364613 -6.038973602127572
-48.35372743685334 -89.10241104663163 -6.026868578893258
-48.53358664677236 -88.65688494517082 -6.0750476052808065
