ply
format ascii 1.0
element vertex 843
property float x
property float y
property float z
end_header
6.5741359903467655 -140.97282403818227 -7.261984020932194
8.00248572865317 -134.66907743150134 -7.258870057826927
8.003576855513849 -134.57789144937394 -7.266977432166464
8.097936987685134 -134.37050025239208 -7.283724106378612
6.470718702298429 -140.99120811816147 -7.2762702618134645
7.440155941265094 -136.58192310607726 -7.294826643467025
7.965075154973545 -134.59895748853288 -7.265776612913128
7.996704153868352 -134.30700182213408 -7.291032937920427
7.986539496712022 -134.2463255631136 -7.296594437496668
6.309814245237794 -140.86623930550164 -7.2706209342240555
6.306862824589985 -140.85165119496858 -7.268199344600183
7.3474229559852615 -136.79629017815367 -7.2619406209827115
7.336621822198108 -136.63745177523055 -7.287623196109913
7.5359260937256405 -135.87259051935828 -7.283323447674283
7.711715093045286 -134.95083900047788 -7.239381110967079
7.927046847997049 -134.27953251286831 -7.294757375394855
6.30072058821558 -140.84413329420516 -7.267575407971414
7.319052416204919 -136.183934896434 -7.24904886539714
7.36673440802964 -136.13905730064286 -7.253533082874489
7.416028044198912 -135.92680319264062 -7.278895449619448
7.75970498740511 -134.38205788653855 -7.289059166063412
7.270733006476437 -136.16430271854844 -7.2527442517492275
7.253059608320831 -136.13499753227632 -7.256842616558017
7.616153138880739 -134.7093828962066 -7.263048920984657
7.6664436062363 -134.4303938842846 -7.2867475854120425
8.278780101667895 -131.6836635833181 -7.24772439867452
6.755117790427657 -137.70581254763295 -7.257354873729683
7.084357583974969 -136.308270923202 -7.2402253004295725
7.581962643461657 -134.50319915513236 -7.282274392932733
8.21144659510796 -131.85214201759388 -7.240337955900972
6.701481497957756 -137.60670703429994 -7.284402980001325
6.736526314474879 -137.56584621441542 -7.290921998789951
6.700176697098746 -137.43704690028207 -7.253364037037489
7.0212483231663985 -136.28148588115778 -7.245760092815971
7.278140680402553 -135.04975845684928 -7.241387786921454
6.679749076485117 -137.42996605776108 -7.2562048192387465
6.9607945456160945 -136.21682192087798 -7.25606747709825
6.449774185748087 -137.91120572582253 -7.243338010463181
6.209751313713305 -138.03626819499192 -7.252632508300038
6.299868791976624 -137.61120715937258 -7.257925220807477
6.80278472666447 -135.26630879352942 -7.238007141171354
5.8391458185823355 -138.889706912681 -7.255360072841179
6.735010493937398 -135.1257030422933 -7.253285487307807
6.609416492751205 -135.31656360780175 -7.241411046622033
6.637397386693547 -135.2102002765249 -7.249771289737879
6.691242579113049 -135.15728484569942 -7.252256631505898
6.7350623659657565 -134.74409821640126 -7.287479464828688
6.748303323679573 -134.69917061372183 -7.291051964740419
6.191731724801571 -136.54058471339437 -7.257448532888104
6.198300190624691 -136.51037150183868 -7.260584114321992
6.456913389186293 -135.42642595149925 -7.238430120852452
6.557335460948377 -135.29500061894902 -7.245622047001986
6.56918860543321 -135.22118730994356 -7.25165990050461
5.197357156072075 -140.38220239367956 -7.249513997755623
5.22038549704687 -140.25892739529522 -7.237789912949972
5.2919924991406475 -140.0383970315251 -7.283547249869425
5.447900113481966 -139.4394520136128 -7.288527764377002
5.492593533793207 -139.4273411256364 -7.276892388583408
5.478201119764966 -139.2631927007679 -7.281119852612185
6.063686748121454 -136.7418959404221 -7.243027088877819
6.131568255505078 -136.5529539496354 -7.260245856525515
6.487477581958918 -135.15186477523415 -7.261504305910436
6.4956169885474395 -134.99187684734358 -7.275394305375683
5.152130593859933 -140.28546492136985 -7.250899646590481
5.11385119991954 -140.24528962961134 -7.25502153770639
5.166365598976394 -140.1593221615727 -7.241299286450434
5.466713548350564 -139.04154800360737 -7.290709113204306
5.6953345279970655 -138.19181032908568 -7.2570906568719975
5.838423399625164 -137.43214571174911 -7.265824268567263
5.88254876023429 -137.2251147658955 -7.289378749118463
5.992614196274897 -136.76006167415068 -7.246490330109408
6.0676032987381525 -136.5405163321735 -7.266383257172307
4.777287244737488 -141.26063490562464 -7.276950379192928
4.866272533704229 -141.23215634844897 -7.264280489535276
4.970546756528256 -140.47293905333012 -7.293024561847184
5.026462529521615 -140.308465279684 -7.273511729482558
5.074284041424809 -140.20047489972248 -7.259322243113771
5.0838490828527565 -140.1158513042017 -7.253356268608014
5.090128270843625 -140.00643251096696 -7.247341197866464
5.099356278600686 -139.86317828949612 -7.240329151201414
5.106957698184799 -139.85376301183467 -7.238653082084603
5.743471489744011 -137.39897140680188 -7.281691938589264
5.753344777537198 -137.31849795608593 -7.291284361652098
5.921485482870763 -136.7439650865787 -7.2540672515483315
6.853311534843055 -132.57824249413977 -7.241060945380285
4.747726623093883 -141.12992890457883 -7.272136213830995
4.72163309612076 -141.01415214980233 -7.268334266433784
4.806565792296519 -140.8697466960477 -7.249096468545254
4.953638139634891 -140.37725912235476 -7.289866786032395
4.901293345899468 -140.31853111891235 -7.295383757219524
4.996034063091072 -140.17910670593886 -7.271737594839578
5.0118914139208455 -140.0800865413411 -7.264260998796775
5.024182976020887 -139.98252138699004 -7.258036364074823
5.0212437143917175 -139.89387930880488 -7.255363989198925
5.586813882290367 -137.55945841600666 -7.280945692929947
5.60749471731529 -137.50287479322893 -7.285292986195021
5.676203802678582 -137.39693280771093 -7.29018395537764
6.740950883867681 -132.7063714060945 -7.237994425937394
6.805665297418808 -132.56406050397973 -7.243488240215589
6.824943224803359 -132.445389069606 -7.249405935205603
4.641532219673367 -141.233771074244 -7.291873803825575
4.66660378041993 -141.1067219700354 -7.280857972979043
4.704657072563851 -141.0074942154357 -7.270117635010058
4.71976892738866 -140.81008041531808 -7.257096806787638
4.888822643027064 -140.24183534463464 -7.293431251121859
4.91461365954667 -140.10373816169587 -7.282379281265785
4.951378243071514 -139.94977861487183 -7.269757207162038
5.501143890657684 -137.5490299620394 -7.293715391609883
6.627741428056889 -132.72789872900236 -7.240839044272236
6.684856592367184 -132.532141563142 -7.24957789451378
4.53936286428556 -141.04051644008317 -7.293227859052514
4.854561964252628 -139.84349471096706 -7.28388765070214
4.851308307298105 -139.72763132158434 -7.28180228294568
4.860507068625792 -139.6486048698751 -7.278748777589124
6.557321797611296 -132.56300947889713 -7.252461749700173
6.633234926020679 -132.26426307323158 -7.266036845132262
4.796962195560343 -139.8043940852437 -7.293305563846152
4.790918493145577 -139.73112080560531 -7.292844862567875
4.822001253143625 -139.65984826475153 -7.285947791594098
6.525734082249398 -132.31905117617725 -7.266985984120287
4.448458200851547 -140.72233865772 -7.288835329255505
4.586933508509189 -139.92173438483437 -7.242282386180512
6.234990656829558 -132.9997396421077 -7.240874012680553
6.273189771590604 -132.86278604594813 -7.246782512690394
6.317828067007006 -132.85129017117606 -7.2456814242845695
6.462133272110548 -132.12800572954347 -7.279770278989672
4.521798161594768 -139.94688382842006 -7.252278444043247
4.553183890735069 -139.89763266957283 -7.2467722049155965
4.593200636133677 -139.7839429070588 -7.239133703455929
4.494444663008872 -139.73750003830236 -7.2531402900936675
6.02790855750151 -132.9004935350773 -7.2545711607365435
6.164670220441748 -132.5588806901272 -7.267633808544719
4.747241931484071 -138.0112125259944 -7.265825445291879
5.93303717096068 -132.8803740063135 -7.259548055932561
6.085098632807166 -132.50766178965566 -7.273477524435913
6.054566102592782 -132.4657877704957 -7.2770526577742976
5.865013970690876 -132.88888051469402 -7.261837259691452
5.887821900175959 -132.7587112129614 -7.267910478842872
5.958567748167459 -132.68946694376845 -7.268779991468427
5.911026572642287 -132.6206866056297 -7.2744071653478315
5.99490234658222 -132.55187701248983 -7.274703125732856
6.009458413838362 -132.41110455065197 -7.2817843634211705
4.526341509609674 -138.35548214580578 -7.276550013808907
5.786112042948854 -132.59911772439514 -7.28083890503085
5.683703600721802 -132.74638779914122 -7.27722088558051
3.5622600989957425 -141.34039124027214 -7.293597218330767
5.609430629014414 -132.7871739006125 -7.278194262349397
5.6192794402935435 -132.7235799025585 -7.281254215377723
5.646966784294635 -132.5173627191498 -7.2910493414284785
5.439373258874898 -132.7848133455931 -7.285868185760151
5.478487492965298 -132.7442231827679 -7.286300286756379
4.182458574369235 -137.6972399955297 -7.24500955373189
4.237255990048669 -137.6624456156312 -7.241054324996922
4.250497841415028 -137.59029275846385 -7.243323746407621
4.249831986885269 -137.45143726262998 -7.250663161464345
4.289151632850684 -137.32013359919338 -7.253911356623434
4.28903092092634 -137.26808437670516 -7.256859424996721
5.384601400780045 -132.85048422338116 -7.284748333329726
5.438733169917039 -132.6841329166597 -7.2911881923202255
4.098540128876255 -137.66422476686225 -7.255322880293735
4.1840240844368815 -137.50856034153233 -7.254319373439787
4.20375942288541 -137.48573603922998 -7.2535035816195395
4.218188662671561 -137.3286674904401 -7.260504464251174
5.266565668731731 -132.94710006856178 -7.284988787028638
5.319641593704989 -132.74076263568296 -7.29355066708264
-2.3923670620387965 -163.9941734901298 -7.270885489602137
-2.432276322727204 -163.8544319589891 -7.271482666986749
-2.6214202287202673 -163.838289752016 -7.27782827650546
-2.6401045730196513 -163.63714579216193 -7.278075121671844
4.459513523119779 -133.51314735539532 -7.2953381592190745
-2.724986234186857 -163.6030087818872 -7.280562256951362
4.399085290892992 -133.59161653355625 -7.294586633945636
4.653341254536799 -124.54784991451594 -7.239276657390748
4.686989476034899 -124.43093933549223 -7.240228637360012
4.559647009250161 -124.45408428406353 -7.244298831564922
4.414469630200021 -124.5363980315363 -7.247749658674582
4.232462189351631 -124.5623057742041 -7.253701445092677
4.276234070057436 -124.51115801874397 -7.253000073957605
4.115770193173105 -124.51398648405578 -7.258747019976254
4.150945526118943 -124.41932473743854 -7.259192417503453
4.039713798916667 -124.53662783389268 -7.260900206857285
3.9157299376564643 -124.5841925907694 -7.264432075932807
3.966267717276185 -124.57135369344937 -7.262732086257312
3.80370832768461 -124.55550040140164 -7.268964462578752
3.8434661402499057 -124.49349641547755 -7.268597317062184
3.6778464207018104 -124.71338177164145 -7.270189173414503
3.7114209275724623 -124.62556913317542 -7.270870628941169
3.745621520490945 -124.53779538997675 -7.27120321799063
3.5488446361514936 -124.73797690496461 -7.274388546296268
3.6194817418988743 -124.69426242908257 -7.272803577139593
3.481559238151729 -124.79976813020161 -7.275501817947449
3.3719298127869037 -124.78823591667737 -7.279649947137582
3.3794603424982745 -124.60892912805843 -7.283018564329071
3.184220133596206 -125.28116510180183 -7.276852860337736
3.2252896782667984 -124.84311162302565 -7.284009757097199
3.1178828062962367 -124.8411200599538 -7.2879165226880644
3.144826263294469 -124.74052404927683 -7.288734826238613
3.231344448031116 -124.55720424788377 -7.289253382053079
0.3988222040030598 -132.46836458086582 -7.252249774523332
0.9859565386194129 -128.81163452405025 -7.292897690544879
14.18223355984436 -150.12174880205333 -7.238219519268129
13.934834043095284 -150.0719946259265 -7.235258463331373
13.747716717234374 -149.94180891661898 -7.23024314150199
13.77947470251365 -149.91006443565996 -7.22941021729658
13.920092797921733 -149.04859441975816 -7.204343565329868
13.787998287634842 -149.1494714148658 -7.206370334069265
13.683289487690885 -149.1405432187758 -7.205393208089535
13.806905404752719 -148.3763103764443 -7.183957488940144
13.870340499707567 -147.61844528469592 -7.1635489258472775
13.771275050012669 -147.64318654956 -7.16315774844016
13.62905843076129 -147.8547224658421 -7.167578235383397
13.75271185489952 -147.53110861587356 -7.1599057208983785
12.961726888081852 -150.30643905563028 -7.239124498862278
13.207943626692106 -149.1921752667161 -7.204234460874741
13.462574753490316 -148.2323403548406 -7.176928924645847
12.90558704283384 -150.29323799024837 -7.238579248772557
13.05419487086727 -149.28562700545265 -7.206469535214107
13.127801066696112 -149.17575277719484 -7.203328327193453
13.215101548451269 -148.79043672155095 -7.191887390365235
13.306753915751372 -148.3402441010543 -7.178919328242568
13.032045228474052 -149.32671106299924 -7.20766428083131
13.034488076580221 -149.17623430766244 -7.202923446684426
13.201996073642391 -148.35598983766056 -7.178665417226463
13.283583818593392 -148.07623592584306 -7.170975685557204
13.384821225307643 -147.47768391874925 -7.154732117596874
12.846703046439382 -149.2498899318291 -7.20453469676655
13.15982292460028 -148.02867756953225 -7.168641329675766
13.349638574283768 -147.54733752241512 -7.156352067086573
12.535027948918565 -150.31880683950763 -7.239064766223189
12.828375526852055 -149.29736422049726 -7.205978782563739
12.991752299792012 -148.51573240837882 -7.182181397859338
13.062099023928218 -147.51931368966714 -7.1530174506915545
12.85861916053463 -147.97240508256326 -7.164868815632043
12.72203698789103 -147.89482107760952 -7.161648554701149
11.979101431323638 -148.73614383871336 -7.185696512592491
11.931455850630968 -148.762929551877 -7.186527896735032
11.705578533176489 -148.72620684495206 -7.185180133211268
11.571391603293193 -148.5336385930208 -7.178657628495444
10.757846495150986 -149.8517208087244 -7.227622873753621
12.07338157343294 -142.08525923033645 -7.21683696317724
10.134763047339213 -149.7859539204034 -7.229856272786808
11.922200270156651 -142.04451332839895 -7.2074382440641465
11.999243543102667 -141.80477960563735 -7.205248344119013
9.971218932219859 -149.90039844317542 -7.235662731169577
11.84745514469736 -142.15665796483862 -7.2067663281354175
11.86936042921646 -141.88458123142993 -7.200075395552
11.867680842841919 -141.86244655324427 -7.1994031530985945
11.893739399050098 -141.69923352254733 -7.196661295126535
11.945708413404066 -141.65240483266822 -7.198499510868627
11.961453223706215 -141.54422585123328 -7.196935529629238
9.858202074818658 -149.7672015928027 -7.231787798279121
9.962459756440014 -149.45688085100875 -7.219140414031292
11.737388579885721 -141.9616083818199 -7.195037130428702
11.809723260932941 -141.87311774170374 -7.196490572347946
11.81599996123661 -141.62005314930096 -7.190330637203211
11.894645584802603 -141.52711063149093 -7.192682587076042
11.871346963063164 -141.41619548668112 -7.188967493805921
11.868425103833784 -141.33554566306978 -7.187166870623032
11.931012088228748 -141.12014952071965 -7.187049532833575
11.298138932608325 -143.57429387244872 -7.238046084761279
11.354086019656204 -143.369597670402 -7.2305948485911555
11.308858828414671 -143.24306287816998 -7.2228705959128785
11.605352631468635 -142.07456326068606 -7.191368775311465
11.775165053275844 -141.2587523128532 -7.180180684985637
11.818595904291598 -141.18098899405942 -7.181325200570152
11.835663106163535 -141.09961095099817 -7.180973171000307
11.859063001660434 -141.01501675425664 -7.181067651841693
11.876419427332127 -140.8759398055856 -7.180173304037321
11.950531601889464 -140.77048949399932 -7.183482997343743
11.924707674230287 -140.71738025033886 -7.181320339014937
11.118961253960764 -143.71654458354257 -7.238323988740683
11.112645681639492 -143.58918699888508 -7.231671282706942
11.24753287578569 -142.97525832982112 -7.208242274696699
11.316338973280432 -142.83402318085462 -7.20522306990834
11.352397767709709 -142.73984384234515 -7.202979392096471
11.700405348297746 -141.24599942654265 -7.175501747315591
11.741142471521691 -141.1500635692287 -7.176158759433665
11.804372007644716 -140.89731625428334 -7.17604118971781
11.797410789083436 -140.69735668518243 -7.173179142340705
11.843691815039298 -140.56993874301187 -7.17487139434602
9.619879999578092 -149.74915348030584 -7.233661464922259
11.048524817095668 -143.76110594566242 -7.238055083617641
11.090964252523019 -143.4777364874437 -7.225303568307111
11.11883524937275 -143.42022391966773 -7.223574515584306
11.076267314118207 -143.26569609656727 -7.214445102524562
11.177631229948135 -142.88851351418504 -7.2014125275942416
11.21266971797667 -142.79596687011468 -7.198958714614271
11.238814385583167 -142.5781819512988 -7.191154074276811
11.343364759818048 -142.40428588773665 -7.189424264758945
11.459729605323083 -141.96452988706585 -7.180250648532604
11.789159216108295 -140.5729442772524 -7.171488744833419
10.88519164722116 -143.69712460291703 -7.228959157025653
10.95280575182951 -143.68320670997184 -7.230598880056397
11.008082275985457 -143.53652701389646 -7.225122250133511
11.168059123504067 -142.73434524923397 -7.194363548370992
11.173853961364351 -142.66501946797132 -7.1917038692021045
11.152315412499286 -142.61255366191344 -7.188560350390231
11.225304771955223 -142.25407824724863 -7.17806489952686
11.26160859180127 -142.23740827661325 -7.179253588378811
11.609256372250044 -140.71891141537347 -7.161771947278357
11.652654541952606 -140.58726948024642 -7.163058823871918
11.674968291716384 -140.55916681667043 -7.164196952860393
10.818279682031285 -143.6965489293939 -7.226615659218488
10.820817063823528 -143.56267427441696 -7.219677766604524
10.996896994738401 -143.13303550208047 -7.204954671785
11.059869159876737 -142.65332102882368 -7.186090653998787
11.58423630104476 -140.60147535193212 -7.158927842353874
11.606808537664294 -140.48987577457274 -7.1593478360175
9.272268457654347 -149.72098562100763 -7.236801384307915
9.436538690195036 -149.1353725248367 -7.212474619926352
11.461887877340033 -140.71464013885196 -7.152640095238
11.47348929917389 -140.55325810764222 -7.151558577361496
11.503261210287512 -140.52859422797133 -7.153185580023049
11.69711859112164 -139.51053497401315 -7.154345380586343
11.79029084485784 -139.0887037495499 -7.160707278778552
9.216634814834213 -149.63250670853037 -7.234149662659274
10.886698968030503 -142.54143186291668 -7.1735862184216375
11.127689103860103 -141.34309009765278 -7.144569904148401
11.404175474327287 -140.3811894496549 -7.145763615970325
11.405459915678858 -140.3024111517537 -7.145341522578534
11.651619096425115 -139.44467404614014 -7.151333001234012
11.652700598236743 -139.17465774419014 -7.151658013560534
11.664689452593986 -139.1428395128629 -7.152481771623835
9.425863602928164 -148.39055732133596 -7.184425586415116
9.433795689797059 -148.0433738062506 -7.171276508581815
10.95070851299047 -141.74731241286491 -7.146598985999015
11.37273433046833 -140.22481308966263 -7.142871101645855
11.37373303394037 -140.17124848900946 -7.142742950547162
11.329080533426076 -140.0707580677648 -7.139635035883461
11.55673485141479 -139.34029534241603 -7.145250024681565
11.598672101335772 -139.20750099832884 -7.148090900754874
9.368619091268066 -148.0419852306613 -7.171886154818008
10.40063771504764 -143.53725875562728 -7.20428471182247
10.630245320755613 -142.94590708596704 -7.181450155953282
10.929004292752275 -141.5608587534267 -7.139629493270665
11.486745120589905 -139.05657835302372 -7.141652611544734
10.531747292345205 -142.70067434217 -7.165741632897948
10.565478072181012 -142.65184388184974 -7.164808089291548
10.679498427214245 -141.93904326351384 -7.1396619375888015
8.900898487428954 -149.12996634396936 -7.219178188464928
10.282330733283601 -143.24116799073826 -7.184267863928774
10.33357537407431 -143.2309730334387 -7.185421587409584
10.411044669224957 -142.80486823082003 -7.166109073485347
10.474107577983329 -142.6906783073948 -7.162968108327754
10.47785033654247 -142.48918489882928 -7.15365704763731
10.548867055810828 -142.37912296754578 -7.151705179675929
10.173636583072785 -143.16207851318637 -7.176439234740351
10.657706392387684 -140.67606715402042 -7.23749150777684
10.511339229797356 -140.97185811245194 -7.234368092012969
10.549314757317795 -140.86935933325336 -7.233904517381564
10.55934962220626 -140.82085246325116 -7.2330889903626465
10.609920289585183 -140.6997699178032 -7.233785186429699
10.595251098175645 -140.61764768729319 -7.229989383250787
8.929232642200496 -147.13360576883304 -7.142368813337964
10.311144965627456 -141.41917862076573 -7.238146653192789
10.390608513059618 -141.25030260677457 -7.236149174758496
10.471680355804217 -140.74767580031863 -7.222639074078824
10.472373530558258 -140.69998904309318 -7.221116632533932
10.50690894889809 -140.53746077360185 -7.219506715483072
10.557413649931673 -140.5283378900725 -7.224007576374997
10.584325003324375 -140.2858840276031 -7.2210303804671465
8.864298078209181 -147.16694724312714 -7.144411382558612
10.234616424858716 -141.41557957676517 -7.231802115936217
10.333932116287905 -141.14181454746307 -7.226241273458334
10.397553459661511 -140.64865265057418 -7.212633934745986
10.468978623523007 -140.32225504565807 -7.210692821730157
10.52846074207206 -140.28945319556055 -7.215728494787049
10.549600687411393 -139.94793681047238 -7.212998003208114
10.549891801240227 -139.87426229028281 -7.212478386042124
10.729102665661927 -139.29046205640384 -7.221516136747226
8.799882452639132 -147.1955664307089 -7.1462957672706136
10.019799961502045 -141.66318529428943 -7.229837918258135
10.088394408369417 -141.41034010819246 -7.21994314963665
10.138198311607491 -141.27624366912875 -7.216629695327764
10.308259247895624 -140.72424900588447 -7.206997577971348
10.383064585841273 -140.26554756907848 -7.20129464056598
10.423999996362907 -140.1295611915506 -7.202830511926339
10.473386904019847 -140.01846871354041 -7.206171962050816
10.439720960009621 -139.94870732416942 -7.202165892199316
10.504798804073896 -139.89021302361195 -7.2081110098083805
10.495479775760094 -139.78165011631717 -7.201734109194639
10.555973959350952 -139.63048807526687 -7.205799692989229
10.537989092134923 -139.54407900685453 -7.203320715424658
10.5392707606038 -139.48951498286144 -7.2031411617647345
8.683137880099803 -147.2525465151544 -7.1500037242445975
9.879095990783693 -141.8512862608071 -7.23225398428657
10.056846781051112 -141.40325160816133 -7.217084898893614
10.341628406923773 -140.26528021288797 -7.197305953283253
10.330275571090112 -140.1062310075405 -7.1933557586725
10.450016039352057 -139.6406431999658 -7.195539298042878
10.453404282706837 -139.5362883032479 -7.194989800482662
10.504935411468384 -139.44028321178425 -7.1995642821665236
10.538520650215355 -139.36888876449893 -7.202708317141444
10.570749657778535 -139.2180140503783 -7.206135119369861
9.830056474727416 -141.67895573444676 -7.2171960603673595
9.826926185288961 -141.58750900679033 -7.210977812729231
9.940407216131717 -141.12007332759526 -7.192426377860274
10.239576760073703 -140.10295453299798 -7.1845097962683795
10.271680192931036 -140.03338956314096 -7.186592879988227
10.336041189958786 -139.8498476072312 -7.191122845689321
10.323606928999709 -139.70421441340082 -7.183918549472903
10.346794894133684 -139.56576997273794 -7.184735137550669
10.418508436441604 -139.33767369299878 -7.190893966976942
10.429773500548972 -139.23342296684916 -7.192168587967903
9.677629579669942 -142.0960947403239 -7.236988954724651
9.702305731802312 -141.8882554429769 -7.2230823601268375
10.055326021195494 -140.24815347261432 -7.169603582190356
10.1235617925394 -140.09929749048712 -7.17317968077161
10.165687009138175 -139.97560181145317 -7.175482866757751
10.270599320532302 -139.67188048866723 -7.178329161523798
10.330828660038923 -139.3483035555096 -7.182232275058741
10.331613689088256 -139.18472056346548 -7.1827664652125875
9.343870988430627 -143.13118386517488 -7.152147514531304
9.867112621343887 -140.62127433433713 -7.163623386511364
10.007555742430032 -140.10141218152907 -7.161994596350418
10.023782672992924 -140.09490400257428 -7.16345138812119
10.101167271560737 -139.97233743006237 -7.16911370027175
10.21233991818299 -139.26574882590322 -7.1706810121711
10.255093846381609 -139.14406761858243 -7.175502102395863
10.292577961640552 -139.04599972080948 -7.18005856896033
9.654162955780524 -141.33952468028053 -7.182644623035684
9.824830205951988 -140.61277205479257 -7.159525576676289
9.902220157913764 -140.17772037908392 -7.153434671553883
9.910973443593036 -140.1696981592039 -7.154097435107277
9.967960949875934 -139.83930374127252 -7.154608139995188
10.140374023852026 -139.20829771912318 -7.163829954886366
10.146702850623898 -139.149156153116 -7.1648021598963085
10.178437400131209 -139.0496760937738 -7.1688016285094935
10.171636068906757 -138.99103211391224 -7.16870707420847
10.232444080718338 -138.7845843206542 -7.177067429080372
9.366311521164667 -141.97322922052436 -7.209021354616295
9.457331038773692 -141.68703921906993 -7.192635298200608
9.704879307123893 -140.73719563563688 -7.154228679243163
9.789283349315665 -140.01122391249413 -7.238060349557459
10.087933939902006 -139.14683422728305 -7.15905482280165
10.101565514481855 -138.95789113969627 -7.162087748944265
10.13550908993643 -138.82986498585967 -7.1669134746564955
10.140737622227103 -138.75625890074463 -7.168554608133598
10.166505195066527 -138.52633687348975 -7.175878790173985
9.526768686899018 -140.7059873040927 -7.237155927981394
9.77271804730843 -140.04702717056088 -7.138348626094081
9.752305670145432 -140.01139783803916 -7.233216743640915
9.784439252253089 -139.84851425912734 -7.2338853187227175
9.78916833980456 -139.79634788099855 -7.233708850332364
9.863532546504459 -139.4858837942407 -7.235791507466403
9.885698566658808 -139.29449523647642 -7.238129147964058
9.996187426806099 -138.93421604201407 -7.15198733568024
10.06737410205098 -138.69370372678043 -7.162626195127242
10.054674917269947 -138.62603986940368 -7.1628309247330435
10.097515502080244 -138.53274130842524 -7.16913824032847
9.182310420868596 -141.8288049328996 -7.187058199328782
9.364208515635463 -141.07061807146093 -7.144477983098089
9.49330613843997 -140.71417981887657 -7.233856641402562
9.711038588428876 -139.5155525180152 -7.215702579978242
9.800398645969096 -139.4366482732155 -7.226992279953551
9.800011103896521 -139.35582098998358 -7.2266401709040355
9.829088805503734 -139.28983741319826 -7.230564799433096
9.798244105868417 -139.1861478865313 -7.226963606568076
9.809674928112756 -139.0900575662732 -7.2295182338518815
9.946608395971902 -138.6740776991901 -7.1514430595458185
9.993523840583379 -138.5649809622874 -7.158415288293628
9.265163879682543 -141.09029072415282 -7.23805797323561
9.343680441188987 -140.76562131551864 -7.220570520387523
9.386220727694745 -140.76556157351615 -7.22528247962644
9.376255055066032 -140.62959659763507 -7.214916735397905
9.679432440093462 -139.41303132606447 -7.210664912566562
9.722174722319838 -139.37151073279549 -7.216284304586046
9.74327928471927 -139.21197313600655 -7.219407828334182
9.72432997552442 -139.13867847751436 -7.217554293441135
9.773766739469819 -139.04463259405387 -7.22528666101316
9.746316416241143 -138.96006483149557 -7.222823641656671
9.879296010815889 -138.6509008922606 -7.145421785481944
9.221339696590256 -140.77713670931644 -7.2080444833511566
9.30055144569154 -140.59578377495964 -7.204051662525564
9.60506090002303 -139.14641917591663 -7.201519687243793
9.653840849719934 -139.0217551459546 -7.209591003216902
9.708233473193367 -138.96485355616505 -7.217649733176037
9.778647095328557 -138.4565938271494 -7.141220216429243
9.81973380766618 -138.31059388290166 -7.149897126299647
9.534484388796702 -139.08238973722635 -7.192910441846288
9.599184139225219 -139.01433658107965 -7.202437335542153
9.669842763437714 -138.52588039672906 -7.224965214727961
9.788671354744128 -137.9577402955325 -7.162180948583552
9.82991790119974 -137.85272980768363 -7.170948061051329
9.044987094959623 -140.8707531467168 -7.197134233507816
9.132204279468489 -140.36818109819012 -7.170265200191963
9.48436083613668 -139.07874606042927 -7.18631911591685
9.445255941446614 -138.94038534451073 -7.183164867409197
9.555156353259555 -138.55076562466982 -7.209418754722561
9.717722565341548 -137.98731684714093 -7.154680922020779
9.709614224978424 -137.9158768712279 -7.157580310884409
9.731932285686135 -137.82669264381894 -7.164083041261972
9.7541430716621 -137.7527379904984 -7.169987017105051
7.167753692254385 -148.2553171511817 -7.219592303800727
8.638806064147145 -141.9725703841208 -7.173739593506677
8.63715393418971 -141.92744965477578 -7.16950223314214
9.047112086813677 -140.26033875167377 -7.192908191354947
9.16574955396513 -139.75619312219533 -7.149985887728883
9.279708030154966 -139.15165998004392 -7.237199186742482
9.402768785847133 -138.95137762798726 -7.17736207565343
9.589415725388124 -137.97927608768256 -7.144090514396353
9.63291051224107 -137.87566658648623 -7.153182662359529
9.634252857290548 -137.81058138017443 -7.15682151401488
9.658676460227337 -137.5450352805219 -7.174566535572669
9.677990170977367 -137.54517447339074 -7.176152242224011
0.6235488613789473 -175.64944848030606 -7.221644610462567
8.608697540571844 -141.94169254183421 -7.169714198740101
8.906541852315858 -140.32261459395286 -7.215481493264697
8.95641513853698 -140.2195934847861 -7.215113415493648
9.205692129422426 -139.01169544233034 -7.227163056651053
9.270081151610578 -138.9287322994225 -7.1603003220099515
9.54731994855747 -137.782983730222 -7.151400186885352
9.547733288193655 -137.72000725932165 -7.155073087037302
9.576635281130233 -137.6139245470723 -7.163965778262582
9.621757735737887 -137.52493535791174 -7.173045301630116
0.5105698822230034 -175.57225472935943 -7.225100320069407
8.815952095197748 -140.27436641395758 -7.198280819660061
8.989105440925526 -139.6189977409933 -7.192991452506049
9.056229329359518 -139.464156832868 -7.198974209871959
9.117566843446971 -138.96957176890712 -7.213400304739457
9.16646230245737 -138.92541890372203 -7.203862078284546
9.244347412889919 -138.8077413715361 -7.160152907733809
9.20436047772419 -138.71703852427638 -7.158015598089766
9.45421934036796 -137.76806346595606 -7.14477723621154
9.466458012854167 -137.6274731809734 -7.1545013049419035
9.500578944671998 -137.5587847266348 -7.161618561393189
9.506471169516157 -137.4563307843933 -7.168962524714256
9.947557054685557 -135.8077155904739 -7.172102043776824
7.061234507984551 -147.3282885179356 -7.185584870533841
9.09000304419715 -138.90030073386177 -7.181209472476526
9.102482514115929 -138.80394576796587 -7.141842828029649
9.11122107834817 -138.67845020426208 -7.14760244150597
9.19195977069175 -138.20853934378113 -7.183237379750991
9.393453925842103 -137.62215864225035 -7.14938243916057
9.384808081513974 -137.53376894970003 -7.154677060359404
9.413294693586462 -137.4085936452816 -7.165451944432631
9.439516636351282 -137.3605461267122 -7.170846398123563
6.8180388560219045 -148.00947584005817 -7.219307003236631
6.991231227321209 -147.32436496273962 -7.187306785823038
8.515057144130639 -140.78710759109612 -7.13925586688593
8.77472413663224 -139.8131077906564 -7.1630325683421
8.761720243464945 -139.75013882951654 -7.174297981260626
8.791945877071294 -139.63138931876432 -7.222608241058344
8.758880188677342 -139.58332714887342 -7.214543818638309
8.950546616815691 -139.19494067304194 -7.180962733961348
9.000650224845918 -138.86383123244946 -7.197502400241324
8.976631872350524 -138.77206226315127 -7.197542858444529
9.03847401192738 -138.69492789299466 -7.161805370741063
9.055708977678945 -138.60064574858873 -7.144100187922287
9.131929025127116 -138.21255924463762 -7.175996256330878
9.211652541283486 -137.75676265484577 -7.220370513197591
9.208280172327703 -137.7303717641892 -7.222369872537583
9.298079859121833 -137.43129281344258 -7.15574175761885
9.39382734263078 -137.2593567525738 -7.1750394553845585
9.389110477679154 -137.11564119849098 -7.185780175970685
6.749873715196967 -147.8290868950519 -7.214141758888467
8.700267816244706 -139.6951943328941 -7.176304371467642
8.673547042356988 -139.61424168389215 -7.197961947709751
8.75696258850617 -139.51147482305538 -7.210718025619142
8.762508107230747 -139.4350350780679 -7.210303106630791
8.789039946797267 -139.2731934777452 -7.168558030573217
8.767844238809637 -139.16153950853865 -7.2122221496510655
8.819390237577009 -139.02681289135768 -7.2260448926960725
8.833384921676622 -138.90578040490686 -7.233652624009714
8.884148844842926 -138.8238968055656 -7.1800090193417025
8.912375670175525 -138.75380870913054 -7.18803028872131
8.903422090398973 -138.66828579858105 -7.191303067319572
8.96441522150207 -138.41558135623052 -7.168180200505
8.983528455773735 -138.36353387834006 -7.15710421518567
9.005350297781215 -138.23745201724955 -7.1791416720713235
9.05391434431885 -138.15492655005391 -7.171184055241276
9.033059421518859 -138.1072943680623 -7.172441097956238
9.14075087876234 -137.7448030771064 -7.214142189645492
9.17587247163801 -137.73164044794038 -7.2188515030328935
9.253382108312724 -137.40336721119633 -7.154719464974435
9.258714121954982 -137.2957480945539 -7.1632876954612525
9.291878349387598 -137.2321408002129 -7.170370357256128
6.722124224851253 -147.76391302946072 -7.2122777719266855
8.132919439625715 -141.5583224852606 -7.205212897121119
8.565959587215197 -139.68097881854823 -7.178657061637245
8.585377560082863 -139.6370037913795 -7.237003037709367
8.62912209090266 -139.4904592738749 -7.1841077968783615
8.682768364774448 -139.27808716501406 -7.19317906515586
8.739209568434607 -139.1843159118474 -7.205912933611815
8.714000065009888 -139.1241238547252 -7.202081471648688
8.76333975336611 -139.07626738984447 -7.213196138295147
8.787702536736369 -138.89740777468367 -7.224916905801482
8.774503612959403 -138.8494903677441 -7.224818456851774
8.791380388344146 -138.71826444598105 -7.217955967661452
8.831561759914518 -138.63745007490132 -7.1817859022483015
8.838501194430258 -138.53514151894305 -7.18981114508284
8.877413598621978 -138.42726001342737 -7.203904684325542
8.909566235781861 -138.3378505096777 -7.216039262247683
8.935692544504189 -138.25610362439562 -7.227033239606759
8.919390658180546 -138.15136457104293 -7.2344365519994
8.95711963841977 -138.06099323593517 -7.16781664916468
8.99476369161768 -137.95951469817905 -7.18020275696395
9.037681338704955 -137.7434893275989 -7.203846365407001
9.024662529955043 -137.68879449659875 -7.207724714640024
9.155526400475908 -137.2813155644437 -7.157714259743425
9.400518119921987 -136.12829701217416 -7.138257586205097
8.506565541868731 -139.5505686535015 -7.214799030008008
8.538247425243497 -139.45934648332192 -7.2189549700586895
8.515050860876139 -139.38110546284088 -7.211929136766512
8.632607013172297 -139.08884967715326 -7.186158121288274
8.700614440618603 -138.79667245211326 -7.2134731255070745
8.727443465047777 -138.69388663839055 -7.22576216290049
8.736271865496992 -138.6249321547467 -7.219754172421261
8.844972835952357 -138.12846972230022 -7.22637396278077
8.865755703543165 -138.02224617005874 -7.1874696162144485
8.870529727620013 -137.86027844867294 -7.176425617654951
8.971558725336262 -137.63710678445173 -7.207643467558388
8.938853277025428 -137.55572763917635 -7.212811916163146
8.995689337688287 -137.4289686021188 -7.231015789084728
9.032003799321105 -137.32778116803897 -7.146201067437503
9.036170661099481 -137.23432681170547 -7.154185444540498
9.029849350627845 -137.17234747765036 -7.159008156291682
8.15470671983453 -140.5393079404469 -7.200837596423908
8.425978484741051 -139.47912457714185 -7.166900676940725
8.483141136954183 -139.29186699484288 -7.152051462157378
8.51441226836996 -139.07341578941376 -7.216321493080639
8.782298876955435 -138.1007206066623 -7.220754712118461
8.897042288886377 -137.6155214740348 -7.202838597419188
8.892987210520475 -137.49888192454324 -7.2146594381390345
8.894194929157841 -137.44983554562558 -7.21993686011765
8.916344066898368 -137.3179950811948 -7.188307280724871
9.011196393252456 -137.13278453106074 -7.161406629093491
9.018423805478198 -137.02257947228674 -7.172178440489383
9.003108323139804 -136.95141326571206 -7.178398029697162
9.399476380285076 -135.21728308574072 -7.207732397903415
8.092558773104932 -140.46577943418635 -7.237471437447809
8.322750875651177 -139.4725219825463 -7.167436575509213
8.43078087008792 -139.0674801960926 -7.196577357834803
8.832325363233046 -137.4680177584337 -7.21269338654756
8.83216260955279 -137.41620967199964 -7.218363229768372
8.820840200721802 -137.29957091962893 -7.230936952974281
8.809889175369685 -137.24076294982507 -7.237404214353859
8.92605686050373 -136.97177272919842 -7.173066435982099
8.927965823405053 -136.93622619329096 -7.17672110404795
8.946687343615977 -136.85184503906848 -7.185910138603294
8.99138084389358 -136.72870937346707 -7.200102683371244
9.210088887346757 -135.52037244480547 -7.182170071850796
6.259059340921746 -147.96980509538025 -7.234598796845653
6.213130249177516 -147.83670819639693 -7.230832002849554
6.243130900555171 -147.82970456866258 -7.2295029224823955
7.838341748316399 -141.07698180642907 -7.198936727646988
7.99262577587036 -140.47966953762705 -7.225687185867911
8.022715486917159 -140.3924915311979 -7.213105705815651
8.295671955653724 -139.2282239364764 -7.159259143831347
8.343615297204035 -139.0710028276105 -7.175645782101427
8.75283506307626 -137.2630847186571 -7.230862386077636
8.772500572009065 -137.2278974916002 -7.236525683188898
8.830491600737437 -136.88334354523846 -7.17818529344507
8.836472579630126 -136.80335403940398 -7.186630111813267
8.831751312984895 -136.7251650402623 -7.1946002777915075
8.880115215556312 -136.6067371572084 -7.208643416273568
8.92113655498742 -136.53129793633917 -7.217914371995271
8.913215096509608 -136.42658588114006 -7.228755610566333
9.176280606105966 -135.2933483134162 -7.199922941983439
9.285644587095419 -135.01307580193364 -7.2231453115224475
6.107661540070928 -147.84527070109235 -7.234564052055595
6.173359847374888 -147.7953179853627 -7.230450127852424
7.774250630833804 -140.88291316623392 -7.2258962398640705
8.682874084184983 -137.26616330005712 -7.225912482237754
8.659221659691312 -137.19318532176047 -7.233838272891594
8.790479504193883 -136.8137852809184 -7.18389506530972
8.787309028078937 -136.68489811297002 -7.197304864486244
8.820386219043577 -136.4454385886942 -7.223884125015398
8.88439536008141 -136.39439011940112 -7.231320543062898
9.134664791793059 -135.27188872107425 -7.201467133047055
9.119245992845496 -135.08617591474228 -7.216449519575609
8.761144882887 -136.45009205677266 -7.221672941121149
8.747712154142084 -136.37619560479195 -7.229377054875784
8.995840319154066 -135.19542210274804 -7.207031440050535
9.08850533376795 -135.09356106298205 -7.215691707738799
8.220432589824338 -138.26873076044967 -7.1859115743028825
8.472877443967972 -137.10157864330105 -7.235714942588919
8.647055025953632 -136.3458908496066 -7.230216763651009
8.842318962724944 -135.36538926819057 -7.192694579593319
8.914314255592979 -135.17303668666494 -7.208697773170962
8.593668166772344 -136.28377322129793 -7.23596606295745
8.853153659403011 -135.2078646485599 -7.205778702187633
8.826115235582785 -135.1530499022158 -7.210293262734259
7.439305003568692 -140.5701847104536 -7.192663635545171
8.486362365967873 -136.2900984324482 -7.233216307146571
8.681276858878974 -135.206281225951 -7.206007641979008
8.719127840354322 -135.12465255206283 -7.212815083747339
8.782357371480378 -135.0081119048022 -7.222424796651457
9.222755005055348 -133.08605583157433 -7.152976480590174
7.381501839531798 -140.37668627615247 -7.142694245266333
7.929716627729961 -137.98683868228926 -7.201119755599646
7.948891276305985 -137.957313230131 -7.208625451076276
8.407378123992494 -136.0178447496955 -7.138250249892227
8.640384229791264 -135.19902443214352 -7.206669163534216
8.64540083634622 -135.09798643053588 -7.215241184751649
9.037854918567625 -133.42214985757693 -7.138444367853633
7.735583342901385 -138.33179646995544 -7.159273349750198
8.390553871935458 -135.50298746008025 -7.181952689761456
8.456223109282863 -135.462145233928 -7.185075372551866
8.42182998817454 -135.36828782381235 -7.193220481295001
8.51163513907888 -135.19888356489213 -7.207194733723781
7.757304211250908 -138.1584420753221 -7.152074335689524
7.706718334896718 -138.07684302783846 -7.21606902088049
7.748571370093384 -137.96150840164816 -7.191932554964816
7.731563469979505 -137.8573168231561 -7.212902601171711
7.774874535327229 -137.77611627548188 -7.232775293543152
7.91979119757602 -137.36434310921936 -7.176133799840259
7.930666463033454 -137.18033219691998 -7.203841251743844
8.412002590870514 -135.30608416636701 -7.198598969599424
8.39811211045857 -135.26338123126664 -7.202397062112718
8.813267398694567 -133.41873535597023 -7.142666904958529
7.571704725922498 -138.26426901652835 -7.159311483857793
7.649276396294591 -138.1737791772021 -7.187706041951896
7.6519942593336 -138.00494042408775 -7.229325080896527
7.683639356417268 -137.99864352417694 -7.1798875066805445
7.746552953185894 -137.75299826408462 -7.236076752862762
7.708741329205045 -137.59814931587496 -7.201478177670655
7.7679802472431465 -137.4187933301279 -7.236573672741717
8.279561285007558 -135.48119364567907 -7.1845476622986535
8.29054707399972 -135.37502720169724 -7.193579366471931
8.258707425486 -135.3321469769407 -7.197560327863127
8.257544906485357 -135.20405511473447 -7.208624764998938
8.327530953521956 -135.1008998789993 -7.216941795838343
8.679465499755377 -133.42239486419422 -7.14506578500078
7.716540110836172 -137.22552789406936 -7.1931085468980385
7.744462201938404 -137.1627368869252 -7.20303525091224
8.154071340593593 -135.24793368142517 -7.205903462219986
8.213619535254427 -135.19586298055637 -7.209846008839882
8.21153151556259 -135.07142527226117 -7.220683215152798
8.2826843363525 -135.03299097402697 -7.223248890081454
8.566396956858576 -133.52062234152316 -7.142122621198168
8.630643497116202 -133.3154801004682 -7.151788769026309
7.651166413572966 -137.1930967677705 -7.1974542359521605
8.10584907833575 -135.1397342064364 -7.216012181078147
8.138797043976162 -135.06917702218578 -7.221702329621251
8.49285367384587 -133.38304406706348 -7.151106759156759
8.568619311978521 -133.16291312802497 -7.161177095392702
7.328814232017992 -138.03980985524566 -7.157705828589832
7.326825467447173 -138.01744733914785 -7.187192508019867
7.5133214334118055 -137.19163916832377 -7.1973759588175135
7.516951872234505 -137.10934705009726 -7.210327024119785
8.026306234992667 -135.1488913667967 -7.21628148134953
8.483309363587429 -133.23308477353208 -7.15928041069944
8.456460194887379 -133.10512068480486 -7.166746678815141
7.213677219838311 -138.02902670805275 -7.207983283349411
7.326949796133871 -137.76851816913072 -7.16318353032419
7.477873276797218 -137.14617465641575 -7.2046744723233624
8.243062953639825 -133.65089427664537 -7.142178889625243
8.3718269757208 -133.18696833047858 -7.164251456402644
8.422169771931438 -133.1088457147785 -7.167360937400536
7.461995749251073 -136.63555848772015 -7.189844560070554
7.422835897577158 -136.56773041202598 -7.198953539916701
7.755371140740593 -135.15913226874838 -7.219901330682465
8.389835607681492 -132.8286040842219 -7.183179561934834
8.351308753441293 -132.66224582165017 -7.192951265116277
8.404191875302102 -132.57787989833696 -7.196311362559858
7.74046117661578 -135.15674063604806 -7.22046854685688
7.733267594288226 -135.1031705130656 -7.225310146718202
7.685786492822365 -135.023641287607 -7.233378607761281
8.142305446425356 -133.41379249010598 -7.157427895112278
8.299849926009152 -132.61616797850175 -7.196717757968928
8.34830419026751 -132.41373289420272 -7.2064378102033935
7.165207822784341 -137.0406219703335 -7.186462713447779
7.486797031665226 -135.58113281015008 -7.188149634132101
8.183027046956258 -132.60093867875838 -7.200398046097463
8.246152681571408 -132.58422061046892 -7.199793216670008
8.249251182232571 -132.4246410095154 -7.208258958376021
7.1288918488808966 -136.66520481881855 -7.194092476052841
7.266733928212035 -136.1889693514389 -7.139351358078171
7.243951383153468 -136.11021581554473 -7.14708281329326
7.1461976928853 -136.24920082748417 -7.137517227492115
8.07840575282432 -132.24048458719056 -7.222565990236938
8.100882358616449 -132.16912455564318 -7.225916161127918
6.65117443122982 -137.6764648885038 -7.150260459349718
6.6715209155070285 -137.63943568868422 -7.216611982280577
7.01656163521254 -136.26081342285173 -7.14080832137262
6.4994829663539 -138.00380240286282 -7.217259367638274
6.583118124009682 -137.58413357746736 -7.234503346228702
7.186797997820603 -135.15019947178476 -7.235106397150986
7.866973870960827 -132.32647714704441 -7.223519111143446
7.875083000530684 -132.25909380352707 -7.227072444122818
6.9277674677152445 -135.56650479548355 -7.206346609075429
6.783914837844428 -135.5752779812282 -7.211097778740034
6.822074482565674 -135.3468402258638 -7.230091444395241
6.867023754934146 -135.2882731285584 -7.233609440652796
5.30365383995604 -141.1978962952847 -7.210853777754037
5.2780607874074015 -141.2050546724303 -7.214286210361596
6.942158836852967 -134.19974222825766 -7.1491995684972744
6.202539286037363 -136.59589504280163 -7.149239395485372
6.447073696010812 -135.4502384724988 -7.236824983750028
5.270144578998112 -140.16451251303877 -7.152027971499245
5.513336925718833 -139.01736202370282 -7.221132793168193
5.700548942348876 -138.17167561757304 -7.193903580810858
5.934889831053355 -137.28588200432014 -7.191979075172624
6.036555339056331 -136.79383013762128 -7.142758940745056
6.079114927738298 -136.7587021026843 -7.1429595631573655
6.130863951963232 -136.58772785126695 -7.154208899137883
4.893297268894931 -141.2240280393664 -7.157403462072593
5.11226651347561 -140.4008713822817 -7.184121092767722
5.125478600177607 -140.1792641346438 -7.172657627062972
5.145938953923483 -140.123693998797 -7.167704620471089
5.192119914415638 -140.04019992941923 -7.187053731025466
5.183823664905615 -139.95456363070454 -7.156753559139681
5.784736580189905 -137.43910912157574 -7.189976054076413
5.885317065083075 -137.1094457099518 -7.215954824162463
5.98717863041141 -136.75121483078203 -7.149514984464784
6.074662857349827 -136.55037604209627 -7.160810157678979
6.9304163811930515 -132.87166551148448 -7.22243448278675
4.808161560914273 -141.21639050532158 -7.1650731177334235
4.9208651412620625 -140.7090084620106 -7.22530965915402
4.949440651930923 -140.5913547725459 -7.215342245997947
4.96435574682967 -140.48327737716943 -7.207981574944004
5.025567609207399 -140.32043864703854 -7.192247085783499
5.082792956173101 -140.20465799939836 -7.179592224150473
5.063399784614827 -140.11010065510706 -7.178806391194211
5.107062241292611 -140.004279831865 -7.169204631375044
5.111876434106648 -139.94562931162307 -7.203343216598743
5.134910169779646 -139.7773221005037 -7.231354362047991
5.193507676362046 -139.73859563130762 -7.219730900882857
5.715721177049138 -137.4385313532205 -7.19702172955842
5.7495581505092375 -137.41066441436166 -7.196502384930977
5.778268020644341 -137.34288510665004 -7.200695801789837
5.852543119624372 -137.0132367858223 -7.137413351587393
5.934206070292313 -136.7035095846215 -7.156988833009206
6.561322193431057 -133.7509594994152 -7.187475583488533
6.790532108518387 -132.76657901281717 -7.233012496728488
6.879375825854018 -132.66530496515725 -7.235484073920866
4.853414337850767 -140.7359628886025 -7.235575820611167
4.872109661255805 -140.6738583326636 -7.183138696891417
4.876137482893918 -140.5628526472993 -7.22367743302458
4.886690501855911 -140.5059467956019 -7.219527922501066
4.929784913184189 -140.39981145127174 -7.208810169621982
4.933615998632224 -140.3069667875799 -7.204347085969364
4.97572597689813 -140.2022766718581 -7.194403411374345
4.998236068881134 -140.0789658796307 -7.18700119159984
5.0107577294384384 -139.98304650917015 -7.18238074083732
5.037094997962542 -139.93605253073406 -7.17731726418997
5.112348950327295 -139.77183850903873 -7.235293096374371
5.101545059049885 -139.7234047376864 -7.236059473769873
5.573732684470228 -137.61335494882806 -7.194869102514577
5.612093667591273 -137.57794882135443 -7.194068871421667
5.615872637499493 -137.50134327591073 -7.201172137655746
5.664759635397419 -137.4109930025494 -7.205085876141492
