ply
format ascii 1.0
element vertex 836
property float x
property float y
property float z
end_header
9.107052178901489 -129.00418679043958 -6.96004503513378
9.185385473262077 -128.9929355031433 -6.96732391872972
9.21371339309609 -128.75134032234251 -6.971637353927598
9.652193790854309 -126.61639117614938 -7.02756231322868
9.342264921590841 -127.76434135784679 -6.990801730303721
9.56631164866398 -126.53656273605084 -7.020326700258735
7.628747474357245 -134.66367693701176 -7.036872768249301
9.62665388726411 -126.06920333850096 -7.029448678110365
9.611614577055448 -125.96818833831611 -7.028804031908212
9.337130156122324 -126.7578369666436 -6.9982241907788385
9.578105245800975 -125.9512513481106 -7.026046242691314
9.556221472363537 -125.8756268425738 -7.024611486799554
9.27633611333016 -126.82373542122886 -6.992389579440257
9.38320960996656 -126.0444781751556 -7.0080350894995425
9.293633468674154 -126.15447099907469 -6.99933176219555
9.350972411533855 -126.02445398387229 -7.005483260979111
9.348824831496925 -125.61615393748225 -7.008706335171786
9.32415474027356 -125.54509507089764 -7.0070806649805375
9.344852016487177 -125.17763276471109 -7.012067997187655
9.312312313396617 -125.13188918968078 -7.0095680487878305
6.242196724246954 -138.01669306160312 -7.006565367558989
6.206776952133411 -137.95385850784325 -6.997920750463345
6.212419479635921 -137.79723592554006 -6.9773864119827795
6.21600399874117 -137.75641155970266 -6.972089165865832
9.272492075500708 -125.13368260814556 -7.006263600488587
9.23992912118353 -125.0983330381223 -7.00370206667079
9.23216687841218 -124.8908909629147 -7.004954653568201
6.154087036000259 -137.92300616935069 -6.993473742374846
6.173645087930256 -137.7191964841776 -6.967087150369749
9.113895082314832 -125.0445440693359 -6.993622873192129
9.187920665301023 -124.93694015803968 -7.000722116555287
6.050301095745416 -137.73207323099413 -6.968341321598187
6.097758165271564 -137.70840533441375 -6.965449880217247
7.3063597216880405 -132.53246207158114 -7.0333806210990835
9.037480245416681 -125.1783172273595 -6.986118212517307
9.021121457100357 -125.01477250605883 -6.986113552767091
5.426556887039574 -140.14555675361487 -6.959560289679901
8.973488649634742 -125.08924086110237 -6.981616716827766
8.953081343080036 -124.95566873425636 -6.9810331034658555
5.246351669121346 -140.25508560540663 -6.958925442352478
5.303109683810241 -140.00729709645503 -6.943094549269348
8.854319484622895 -125.1330627076422 -6.9713442545311715
8.845129710940096 -124.86425022624243 -6.973154944988729
8.935755235794007 -124.77221304157007 -6.9813822136237915
4.969498014517171 -141.0924450977396 -7.0081775717880825
5.09940705207824 -140.32585636419057 -6.957098555903206
5.194955209862458 -140.26073195848915 -6.956789529326973
5.196668725678535 -140.01790672872139 -6.938739625290486
8.737993365211883 -125.13811165732182 -6.961975340239814
8.792000939540868 -124.99111639817563 -6.96757636832626
8.727403582294302 -124.88366349121992 -6.9633641139271445
5.031706836670986 -140.391655300962 -6.958677800625933
6.582040068594452 -133.58265155227926 -7.021148692740722
8.587395316241597 -125.12710210511509 -6.950041196234115
8.68602599583515 -124.90557501877755 -6.959958932792197
6.060907048758898 -135.38433679555305 -6.988593762527162
6.071257420038993 -135.33680727456988 -6.988136386717263
6.120415014155371 -135.21482525807906 -6.985389008468354
6.139932771267346 -135.15533163110368 -6.985399837921841
6.568721328090326 -133.5751175638658 -7.0219032738866245
6.754473290766393 -132.46354884049023 -7.01255375973549
8.520543517272566 -125.02475424196487 -6.9457241417766955
8.714302301320835 -124.19305000490317 -6.9687142119462235
4.528874886184534 -141.47493010739925 -7.015320986448817
5.988962437501289 -135.41803920169073 -6.984964439362005
6.061520470341644 -135.29416817659353 -6.990516230896625
6.065248358344737 -135.24747614855136 -6.9913885270912095
6.079865660593017 -135.08422612276848 -6.99607850839511
8.442073800865371 -125.04838614569317 -6.939354691449152
8.445756355441196 -125.00463015288926 -6.939948916849821
8.626654989017247 -124.25319479196813 -6.961204571036919
8.409430006467982 -122.81478543917986 -6.958013989599523
8.208487786971755 -123.18602686721181 -6.939203955702671
8.28693121308491 -122.96982212596616 -6.947131344235795
6.045968703322548 -132.1552677657429 -7.018177332707598
5.76224284710968 -132.5663770328775 -6.989615210372932
4.46040967440449 -137.39345092681745 -6.941522922672238
4.4802552570366005 -137.3601761171882 -6.937789324225371
8.040479202924582 -122.17628583904191 -6.936364725472636
4.387068293075642 -137.3472334824355 -6.937791267376381
4.4574556746084095 -137.01945178087172 -7.019022387203751
4.3415032683753445 -137.12767142087543 -7.036482440007306
4.353908318371147 -137.0872610563346 -7.031490873632365
4.408729831463351 -137.00491064221762 -7.019919143243679
4.29353092147735 -137.00747187195805 -7.02599593645634
4.226207874671537 -137.00791099573541 -7.029430250695508
4.197438173841386 -136.9721573867119 -7.027165292988995
4.2886105707759725 -136.43139498902394 -6.970703716951676
4.319695100111333 -136.34864414600364 -6.961936990739703
4.328380460855401 -136.2521012313874 -6.953461935827681
4.2293906548903735 -136.4842769068702 -6.978516768483657
4.303283410546674 -136.1970382802961 -6.950388644784559
4.280267812819803 -136.14673383848088 -6.9476941921656366
6.095810777000478 -128.17484718963328 -7.03374913914813
4.211801266107917 -136.09582875891059 -6.947501360783241
5.846972867124575 -128.4505589691148 -7.010742449036396
5.693363991838418 -128.71979593794688 -6.993274533723441
5.661987916321081 -128.7051217528083 -6.992724480722744
5.518379884957467 -128.57579329405 -6.992472686526479
5.565800143840912 -128.54649003031236 -6.995367344017853
-7.351599135404694 -164.3961809996012 -7.030067127835732
-7.4424454900459835 -164.32105020186668 -7.021409811376392
-7.56887873901988 -164.3329766369207 -7.013051944785219
-7.664990934399954 -164.2836162793858 -7.005209166065945
-14.008890104034458 -153.767102351662 -7.019542999937023
-14.156920553559347 -154.01517958845315 -7.031105659916413
-14.067281494227894 -153.6894412898014 -7.010808326549546
-14.136292745791456 -153.62352038855803 -7.002184817708077
-14.102366741870034 -153.47128554866327 -6.992408428755448
-14.180014305192271 -153.409514968514 -6.98366679870156
-14.173666712647433 -153.27932332795748 -6.9741681927124075
-14.225572548459697 -153.19742921671806 -6.965196225273949
-14.100723347280441 -152.73914503175098 -6.936637946600471
-14.31028539062717 -153.14122754593015 -6.956731901145257
-14.27162674778515 -152.99223496313982 -6.9472223635669295
-13.373442383167434 -132.93608145018698 -6.947718553355305
-15.222222360734195 -132.17481602362528 -6.933337476844685
-20.91269036352751 -131.4032417501126 -6.988403769284789
-21.881465996281207 -131.7663573987765 -7.028898059448008
-21.935857071828963 -131.5482524169012 -7.015852704556095
-22.345961459639007 -131.06077893052577 -6.992516457669355
-22.415320221145464 -130.6201914548679 -6.96671608571178
-22.750720575348524 -130.0187531126364 -6.936958953062348
-22.772781708835026 -129.9054503709222 -6.93011769332354
15.297510356359808 -138.95138017050766 -6.864646041423343
15.137278187324856 -139.2092282094864 -6.8732884252156605
15.186179550140292 -139.12150081459288 -6.870307020318098
15.266435849661374 -138.63895441057727 -6.853612604532186
15.072380929179817 -139.13601170118955 -6.870850615472934
15.147846842380478 -139.04507678378255 -6.867898770728229
15.15067925028021 -139.01597886222834 -6.866669315741628
15.232658949605279 -138.65771903538902 -6.854471937980447
15.22277680742161 -138.33344456417592 -6.842576659291878
14.984343421791946 -139.19115817938106 -6.872285685940034
15.163349474635698 -138.45865328440956 -6.847236716638304
15.140687618620403 -138.39366849539627 -6.844630074825334
14.456695561150351 -140.87812445557327 -6.920291899032143
14.85609713802522 -139.22628449968295 -6.8734384279848575
15.088727918469791 -138.26496395415654 -6.840181938892462
14.333006272127612 -140.8970249265058 -6.919750069881123
14.43995925455279 -140.45429099487913 -6.908933086393929
14.802743037413538 -139.1733586107479 -6.87135730472699
14.498802422297782 -139.81244570484836 -6.890598538640022
14.573201886643249 -139.39813510770173 -6.878319309881297
14.6152230046008 -139.23660009871446 -6.873283657198417
14.704045341545482 -139.18960707087783 -6.87168964771436
14.826195698839719 -138.40744558558433 -6.844988155607427
14.005360141613364 -141.6834397638849 -6.936026758597226
14.494809480248446 -139.33013990583726 -6.875741229194868
14.139887164192768 -140.3911823502161 -6.905703028350379
14.47829494556289 -139.23318246164996 -6.872853584343146
13.949848101505255 -140.86122179792744 -6.916394480795167
13.994933933711287 -140.77392427721608 -6.914663305117621
13.863440533153126 -140.761530973422 -6.913636541168369
13.78267237096124 -140.80375129073101 -6.914123904734433
14.004649708584175 -139.71771949948328 -6.886032507657943
14.176141343015834 -138.40193679364017 -6.844342102056497
13.44681407414853 -141.4528475009819 -6.926249218244622
13.201113663424023 -141.71427106493053 -6.928897231840321
13.33148229492487 -141.02309380691807 -6.915534552071904
13.307390532239172 -140.8288604824971 -6.911207461359559
13.111331339758767 -141.3950495773302 -6.921505465948384
13.290701202529227 -140.84880948049508 -6.911262786396144
13.257599374814232 -140.56030233852002 -6.904252605325861
13.292978769052237 -140.45979021700887 -6.902091766825349
13.450278747771744 -139.89304124368158 -6.888601846131909
13.460207792480205 -139.85573318087702 -6.887529614948552
13.62794052915242 -139.10031318264555 -6.866460996469009
14.443581347273899 -135.52093045102905 -6.86870231685679
14.495656395376567 -135.31251049018883 -6.851917817724687
12.85593676138252 -142.15752794929466 -6.9331597236443026
12.964100537585686 -141.58851508696807 -6.924121438156543
13.045904286817816 -141.36781711462547 -6.920574576528822
13.04255846650547 -141.22093469828746 -6.917477990344724
13.20730588325955 -140.48850320186477 -6.902427329120292
14.469880555785558 -135.2806006159112 -6.848591748222254
12.674191922202986 -142.4209751170236 -6.935506632778504
13.014970744988858 -140.98572104603588 -6.91219089367757
13.175652772526867 -140.4316211594398 -6.900582267657786
13.257449364158436 -140.06668051227996 -6.892028891885054
14.268275871115872 -135.48949073700828 -6.862368442231886
14.318756722034994 -135.40318410525927 -6.856038320636137
14.328142335710849 -135.27420660953788 -6.845094918823305
14.402556405861596 -135.1927421893625 -6.839509992496398
12.522872174315138 -142.41062646600267 -6.933109155846032
12.617798870278687 -142.2609052553072 -6.932027917241029
12.59310540019187 -142.16741382558368 -6.9299300689391785
12.611971616085516 -141.99798251846457 -6.9274277898869165
12.797475285692055 -141.45485712958632 -6.919363474788857
12.835400641719335 -141.19991023527592 -6.914694118128167
13.28013878229946 -139.2663441069262 -6.870232673895892
12.730127089377122 -141.18704944803176 -6.9134549713223015
12.778041623949392 -140.90376564990757 -6.908216214268849
12.864597349712481 -140.78213418575064 -6.9063982239598785
14.134793843457274 -135.47913138513124 -6.8587359654710305
12.72427169440901 -140.8205882741211 -6.905673263389505
13.949234948284191 -135.73633123855907 -6.876620203915752
12.07843507471642 -143.1113475118814 -6.935736346527065
13.028968388249982 -138.99078726893072 -6.861262183451983
13.847868784828265 -135.5487386771065 -6.858696722037801
12.42771695823323 -141.32017553860126 -6.912796144127111
12.948419923127638 -139.19168740413284 -6.866882034315893
12.936745207645277 -138.89177070056755 -6.857991614264397
13.055616369674112 -138.77602985409368 -6.854681996692913
13.058656612975621 -138.73137081258656 -6.853282715517771
13.745755246567636 -135.68384451141154 -6.8680272219763365
12.522668277853953 -140.26452484647797 -6.891676505952903
12.704925585840604 -139.75664605693333 -6.880999029529429
12.65849400180319 -139.67037746824056 -6.878505331157628
12.912689062727193 -138.85589951452317 -6.856626301023702
12.340988814483868 -140.5891644074814 -6.897107964800794
12.943485088728302 -138.34877422062405 -6.840767978460423
10.219140537324826 -149.19277493781556 -6.936011276554791
11.916449790377952 -142.22568633155888 -6.920633449202102
12.40177396515961 -140.13194050967056 -6.887907514314168
12.604053386279567 -139.22730662420494 -6.86640334887919
12.510707189318474 -139.00478694121628 -6.859542014291505
9.957373482795614 -149.58626608691648 -6.927929983621935
9.995654899133811 -149.52866360452424 -6.929580731009521
10.590195082943566 -146.7675218244737 -6.9329795022496725
12.120530337861137 -140.5324155083129 -6.893945855649085
12.4676667352831 -138.9559318138531 -6.858162271695713
13.206170718162607 -135.8550236602083 -6.871149317093062
9.818170431483544 -149.61623064813455 -6.923215975542338
9.883287582914933 -149.57782479392165 -6.925275019347065
10.500298594790687 -146.8712166540814 -6.9303253001288825
10.522042446739672 -146.73463504045318 -6.930292368430849
11.921168059097798 -140.93736855092067 -6.899257150344037
11.864837177400993 -140.8079216068213 -6.896175338661887
12.034985512934897 -140.32772607475763 -6.888866599017794
12.14519252649061 -139.72950872710462 -6.876321216099333
12.337806189894224 -139.01439217239846 -6.859124975612674
12.962916542359773 -136.28976822795977 -6.901402744768032
13.083871178718487 -135.6523686832888 -6.851604643704519
9.774445456264367 -149.64567911225777 -6.921153926539797
11.813705146271198 -141.0205602095501 -6.899361233702245
11.979036857219892 -139.88169210713318 -6.878715053258229
12.03320543752985 -139.6898964836462 -6.874548437893352
12.040515293431005 -139.6203399003198 -6.873158534660274
12.228103704055489 -139.22109012634425 -6.864321949709092
12.796922501208819 -136.51713011607032 -6.915706340221417
12.861769144329807 -136.3944144854563 -6.907567165837374
12.909007067513322 -136.2875142416384 -6.900142504902001
12.840881565556707 -136.23061636038895 -6.89420024016233
12.959148361225195 -135.8841155568307 -6.868489078171378
13.045435098412726 -135.67406080477534 -6.852617607673452
11.364360650633547 -142.13161772403652 -6.909408674711646
11.884564416014218 -139.9878563571061 -6.879996753075732
11.96713168790453 -139.92569128525994 -6.879593062441434
12.012141702451613 -139.71088875922243 -6.874984226319491
11.961655705257446 -139.60675163220316 -6.872252507748738
10.327801152042266 -146.37303640060043 -6.921484240879435
10.613593813078452 -145.03466136783751 -6.9204575827883446
11.815896437100555 -139.84451526009272 -6.876261293631124
11.84881598197316 -139.71732409717333 -6.873911325883924
12.185988842601024 -138.4547111516499 -6.842325871465306
12.189405644121077 -138.3955104324053 -6.840352615086078
10.236364402091002 -146.16763959204576 -6.91658064409736
12.439046626123499 -136.60553333002866 -6.915051647987076
12.599158096094474 -135.95018355399344 -6.866497658114413
9.31933678944856 -149.4900429190443 -6.902458826120144
10.121117306094042 -146.23550537465945 -6.913291347880654
10.171616198821965 -146.13597438979838 -6.9143638067493365
12.556148057663307 -135.9399445261535 -6.86477771434351
12.222561341070216 -136.8098771962353 -6.925741446696943
12.248460073851192 -136.60140165064806 -6.910756164746633
12.419005593322758 -136.08782486527127 -6.874045208389723
12.3984690183803 -136.0135117507595 -6.867575548242898
12.408287446969169 -135.87219197282403 -6.856108049832968
12.468763495814546 -135.80198073045216 -6.851478353023211
12.54019974389858 -135.7295743551203 -6.846845573514105
9.316790874044216 -148.7720650535804 -6.898429755258936
11.702255373556097 -138.48237613864816 -6.8412938392330105
12.089292458445222 -136.86836918671835 -6.927172464347075
12.354065354831192 -135.9897970570586 -6.864701435891824
12.778656881152399 -134.1891694519173 -6.903969295164523
9.07775757882453 -149.40058777752083 -6.891468589921016
9.197881026793718 -148.8846077776996 -6.893695709604669
9.887850302642008 -145.95156808902388 -6.903092437787104
9.896003615115934 -145.7564303049618 -6.90229669505088
11.678364977764518 -138.42005743794104 -6.8394825806588075
12.274183528829465 -135.79760259418282 -6.84705017029705
12.728438901080946 -134.04556215289028 -6.888546735199172
9.107535986596599 -148.8661963372795 -6.8901824428488485
11.896857953007753 -136.74483559286304 -6.914102391188945
12.145912947582033 -135.8690674344403 -6.850395383471902
9.690706654194761 -145.69902755567566 -6.894457947522262
9.753296682958142 -145.67474583856216 -6.896773746785558
11.803556950939726 -136.78764290289737 -6.936301670624014
11.828227067987637 -136.61441780787302 -6.902989129981273
12.340201520564953 -134.47968019540826 -6.9041509345221215
8.67983342198187 -149.67442756710804 -6.876232262812808
9.46959431882206 -146.28359019187516 -6.8900593376526365
9.62631774527147 -145.7218217747287 -6.89251720422563
12.333275474190405 -133.99170505686777 -6.861112936549231
8.58064157208379 -149.6259983397251 -6.871591179185713
8.624880725018434 -149.58048825862775 -6.872829295744163
11.607169802713601 -136.79044243061773 -6.92927421548827
11.714233986635026 -136.55749573962302 -6.8963536369195255
11.769162196411049 -136.3747729881776 -6.883475673926944
11.80362617520067 -135.87085216329237 -6.8434755551556785
12.05985314929632 -135.0088851395246 -6.933678119998908
12.213975631893767 -134.2131258554249 -6.873715472367543
12.289399789590785 -134.03108577156038 -6.862077144801462
8.510869088793317 -149.60092848774468 -6.868134113998992
8.785678081533623 -148.33554229075273 -6.873436888066955
9.435481423439741 -145.8148324057326 -6.885773819174811
9.481920087135654 -145.6957545914802 -6.886795051774037
11.422241120755091 -137.16531024205315 -6.9374503010255
11.640711428349633 -136.49326735889088 -6.889956917429409
11.972032237776748 -134.7051940327461 -6.902704524719144
12.187945566048779 -134.113914622065 -6.863527481645808
8.429622389735457 -149.42798015135546 -6.863374864237104
9.099666066480625 -146.89616959951272 -6.878830463967483
11.297585228177113 -137.18502635048532 -6.933877509436595
11.429013559425268 -136.89567934982674 -6.926983789011328
11.389711191390642 -136.76093944891403 -6.904605383383641
11.469828990781735 -136.4428586928969 -6.882557440771674
11.482937245033202 -136.368996013564 -6.877136371311286
11.814835209903471 -135.20515414759072 -6.936554356665747
11.854250566499047 -135.0429773420279 -6.9250081526484175
11.836501812893493 -134.79496314689428 -6.902769534803038
11.888752365818235 -134.70705727249296 -6.898148677620315
11.952987791386787 -134.47540871228287 -6.881717252690202
11.993394007376518 -134.37298001110366 -6.875088609992587
12.03098644414884 -134.19959347849564 -6.862016486611861
12.056014101097976 -134.08668729524928 -6.853530309210933
9.013189119245405 -146.8273295606884 -6.874926436748742
9.141434572687176 -145.943517516347 -6.875553258646038
11.218486121454951 -137.24456418464496 -6.934075781212728
11.205586097303156 -137.1161456001409 -6.927662153492897
11.330189348589732 -136.7784721384057 -6.911517303080006
11.398803886294793 -136.5355397926516 -6.8881237582483585
11.415204827995625 -136.45782549493873 -6.882565731540353
11.478070671289007 -136.05506672628223 -6.852008716659505
11.658981589091063 -135.2816727870102 -6.934239462633163
11.703985190077683 -135.21869522567772 -6.931450951613839
11.72857079739278 -135.12846539050705 -6.925189691093542
11.743339482458023 -134.96399047170416 -6.911982902107601
11.78701839047276 -134.84248769699073 -6.90403276450919
8.771750120693564 -147.01997932132008 -6.866347580399837
9.075584629334081 -145.9557977886321 -6.873040466298477
9.067795205798394 -145.91037131968528 -6.872084518858933
11.13298550990587 -137.27174272354688 -6.932398921499439
11.14952116481113 -137.02621641825317 -6.922052596425583
11.311948160922125 -136.3764324623197 -6.874177079069004
11.284856838431711 -136.266871558649 -6.865047947246579
11.360857216366771 -136.14036834901407 -6.856516458836273
11.539808069692931 -135.36160192475128 -6.9342904028477435
11.66481663840859 -135.05947476880087 -6.915724144169682
11.67489669209058 -134.8756580371622 -6.900549001874218
8.294119230804968 -148.71291518810935 -6.853620899176315
8.71895793075553 -147.07085787542042 -6.864165682643321
8.99865096876224 -145.92477105427108 -6.8697561418236095
10.95919343662126 -137.38523529297856 -6.931991366327196
10.996080563056633 -137.34518030124627 -6.931347543388477
11.062527505729538 -136.96296010424595 -6.916386739719216
11.104368945346867 -136.89023735093008 -6.91500945221021
11.085711199700379 -136.77742698088412 -6.905597983198629
11.085834496226692 -136.74478718365242 -6.89698779918136
11.17347095157327 -136.62192840071157 -6.889882784791839
11.274863032039386 -136.26594740924912 -6.864781940395221
11.289788044564089 -136.13967901730882 -6.8549943295719835
11.554335295098975 -135.0510199727011 -6.908750674384219
11.527588711898288 -134.9783623689003 -6.901026444418608
11.662758385611614 -134.56677899130148 -6.873108346020488
12.036321137471706 -132.8882650689536 -6.937984586462876
8.185978230661659 -148.79472498749527 -6.849290027337783
8.247031095885012 -148.68550660765854 -6.851779320857774
8.600095518097607 -147.0283884005808 -6.8588411428288865
10.84560012165324 -137.56911896453548 -6.9366941273139044
10.976920355415068 -137.11296927798526 -6.919601033849434
11.062438944482876 -136.7654829133225 -6.908523683573283
11.214140013224224 -136.11376500886138 -6.851358154687519
11.520625614616982 -134.8031353628168 -6.8855388669584725
11.548952434827289 -134.6871865630687 -6.877081800160252
11.979949767410936 -132.76405165139164 -6.924491226935464
12.037100094822723 -132.2668667066574 -6.895390948823388
12.139259501452887 -131.9860178007273 -6.885114477540466
12.164505363731628 -131.81802730888984 -6.875961243419426
8.036813784310938 -148.87112785876892 -6.842549925425198
8.528354244935882 -147.0880996930593 -6.856033546207806
10.914943353464082 -136.85765836548637 -6.906850113219958
11.37448272928988 -134.73354460824982 -6.871177882301971
11.46573848025034 -134.48577938276387 -6.854703921644694
11.708957256308445 -133.16616203106415 -6.928709113398825
11.840799964923193 -133.00667970574685 -6.92917000471888
11.911957459093736 -132.34826508659253 -6.890092275902791
10.613839989653531 -137.5010232655537 -6.925627274274108
11.301107290094961 -134.62851694034998 -6.857774019906507
11.773410035615761 -132.5681682475583 -6.893099319939993
12.021289006482563 -131.5031452975878 -6.842732113817618
10.466326174165605 -137.7788258145785 -6.933642414468134
11.261521363622995 -134.5415028979388 -6.847868189810033
11.43238789867307 -133.55586137706547 -6.931756591841802
11.669264775113941 -132.69152999208802 -6.892536244668083
11.659021251742896 -132.64026252482415 -6.888172345290977
11.955880951613562 -131.60132021887713 -6.843755435551549
10.282739629274303 -137.96267977352852 -6.935925053917902
10.528467499834889 -137.19218464440723 -6.9082625882909
10.837792006836253 -135.7249880341271 -6.925427282860867
11.555825886389458 -132.53648825598117 -6.872241035210958
11.571000252104394 -132.44876187362868 -6.867579749423043
11.632560845102818 -132.209864198042 -6.856828656248699
10.26743470020171 -137.82914463681686 -6.929325111389837
10.260640484432376 -137.73247547432172 -6.924483191218998
10.335289920421591 -137.5861901640118 -6.920289888946654
10.408559608909272 -137.191346624314 -6.9041657783711905
10.474300145627614 -136.76701369509328 -6.88729385301096
10.476128519932988 -136.6980763005055 -6.884605537788178
10.756589001072191 -135.71782494100214 -6.920294794810189
10.746540356028074 -135.57568001106287 -6.907809055595747
10.136299331265455 -138.08207484287774 -6.936391559377951
10.1649149190868 -137.8135992236822 -6.925099432983831
10.291120083262808 -137.38160841544862 -6.909076234861584
10.28488798834649 -137.2080334218082 -6.900768321203298
10.334322653715956 -137.17241645286552 -6.900664408596586
10.440148290572145 -136.71661412619338 -6.8840432597976955
10.456198675267542 -136.70480610663324 -6.8841509325198595
10.70527681346959 -135.604921762045 -6.9079505778538355
10.78439053849279 -135.2471036570583 -6.882006205210685
10.75146353888748 -135.2092316934983 -6.87688837762766
11.415570248784135 -132.56619868455164 -6.862205180076204
10.165352556313309 -137.16746715422138 -6.8947133227495305
10.711782989150345 -134.95863889333884 -6.852921212590621
10.87248731623315 -134.26994302634947 -6.933128160465502
10.862477700611876 -134.22576722464387 -6.929064700780284
10.892089379642137 -134.11720317198308 -6.923908646338465
9.86058985268473 -138.2266240888341 -6.933425860877913
10.14134405068475 -137.16766148489128 -6.893999284584481
10.832525698912546 -134.1382372595394 -6.920118867677014
11.1540561806293 -132.59813229775392 -6.8419442375266915
10.557407501374122 -134.94498851417964 -6.842874016393576
10.77799398877298 -133.87558251292575 -6.896743158393854
9.793769450704456 -137.45076411651772 -6.895556620212248
10.401257873041148 -134.79433815403547 -6.929314606499909
10.483615437045245 -134.72009519432459 -6.931228634315145
10.727233559840586 -133.67963562877225 -6.878662411601871
9.750104346662397 -137.4338599122333 -6.893189051575436
9.758369858349488 -137.3200491363554 -6.888183002376167
10.275864782059239 -135.31236319348025 -6.858812831757451
10.280380248958831 -134.8666354846711 -6.9238213494474525
10.36840999182438 -134.60083482730298 -6.9121964673048355
10.537869922363901 -134.11640380269026 -6.89255024350766
10.532645271142963 -133.87646576282836 -6.875303760249347
10.62255595458217 -133.77648832842016 -6.8762170090505395
9.546958540124205 -137.67103049701464 -6.897336876951506
9.77482299494323 -136.7091883416775 -6.859787496725268
9.813927180820368 -136.48892937300252 -6.931554256995951
9.829895417410269 -136.42442925945525 -6.898139103597568
10.236929210368611 -134.8915720242058 -6.921768274762254
10.23714755993688 -134.60595549448487 -6.900876170223967
10.32011208083026 -134.62057592282207 -6.909315532833434
10.325803626063767 -134.32548331026393 -6.888658264567107
10.508758404060238 -133.81530809730788 -6.86900658696086
12.100154773157703 -126.70480243950783 -6.908086062644706
9.75959318754308 -136.55641193588713 -6.931447395085225
9.77339599711734 -136.45267569532564 -6.926215255102253
9.783633998967817 -136.3978025451145 -6.900087805688447
10.026154606798961 -135.30868642422152 -6.889510956160836
10.046939225284031 -135.26248713203904 -6.932536478271758
10.111439932183245 -134.94851097252266 -6.914707760769406
10.208361430596725 -134.47701832980638 -6.889058516768444
10.288557573043992 -134.2363768261063 -6.879073221862598
10.353602669286635 -134.04114433749263 -6.871109669323235
11.083816125642606 -130.65772926225154 -6.936401056566378
11.11270977579786 -130.54911418974075 -6.935625993571089
9.18276946524981 -138.49749444306576 -6.921232658315083
9.945036765778125 -135.16720487911772 -6.916093550339493
9.967934944682998 -135.14891503581777 -6.916778227711753
10.104656531555293 -134.5995038712678 -6.888623242534385
10.942393925626996 -131.0698468153907 -6.9363882312808265
11.041942125794364 -130.53624811485105 -6.928101843012522
11.057334218122472 -130.42576116199345 -6.925917190658012
11.880000649413397 -126.8438351722098 -6.89160574918752
11.96893103653398 -126.38728476293352 -6.886214248613161
12.086680000522968 -125.84847837521122 -6.8808770113373505
12.142530379636263 -125.62182898165183 -6.879407137913638
9.090223144685673 -138.48349551646893 -6.917318857665578
9.141027203104617 -138.16833784059276 -6.9054391528224395
9.922120129718156 -134.75097452997875 -6.883308789405599
9.988402371388874 -134.7018162625107 -6.885668099540926
10.069949995739002 -134.11533650329326 -6.851512054807897
10.156937307945894 -133.82824347657328 -6.839372950028427
10.896464934264625 -130.5199116182244 -6.913084210164799
10.935872215357351 -130.33876855647955 -6.911018866902208
11.644923418282954 -127.42713059605424 -6.887380604579187
11.961427905460027 -126.31590114894863 -6.8832503527836915
11.94378805891987 -126.26419310577603 -6.880173801109826
12.05792676081795 -125.71809112990002 -6.874319662830634
12.03771440574215 -125.66582599606004 -6.8710267610870615
8.955471796938099 -138.41811840573845 -6.909425478744305
8.971697603139601 -138.3267749825865 -6.906146822725951
10.042720111122739 -134.10256701630928 -6.848258690462488
10.764287113298924 -130.84415831428757 -6.910735453639707
10.8400812045797 -130.67730409354417 -6.912753909010045
11.985428000210575 -125.69355757604073 -6.866907932803738
11.97416664107293 -125.61931885084063 -6.863803428000091
8.949040477066545 -138.307868095192 -6.904375894054818
9.830342708754152 -134.4877230233492 -6.8564726223106165
10.036495678727444 -133.46451983540075 -6.930620945991153
10.725576684302295 -130.63744734154096 -6.90009327853046
10.723550102627826 -130.5762966159114 -6.89786270833905
10.751832683046171 -130.34440047002366 -6.893104132465696
10.758853386141919 -130.23419226372184 -6.89024016480753
10.837397468025785 -130.03792334101638 -6.891641365872074
11.36681133751352 -127.7985634967762 -6.872473313052618
11.754433241025808 -125.94595492080457 -6.853256616399131
11.851223693068206 -125.71229765215993 -6.855138477400372
9.862213638553374 -134.0082856979237 -6.9344750355432625
9.824413524119532 -133.77322567838533 -6.920182568457017
10.520560546359281 -130.8909736897748 -6.8882763261358315
10.700082068718533 -130.39120583074137 -6.889636432890974
11.750382399447151 -125.75638775647812 -6.847333303954716
11.783750024119392 -125.57366483962014 -6.844919015126061
11.795356756793872 -125.43620392394683 -6.8420947032088835
9.550161762431932 -134.72240388869255 -6.890348389354765
9.729893360007653 -133.96106362447773 -6.917675447607223
10.464334594883725 -130.92815691994042 -6.88395357675913
10.606394385052848 -130.32946805878709 -6.878527294480255
10.613802770679184 -130.19126575732136 -6.874906382561397
10.597086495647616 -130.14898911189056 -6.87194190799933
11.734165121959691 -125.48089779192114 -6.837706746818482
8.335466534066018 -139.21095369900763 -6.917669096650699
9.80283568387506 -133.13011349411596 -6.892739696762752
10.49771184667237 -130.19528022648836 -6.86396576024819
10.540034663778956 -130.11030481191088 -6.8652916414773175
10.544230906419493 -129.88649152629466 -6.85884155961614
10.643844165809483 -129.7902456258275 -6.865312088693466
8.299780085625626 -139.25838974346095 -6.918068162314851
8.967978722417135 -136.21613591611967 -6.910540008901066
10.159619049037444 -131.14061070138675 -6.86121166532982
10.113508450968798 -131.06073400216275 -6.854270953001339
9.341288074699932 -133.63540274103622 -6.863213282312365
8.854232172687734 -134.91105991169516 -6.861297727696629
8.791107023457487 -134.9009840817129 -6.913325320075907
9.000072571314114 -133.58465676856224 -6.927875423142712
8.51655461602345 -134.9531906976633 -6.877430890349288
8.94385336459375 -133.35274639432208 -6.921183032688312
9.047773513192404 -132.02662871671296 -6.93544620333748
8.629077715967439 -133.0464597201244 -6.888435459318398
8.90382323231373 -130.98402785530868 -6.927140742534332
6.234302127295264 -138.09650672121217 -6.8455190372669
6.254978568891008 -138.02991618126225 -6.883346255736208
6.263132409771282 -137.98108319745654 -6.838338186706008
6.245777051693237 -137.99474265732508 -6.920873921386232
6.232613155662138 -137.9376272176594 -6.90643004428647
6.2221428067481215 -137.82003560607785 -6.9021699736187525
6.201670282199665 -137.7719574086604 -6.896678407618631
6.162570827720815 -137.73604719615383 -6.891969260729716
6.0398704638987075 -137.74140326703707 -6.889322094996323
6.090243639260473 -137.72063650071638 -6.8885031963773535
5.243652804159044 -139.86532451257628 -6.929563715041783
5.298613819122438 -139.8051982296443 -6.927829197360941
5.152835552007339 -139.93667496010187 -6.93050615342198
5.148510091740013 -139.8412115663205 -6.92310157764222
8.07558110109727 -127.50466264182197 -6.887706188230449
5.001093337647843 -140.10041000200533 -6.9353963296477765
5.079867165743329 -139.8897065586238 -6.923373689054192
6.06283889435944 -135.39958297251457 -6.8938868665387805
6.090278703732702 -135.32588212648196 -6.895467719744559
6.127224198197615 -135.23346356353227 -6.893895836989426
6.14845318806819 -135.15206138082704 -6.89407020792788
6.005937681172414 -135.42428054768558 -6.9072701432965316
6.057911768150893 -135.3336749597411 -6.92982285079425
6.0812874156772185 -135.24117849743212 -6.928544861788922
8.329405249712094 -125.01804184955365 -6.930794719435674
8.368929388993303 -124.99073478666229 -6.934215933798348
8.13912290374325 -123.23680604656226 -6.93357479624688
7.772769857460601 -124.19195469147424 -6.89737672293133
8.077375126012193 -123.09416280177058 -6.930281925097053
7.732829020203311 -124.081371854079 -6.895444259433592
4.506671547634808 -137.33012622993218 -6.934326835018095
7.987283633570708 -122.35264478478612 -6.930885992658943
4.386180132531649 -137.29055777213307 -6.932029171907835
4.414681327384811 -137.19900495179965 -6.922392774376002
4.433810110404032 -137.04782362682863 -6.907226220030437
7.919407904350199 -122.26877025496016 -6.926660694471561
4.3889677347553855 -137.14627365838263 -6.917561046769579
4.363089196667444 -137.10601045395677 -6.914018364114223
4.382322731246647 -137.0217666417497 -6.905547726883671
7.521120617858466 -123.52846337709394 -6.88590840918084
7.851876630161955 -122.18920834942386 -6.922449375404129
4.262190398177083 -136.98146755329412 -6.903715460009862
4.229472686248902 -136.99828611349372 -6.905839397382713
4.2148063290961755 -136.92132901174895 -6.8988769581544735
4.288570474780274 -136.42807089660513 -6.85405554359498
4.3273998892372365 -136.35012107206677 -6.8469165942308505
4.34215695508555 -136.26454593788011 -6.839760657465667
7.708213179725354 -121.95706463903018 -6.91450900865501
4.215552173788775 -136.48242012015263 -6.859984442891988
7.586034321845752 -121.91146650694819 -6.906184819307136
7.659956218132182 -121.80470795164774 -6.912391505950861
7.463008449649255 -121.8928780414314 -6.897629266183522
7.3862147587219695 -121.66369076371599 -6.8945919413854915
7.2865417245318005 -121.54932378511336 -6.888822522360868
7.208352512006834 -121.4310209195906 -6.884691068499592
7.057812116295639 -121.45760764946883 -6.874051282002004
7.126775406079603 -121.3042759849549 -6.880282973474122
6.961351575189974 -121.53141316042235 -6.866871050768627
7.006070055130638 -121.4154890434974 -6.871147953667102
6.899717064911584 -121.28987078144148 -6.865270398554634
6.8481683833293525 -121.26230370753481 -6.861951378518589
6.748995204406154 -121.34163212153632 -6.85466054941983
6.78787117343151 -121.10916208833049 -6.859622653270134
6.689174636771129 -121.21888225468962 -6.852097486426445
6.606790065740886 -120.74106498164983 -6.8511472010738546
6.508656484433695 -120.82177351490151 -6.8440531917450285
6.557093137680571 -120.7903740528347 -6.847642214349143
6.4156270499861385 -120.99506499801598 -6.83645770190051
6.456448798782587 -120.83552868344408 -6.840754687074292
5.364796446329425 -111.79708175476188 -6.857137190655224
5.4860561756525 -111.25241229272368 -6.8698379498993365
5.4080110462701985 -111.34743688460816 -6.864349542602712
-1.5717889440910433 -134.63925710244217 -6.8395505960687
-1.9241637170017931 -134.55015071814037 -6.840167412098238
-13.784986549634725 -152.37853198912651 -6.924983572167521
-13.727383812450979 -151.76230366150688 -6.88091616344653
-14.152447639416446 -152.53968870194717 -6.918792998518703
-14.249753245359022 -152.497194208305 -6.910548326127618
-14.230889509474627 -152.36575306699646 -6.901543100924295
-14.239466112792178 -152.2571710914371 -6.892743344777634
-14.292079188596238 -152.06107170035165 -6.875098870741784
-14.194594170754597 -151.87226813528514 -6.865662829190439
-14.13746858122474 -151.7158020785745 -6.856536800243146
-14.154348454184126 -151.61345520981712 -6.847907307031306
-14.21183930972135 -151.5431506604656 -6.839570493347734
-12.497278243510442 -131.70359144815671 -6.856585297780454
-14.7244679497016 -131.6997165478105 -6.895284883923849
-17.42763243030827 -142.0274355462843 -6.846757436448075
-17.37176986675987 -141.8366175845176 -6.831578407516327
-15.194731032740906 -132.0978279667128 -6.92775388106733
-15.218225296619584 -132.01206271825137 -6.923288508372226
-17.629087227434077 -141.98379350841427 -6.839430799764809
-15.309200094791317 -131.83014206502781 -6.913858194419143
-15.306019712628038 -131.7478878534766 -6.908473457900996
-21.838037106020806 -129.5656857769722 -6.894450532998544
-22.03748489025518 -129.19706118881467 -6.876208282713475
-22.286849518824518 -128.59334054832982 -6.84690701223019
-22.725818452097542 -129.69786852813291 -6.91705686627943
-22.91430978407901 -129.76905592165687 -6.925028395087828
-22.973389167782877 -129.5348540686282 -6.912330680903997
-23.15296558275459 -129.05010738139856 -6.887393333541158
-23.365619055053656 -128.78093180243187 -6.87564355862417
-23.47433720270461 -128.6414686353966 -6.86905976483614
-23.52348188619908 -128.51249180236337 -6.86316658958179
-23.6071226328838 -128.37482482471813 -6.856337921199425
-23.778621650375527 -128.1046548843389 -6.844145183802788
-23.786321486315728 -127.9894834659722 -6.838436493259536
-23.81986412376694 -127.86405433211698 -6.831556192302257
15.603759901648822 -137.6102993010529 -6.769798225842188
15.52591974239882 -137.62338149467124 -6.77169976458047
15.52147060485783 -137.53853860248927 -6.766203895276737
15.283035492528523 -138.12058684790395 -6.836402442465003
15.311735396454607 -137.98592617693583 -6.832347095163056
15.419444039197602 -137.8981452939893 -6.8298811543158635
15.420180982369398 -137.5474558936307 -6.768155815110586
15.470468056637893 -137.36260282757678 -6.75522865533761
15.214982329230235 -138.07310123070062 -6.8347739277482855
15.23011790008362 -137.8817473879366 -6.828950903301454
15.292184157541461 -137.697915551975 -6.823271134270294
15.114889388549594 -138.17399047613955 -6.837560216916888
15.25665668846542 -137.66284240773035 -6.822103087387401
15.270119072358117 -137.62863835945453 -6.775343583431134
15.297600194668295 -137.49209797109535 -6.816644411763768
15.10495191620961 -137.71202881353202 -6.82330861177251
15.164159728742472 -137.61653833108792 -6.820389966736112
15.144849130930087 -137.5426542732675 -6.8065926739074145
14.98614467858153 -137.7420568963768 -6.824009277768836
14.816653298072051 -137.5190053740458 -6.816540000139899
15.228550427198044 -134.40802847933753 -6.786831827702947
15.097623413378287 -134.46471878338875 -6.789119663322094
15.110862521406686 -134.27180845311852 -6.771642013080568
15.000130817756192 -134.08168353084744 -6.7513524766560185
14.776455850862604 -134.89286722099337 -6.820934445636493
15.668313051355938 -130.9413688164401 -6.783749532844432
14.65585157824578 -134.887242583727 -6.817893501627354
14.687463435330297 -134.75718300992062 -6.806833843861261
14.639119720497906 -134.51222332614358 -6.783423946420208
14.679759756479847 -134.06452533645933 -6.742463871500876
14.772746407593388 -134.01163610667072 -6.739504542977799
13.608642866251548 -138.12853650722573 -6.833894725145838
13.65787789973109 -137.61659656732098 -6.816974519528896
13.320014270722954 -138.16429179387637 -6.834859619520518
13.51045362408476 -137.51394936703167 -6.813465529760868
14.259398115596891 -134.2095504318985 -6.74663111641159
13.169481660582212 -138.08683824757946 -6.832150337837762
13.861669715809752 -135.11190249328186 -6.820944764234785
13.287117194982152 -137.29040641273883 -6.805920706084675
13.715872059302198 -135.21925458281157 -6.827343615178145
13.296909779227757 -136.811860299747 -6.747112743559365
13.563976949876754 -135.13712488591085 -6.816797957798275
13.031908875304538 -136.702871836823 -6.743079308491328
14.30285084497675 -131.64778056023792 -6.7672402189310965
12.88158403086997 -137.01968895311745 -6.76695454808027
13.02398621424069 -136.68321857853127 -6.741808120292803
12.802639874872103 -136.97395164008242 -6.779693329818039
13.143077687799668 -134.98709457571113 -6.79425042635666
12.395551573360214 -137.7864715599504 -6.820583644916466
12.476967340318392 -137.47731408988744 -6.809761949117169
12.610611682243952 -136.91892366555905 -6.763876169317033
12.589700470434083 -136.87227847297333 -6.760997738209254
12.368375643138334 -137.42809937359772 -6.808002195862986
12.287968125190327 -137.35195220230102 -6.805502606901089
12.305872410821486 -137.3396226362803 -6.805170100810731
12.319882744265357 -136.89031252169949 -6.778687098083348
12.421269047214608 -136.60152620672457 -6.744365348401357
12.79522517681912 -134.81327496764916 -6.770534920486083
12.25777133219487 -136.89936233450584 -6.791073188823318
12.201410694879602 -136.6422591019868 -6.750359927761676
13.114858553322183 -132.594957440791 -6.7825328747301
11.667369935529443 -138.29260244796737 -6.835758962151899
11.988354068434482 -136.8031617509728 -6.787328258837683
12.358560074684313 -135.4796112646816 -6.821488122390455
11.552988389218179 -138.25778878316146 -6.834243640796622
12.272819783935066 -135.35983678079464 -6.809076582314189
13.025215035820992 -132.3044579592312 -6.751236250444746
11.502336843098128 -138.07232806900882 -6.828468629145013
12.10236140570472 -135.46455025579567 -6.814715077724512
12.208286227898373 -135.38678935286688 -6.810081306481915
12.630406714556813 -133.18548401184034 -6.8069741408928905
12.846604988496118 -132.5857378716732 -6.765993630796061
12.827029763526319 -132.52089677134333 -6.759077233832683
12.877662192573627 -132.35185211237817 -6.746829324530829
13.885241447035694 -127.9471019024141 -6.766354290199334
11.443224235164786 -138.118441548757 -6.829629902473051
11.548332084197668 -137.3728765053599 -6.805181201589845
12.058005180133936 -135.17096134592933 -6.787378401447604
11.359548492664981 -137.7484703107022 -6.817764220707034
12.045493789640556 -135.18963283381754 -6.78879273197619
12.034509467858774 -134.8529710059505 -6.75716403457872
12.436930284537759 -133.20719272731642 -6.797657287560928
11.321290204914563 -137.7164557093214 -6.8167598773793445
11.871468046450099 -135.30107227240947 -6.795173117728813
12.337943304576603 -133.15569271831225 -6.787261427173621
13.470724296332815 -128.26478174427442 -6.752563094982174
11.263134602069428 -137.33579928846976 -6.803606460747761
11.903590719502034 -134.6957750296342 -6.7390248898639
12.291586065757347 -133.20629307810472 -6.789107631898703
12.342591190745253 -132.66938879590796 -6.74395590254138
11.65112221668404 -135.2330896110128 -6.784157011844162
11.71767110353596 -135.0774458922696 -6.771184587345596
11.692806398556467 -135.03814122301912 -6.766949942696224
11.72626313516588 -134.84559764735334 -6.749382406751777
12.14001231839117 -133.34196705565915 -6.792382484204188
12.237715478579393 -132.78055052222618 -6.747806567385286
12.970959472948621 -129.73865907101305 -6.806681173446086
11.054017317623527 -137.45520236264554 -6.8075485159625435
11.116478437033537 -137.14774532718044 -6.796660947067423
11.441881373550672 -135.61132346827924 -6.8136454435910085
11.592588786412511 -135.31700728371004 -6.790559032956476
11.644131601957866 -135.16855009086885 -6.7780508441716085
11.615957751000222 -135.0287465648439 -6.764330301202056
11.848952076503075 -133.99340516152614 -6.833351568122638
12.86901476796136 -129.77043856327208 -6.800230225572722
10.950692932327216 -137.30653487110212 -6.802258144855427
11.17572566069056 -136.6323938591769 -6.763856677403584
11.522742645512674 -135.02478592563892 -6.761823345899851
12.917705893881417 -128.89769619162814 -6.747660304183544
10.874862699963055 -137.55847319900676 -6.810567623955793
12.53296204990512 -130.2142903770403 -6.801020040945019
12.570832911355048 -130.04532540111416 -6.793243352430834
10.624186563364937 -138.13367487910577 -6.826663855860115
11.438664654536773 -134.3086281070236 -6.837545593922348
11.68457162437187 -133.6363402325724 -6.792087043028571
12.473079693264978 -130.12290229713636 -6.790066785222774
7.947327969134356 -148.8380595448187 -6.838191957360814
10.521592218268319 -138.08909436840676 -6.82505889097815
11.419968230818888 -134.10490118656583 -6.8184291036631555
11.508805538344529 -133.7050410255296 -6.787970974927135
11.519210895119889 -133.5668995473503 -6.776246551408998
12.135645804220747 -131.25279394777425 -6.835827450610618
12.41830692226986 -130.10668594227 -6.78444620862307
7.815919705608384 -148.94130195520557 -6.832911631573254
7.90326176371617 -148.83730555680597 -6.83655878495945
11.21294600582771 -134.38286678909807 -6.831078440102242
11.294957727668049 -134.30505614861394 -6.828925450191603
11.343262866477513 -134.19360236609765 -6.8218590564065105
11.327292459913375 -134.05522539456112 -6.808628349130515
11.92397717967589 -131.380791390162 -6.826454729423145
12.02667252335485 -130.96020823364512 -6.807390209055802
12.072689904482978 -130.8704413145213 -6.805430100659435
12.296034001060484 -130.12928045722438 -6.775802787057722
7.640321597851076 -149.04144994103228 -6.824956360063485
7.682321942176782 -148.59511809046586 -6.824348726700518
7.72588790947594 -148.58867851584043 -6.826869639500264
11.04128920001833 -134.27109230967727 -6.811223397200068
11.757596262852573 -131.33856949452166 -6.809610423982401
7.551636160898849 -149.0116180551354 -6.820478927465822
7.595951749521983 -148.7475898457129 -6.82090076106869
8.007578884098088 -146.97492534165133 -6.832195659910943
8.035363465998556 -146.76156192257443 -6.832020774599224
10.714839698871302 -135.5475926599579 -6.792459525205347
10.711005756943177 -135.53162488925054 -6.790934351579678
10.980916408970689 -134.09659660488603 -6.792172027806122
11.567076043100133 -131.58653613793655 -6.809927359786278
7.50772199638989 -148.81145295317177 -6.816880036555903
10.730157543158802 -135.02667767536383 -6.743626763540397
10.91510269485948 -134.2643160973532 -6.803309435029343
10.917034458126558 -134.15777387998673 -6.7939042882689575
11.338581795123384 -132.2620218525548 -6.835222685287586
7.443154433342603 -148.58095439770983 -6.812777674023308
10.739235141010969 -134.3183081721027 -6.797873447304095
10.744827931424789 -134.2936500093563 -6.796006342757838
11.43799314253075 -131.45206463827435 -6.790248622629008
11.582195719037871 -130.99782213147648 -6.77271672127177
7.333685470382893 -148.5833553017312 -6.807100959246929
7.37924399275547 -148.4641499692005 -6.809233894732656
10.64421361500849 -134.44018040492276 -6.80322350441101
11.079071476886007 -132.57497595176974 -6.8340418642536065
11.15520289380719 -132.26897623984553 -6.820175050873317
11.352793281914684 -131.39279484283173 -6.779325199669077
7.097165581322857 -149.1550285659739 -6.798359247921971
7.277639254480409 -148.24707554389468 -6.802842175221643
10.647224831714553 -133.73420522004324 -6.739957121764835
11.002316552127649 -132.34280534967442 -6.812108025118994
11.328394052319279 -131.18577955615646 -6.763819270133674
6.275016903403674 -151.97472610055442 -6.768389210062424
7.175284705344529 -148.20515348108248 -6.797251221599961
7.2187611004216485 -148.1665015630218 -6.799697331396119
9.73891839038677 -137.36690074472125 -6.801369000656641
9.745084194484058 -137.36058823509717 -6.801301168229707
10.363901498461923 -134.61579474882308 -6.802570431979883
10.548401871265748 -134.08898604375594 -6.766155220599924
10.507576319155358 -133.95110674688254 -6.751332909345497
10.534380951930055 -133.94714034450192 -6.752537397773415
10.547947074240133 -133.78569035530117 -6.738741304489036
10.966117201271674 -132.31809100157585 -6.80744688941364
7.095201316210909 -148.078154503969 -6.792484935275994
9.615091907597726 -137.43084259278677 -6.802599181554364
9.69345723373028 -137.34933246654512 -6.800770881357806
10.304259337211377 -134.635689823171 -6.80086522014407
10.37732198754544 -134.2180504103758 -6.767726448975915
10.972075805249782 -131.71410416233834 -6.768496125835438
7.066072693045627 -147.78071331452605 -6.7898862968480955
9.73962172300192 -136.70578486051687 -6.779579333832709
