ply
format ascii 1.0
element vertex 836
property float x
property float y
property float z
end_header
54.33709236821037 -215.65376468289676 -4.111565529944232
55.04294948236504 -212.32835169480398 -4.072001942884662
52.07179892810315 -225.160604724784 -4.077915878454833
52.86122112552016 -222.02315294604452 -4.120471318443562
53.45997096555983 -219.31623355730926 -4.0724261546348615
53.47431169405928 -219.27112576105222 -4.082205660330744
53.58713683310672 -218.51891984586894 -4.089812402540105
53.607977545376194 -218.47903014208245 -4.0758919861733975
53.72603399323911 -217.9775874033782 -4.122097537833282
54.11849848897834 -216.3165710248757 -4.06407139861493
54.24660904108906 -215.7269266855375 -4.108190638423201
52.05353042177244 -225.16024568010712 -4.079023576925614
52.68079077016649 -222.03483991207244 -4.082328560586247
52.701081352553445 -221.8628256816897 -4.098922143586912
53.5542279529836 -218.32632962728866 -4.077293757827164
53.67229361351064 -217.61266042213052 -4.076541151932444
53.78613089556673 -217.26472995804596 -4.112679938975541
54.78532166794098 -212.76072782511514 -4.059836754228729
54.8463703192409 -212.5005991478544 -4.070009356468317
52.68849881869996 -221.86348374528853 -4.059189904024342
52.85496115123184 -221.10280707518402 -4.0735050107478985
53.50962230402323 -218.1487188667516 -4.106691168636823
54.629792133840255 -212.93968811189134 -4.056456474088182
54.78148414575253 -212.0981036970284 -4.090644588367514
54.845108155206525 -212.0613906223254 -4.090354599807775
50.42023223050606 -231.2397246357377 -4.100199074212416
53.799500377201035 -216.26359082317026 -4.07920313610099
54.59052451900005 -212.55800121997422 -4.075367047568506
54.62954435692632 -212.4434049487125 -4.079463845763666
54.739640234142904 -212.2059718008677 -4.086930416594349
50.39851063834126 -231.1846868279945 -4.100205962898142
53.306228394197554 -218.1206346932464 -4.12365817527877
53.33703832359025 -217.66899434503523 -4.0865317167793
53.4176385839079 -217.29811580591326 -4.1251649803067085
54.43388468954123 -212.76469921356818 -4.070915652293828
54.52112069099575 -212.7039759530301 -4.070841498697153
54.747102529997754 -211.59175837133571 -4.115146810247118
52.28510188792851 -222.20434872157338 -4.080749063375834
52.29477373543649 -222.18128976219418 -4.077362401257651
54.58697181603112 -211.65466698580047 -4.117432669569057
50.43347828110712 -229.72141034877143 -4.071880985469051
51.70865568336342 -224.38607237197778 -4.064090231411661
52.6373218070819 -220.02789587726693 -4.111550106568465
52.603509260544655 -219.99908214990904 -4.12391662531355
52.77567910538909 -219.547133024105 -4.090068535671881
53.18900421677234 -217.49092396181686 -4.115689583867446
50.35676673219733 -229.6836250025472 -4.075245523764437
52.583596681328316 -220.01791537925124 -4.127705083098191
52.525441334191896 -219.9344912061763 -4.0991196427664605
52.88558449520693 -218.26272375125566 -4.050691768485875
53.08279687760842 -217.67742770201224 -4.101150880667837
50.32227450456969 -229.58839825464452 -4.075350131787259
52.43431243742775 -219.88443518412012 -4.125927046329818
52.54518815811315 -219.51967154767942 -4.082978938507967
53.23560821394045 -216.5588861180738 -4.079205486531822
52.26899056189983 -220.10123108113595 -4.092433667028369
53.091486776995545 -216.37224577191085 -4.1014295244960985
51.16656558726833 -224.34752924049673 -4.102185063726638
52.406310775595315 -218.8671946682767 -4.114105609867971
50.75733661512487 -224.16292306754588 -4.12621863972503
50.72725083844288 -224.11045699285788 -4.126435988605889
50.70222366869326 -224.07746002586612 -4.127117501994752
52.95335408278842 -214.16237077989493 -4.061675673650368
48.527594964742825 -226.35060067276927 -4.12185761201628
48.54634409945463 -225.61278023273306 -4.1105337460657925
48.420278509367684 -225.12247999087106 -4.111630855444171
48.214849850353225 -225.4336204699012 -4.127893706378342
48.351677086777286 -225.11608688341224 -4.115672791870866
48.36163808874065 -225.05986883547268 -4.11441168977108
48.38701507830648 -224.99067726876 -4.112062543124321
48.195142200814686 -225.41739957287723 -4.128948244309072
47.23983335289908 -223.99401593949716 -4.102276142975508
47.16058332300268 -223.97841220391132 -4.105622478511767
46.896146089884944 -223.92051275832947 -4.116715313033596
52.3900942374355 -198.65707293587204 -4.038439064348649
52.304915333538744 -198.51846152152973 -4.0431068861302455
52.23031727265655 -198.6079140290914 -4.045008315823683
51.62613627455591 -200.07536556247703 -4.050791517774014
51.544985418878255 -199.9916692514056 -4.054705819519372
51.40497344979326 -200.03987197793387 -4.059475549129178
51.69373258092461 -198.52677406450604 -4.066018578089056
51.62748609676254 -198.63976262402383 -4.067357140107353
51.867425848875186 -196.96324609452833 -4.077591902666013
51.92664812516309 -196.69360789593676 -4.078638902269618
51.12941856717429 -199.56603087355472 -4.075589288535841
51.779115926199324 -196.874355154685 -4.082093252589474
51.30428866860172 -198.50945293178407 -4.08112986446797
51.68758295379061 -196.75392937899446 -4.086789812495002
51.14921658756734 -198.53578047374077 -4.0867369612666735
51.4314649091497 -197.48181136293067 -4.088043466825376
51.60931374691799 -196.78918455280535 -4.0894825334596145
50.48854486908558 -200.1727767459066 -4.093208286701112
50.93376661883532 -197.42191056695776 -4.107666308341246
50.20294693359794 -200.19314028625394 -4.10402332607409
50.781325930373725 -197.457598107158 -4.113067774513831
50.48435711644328 -198.7116876883839 -4.110009312687325
50.38181910521503 -198.55353157786445 -4.115927390709216
48.87983232202018 -204.19430997521872 -4.110947872093706
48.911996601321746 -204.09904043092376 -4.1105797562790105
48.944273865581515 -203.99972982950854 -4.110529000653186
48.737296674989736 -204.33036326839007 -4.115037651165918
48.81107853042961 -204.27076195198416 -4.11279503137476
48.65455146201683 -204.35659877299184 -4.118154492686122
48.55572719898697 -204.33803043593787 -4.122422903624107
48.47956745043857 -204.29775870500924 -4.12580860160114
48.39069692233436 -204.223986794084 -4.130368298848259
48.32240420588456 -204.21106471825772 -4.133139148873364
31.21352971091112 -255.60893647403935 -4.101314059217596
32.36737231368842 -232.75073347958252 -4.097603316986456
32.2388124504982 -233.0685020144258 -4.100482762184504
32.230858451009794 -232.9749341413812 -4.100456794626104
32.18661221536887 -232.70773669671917 -4.100180292629529
32.16688150502506 -232.61940371016019 -4.100333837038384
32.2476952625834 -225.5784020046947 -4.064308134245396
32.195083928717295 -225.5111175706045 -4.064654366904571
32.154340087909134 -225.44108966979178 -4.06465656416726
23.946847007883296 -216.2388013275698 -4.138686997413746
23.95206410266212 -216.13305630063235 -4.137398638266481
23.875112605976568 -216.33252044775475 -4.139851496936703
23.896248875426 -216.0182620318946 -4.1379242395733336
21.45136385693143 -203.091781338844 -4.053542525696274
19.323980043699493 -208.75416710325567 -4.147032478982203
19.34252747997993 -208.49150340118922 -4.14427058260871
19.181906690721235 -208.8371662645524 -4.149339832510887
19.81253732935238 -204.98165001761595 -4.100679110777707
15.027680214656812 -194.89536838632765 -4.058043729051607
13.905923199628575 -194.74067158083253 -4.074365555754332
57.72434477040414 -226.48696421004777 -3.9485225287163264
57.502903629705955 -227.3761567023535 -3.993141890246279
57.68533507739496 -226.38336497787702 -3.9443781326121132
57.50483032522292 -226.604965596354 -3.957025891780649
57.543544791146026 -226.50334006692057 -3.951789489806811
57.61785716782428 -226.37037438943906 -3.9446994787967498
57.427618619287735 -226.7650513429128 -3.965651409359329
57.43887092912886 -226.54450345783022 -3.9552253877485617
57.47948648500363 -226.47033484346076 -3.951208755469291
57.28027586773835 -226.61239837397486 -3.960910137121704
57.354230029781746 -226.54389286613838 -3.9565234176921877
57.35186068719234 -226.44755399806093 -3.9520943863590485
57.22806586287285 -226.37695807011013 -3.9507481413957866
56.98607761743834 -226.83909564354215 -3.976890110670223
57.016647998350045 -226.38451060615142 -3.9546092849930368
57.115225141810384 -226.27843058325044 -3.9479685816988193
57.08713582598086 -226.0515509743583 -3.9378534210477736
56.85887529439078 -226.85746680904575 -3.9802696539123463
56.9652941733313 -226.339692962633 -3.9533939097234816
57.00595143281069 -226.31731564829923 -3.9516308384673686
56.87227023205182 -226.26504020620823 -3.951484624616339
56.71443256974143 -226.50766673982983 -3.966102089709654
56.774018466644414 -226.20119652116304 -3.9502038012296894
57.603658863311935 -222.50499749363226 -3.9535640102624128
57.763316197838385 -221.99143767874455 -3.9414414305019805
57.79929554716497 -221.69551841610567 -3.9346550472036927
56.593877486407905 -226.52539579027535 -3.9694110384408265
56.67790264644799 -226.2654092960876 -3.9550909801447927
57.75927839578141 -221.33181394883673 -3.924954130249719
57.996424425407604 -220.24338124819636 -3.9280683180673353
56.33525403633139 -227.44868627927042 -4.0214748345637945
56.57979882105108 -226.44149831726463 -3.965573950854804
56.62256171805516 -226.2699508765433 -3.956380011736507
57.51764362038633 -221.99002548902894 -3.931418320056465
57.62454288154843 -221.6868839823514 -3.9269809890699694
57.32063697312537 -222.4535930796345 -3.941185252304117
57.342177812526785 -222.15507432512106 -3.930200409941778
57.504161415888916 -221.85132070097808 -3.9265371424199302
56.262091768876154 -226.81155380443505 -3.991009056150102
56.263025185487336 -226.56782891760432 -3.978738020773306
56.327371499406304 -226.37585169951595 -3.967709992764972
56.38785718607495 -226.18907925398477 -3.9571791331804245
57.18534224179257 -222.4255815657107 -3.9351986158184724
57.27473890647297 -222.33403991973623 -3.934622029113198
57.28851402165314 -222.15900559269286 -3.9283052101893583
56.263270169168216 -226.28381569909763 -3.964535724275009
57.12014158419886 -222.3662421425765 -3.930345683873444
57.187892719871435 -222.30437216787232 -3.9302204426572853
57.22997020732385 -222.19084925722348 -3.9272694303871303
57.886370770506815 -219.137727092031 -3.9388833079603396
57.89522609836064 -218.86036025417442 -3.9466395649125077
57.89117899173324 -218.8290627381288 -3.9473883510750136
55.904265741925045 -227.23484459900894 -4.021815119193501
57.74693694333349 -219.16177721260428 -3.9324175379001813
57.852561866885324 -218.86147917662478 -3.9448890679509048
56.0416825878451 -226.31408112273843 -3.971167823226932
56.09948300716541 -226.00816607890428 -3.954471298789823
57.692898658627264 -219.1580731356336 -3.9302380099768923
57.69497911838661 -219.08045825868064 -3.932339042430975
55.98453541182013 -226.34454873178703 -3.9741140333828304
56.06496847079613 -225.97927319226446 -3.9538263270461633
56.14586101317628 -225.6183993007687 -3.934172610478184
55.83861639719633 -226.48217590111244 -3.984814465585204
56.38096152888122 -223.91120909301497 -4.001200105030819
56.86879707507169 -221.75151846662814 -4.014289132972126
56.87319092532469 -221.6466213122882 -4.009953153517332
57.02484298055377 -221.1616993126723 -4.005136642170905
57.02422129535558 -221.0742561407628 -4.003039360958024
57.126766531821126 -220.41495376576123 -4.00475319763738
57.231022206082095 -220.32726285697143 -4.0135072335299995
57.19962576706709 -220.16296599597388 -4.012191490662061
57.538199004417656 -218.88127997811335 -3.931694502503913
55.54283656501325 -227.01802582356768 -4.020861377914018
55.75860156397819 -226.4838809847306 -3.987024807680056
55.82095526938565 -225.83157858264812 -3.9521286502535014
55.992569415615044 -225.42032828025722 -3.9276625808159813
56.690338363482375 -222.14429111256112 -4.022794677775066
56.731574847843966 -222.02176231536916 -4.018423103953291
56.74709704619295 -221.82769960532818 -4.0092099150881735
56.75140088219013 -221.73843265502794 -4.0051741089662904
56.760984520295565 -221.5821305801006 -3.998905621738097
56.92351533282224 -221.01233405174935 -3.99370106576798
57.068974804827185 -220.21031857359893 -4.001166766026273
57.11134852668239 -219.99673786621887 -4.00728609887215
57.50243037623225 -218.34652888032153 -3.9492662455648544
55.53973201884098 -226.91949044929672 -4.015769467511074
55.548039150518306 -226.86327792004246 -4.012611543160819
55.62778967100591 -226.29530179680424 -3.9808141613093326
55.822464801590364 -225.54744176152929 -3.937765421648952
56.563693156140836 -222.04830809813407 -4.0086855458140995
56.664300628370384 -221.85167201402632 -4.004594839385208
56.704233189261586 -221.7374981102849 -4.00172344196497
56.710379612828014 -221.48515030849936 -3.991177175735066
56.79722492276011 -220.9813613499229 -3.9829813482774794
56.97484787102034 -220.30485251969606 -3.992828728510565
57.008292239822325 -220.25028344631014 -3.9959115663834095
56.9745344381015 -220.13029941481813 -3.9943880271288945
57.06424611789067 -219.99237822929626 -4.003588130600995
57.44090928797323 -218.156383503069 -3.95497364914511
56.46584306386437 -222.03114496099053 -4.0011866639561
56.52781707821951 -221.929992527545 -3.999417201086127
56.52720121560744 -221.68521799530072 -3.9864930766084474
56.65759160194338 -221.53386720493327 -3.9891980553140716
56.62327049219509 -221.49948230747336 -3.9852238404886844
56.6241245837149 -221.32708123262736 -3.9787921297728444
56.77743787056987 -220.7892162130172 -3.9782691873849574
56.81658685182552 -220.6659714891685 -3.980200900663595
56.80796867994034 -220.5129217720909 -3.978794897623341
56.91587781968853 -220.30095366418539 -3.9880829755184624
56.89659393569725 -220.1507596526101 -3.9878557866371787
56.94018340099173 -220.10055140351724 -3.99200935816199
56.96624093262602 -220.0160651678086 -3.9953849231946044
56.93852725411146 -219.8772310839241 -3.9957689321455483
56.94978021886899 -219.80028888392417 -3.9984041221906073
57.002891256654124 -219.759555513774 -4.003568631843217
57.29625588827472 -218.4020773789296 -3.9398146343764613
57.29260091363632 -218.2525755491661 -3.9459237291934355
57.343928472631625 -218.09484058310593 -3.9544602582912862
55.58229129483393 -225.89178606721023 -3.961250178386097
55.57209824464692 -225.57614250250208 -3.9453572263383427
55.6896171866286 -225.29281992171263 -3.928090277982316
56.10319562589162 -223.52811484794532 -3.9711161580109047
56.33997896130614 -222.0982349252086 -3.9972752411786128
56.50845031142906 -221.68848799626446 -3.985321045553633
56.52326680471251 -221.23616960206633 -3.9679949275014184
56.626105512308726 -221.05643321506088 -3.9710100733542206
56.59634955933796 -220.93063540113062 -3.965931923195889
56.61240169116137 -220.8333765571448 -3.9655509257590444
56.66215943753556 -220.7584984455591 -3.9685709180005446
56.69306031182381 -220.69504356807977 -3.970417286560011
56.73436977331324 -220.47726936212402 -3.9727806297512256
56.74188455996833 -220.4162369435851 -3.973436941322916
56.77380828428236 -220.25851456118542 -3.9768676209132474
56.8062663846125 -220.17705244092485 -3.980265453432491
56.871542426171075 -220.10967401928437 -3.986358847697564
56.870302796046296 -219.9682785466724 -3.9885338389938925
56.88514179988021 -219.9268931663127 -3.990513146952883
56.92561308169806 -219.82289322248548 -3.9959744887681636
56.88236433785747 -219.71154635028196 -3.9954219057982416
56.912772309929224 -219.57845423800006 -4.001717180372826
57.20548119760588 -218.50355125247108 -3.9325794551653526
57.18791417679944 -218.44296802198153 -3.9344026807562344
57.22842920276095 -218.24185546781865 -3.94424184862486
57.30395748575408 -218.10364331721223 -3.9527981480713343
57.25090351337115 -218.06928076505915 -3.952657434250705
55.304362224021105 -226.6423004828166 -4.008345874118997
55.48457029701984 -225.78717588391925 -3.958500957213053
55.499519599857514 -225.76972049696275 -3.9571794781146554
55.84546348973144 -223.9537629417239 -4.000660378791249
56.263342281631765 -222.15454003216743 -3.9962224428295214
56.298613672275266 -221.91992229451296 -3.9834922988923225
56.32260473272361 -221.72567144288834 -3.974100528856176
56.4081662220121 -221.6241271717345 -3.975012147157796
56.477667957958325 -221.29546641757406 -3.9664823965337646
56.45108548970428 -221.2277254857013 -3.9621707788666534
56.48407050812416 -221.1433945967014 -3.962158539501436
56.51456390531044 -221.04535849228296 -3.961919766734311
56.5434783881895 -220.91335513074551 -3.9613664286171555
56.55900379568217 -220.81763598988792 -3.961027399324738
56.57235437552927 -220.7452739840692 -3.961167516230252
56.57855342329861 -220.6736131363097 -3.9609341063103214
56.62513731551532 -220.55013714611613 -3.9640172721687073
56.60779427938125 -220.4300511098807 -3.9625278238746318
56.64342485941735 -220.35486348047698 -3.9656669306939882
56.776039960592676 -219.88842423050096 -3.982676207724359
56.85097667313575 -219.7499706542941 -3.991932919738823
56.854160480363944 -219.66395629378798 -3.994605280241234
56.836142843270906 -219.61807828719944 -3.994592843875383
57.060666917712126 -218.44982126826088 -3.929756529336773
57.136015877047605 -218.38589630086233 -3.9350097193588227
57.09922940720148 -218.3169399157355 -3.9367373684435747
57.1835898843878 -218.22145998295272 -3.9436814377370193
57.164401420773856 -218.10438611803318 -3.948328430867716
57.1819770385432 -218.01122017371208 -3.953200450087299
57.206174885295475 -217.90038099290229 -3.9591840483172698
57.19641507226237 -217.79373042922703 -3.96408081718034
55.76932271640258 -223.89219904009207 -3.995782000037249
55.77569122854479 -223.87684541891852 -3.9946235209096
56.128801780881474 -222.33728143436045 -4.001387151738307
56.09251017483825 -222.27678396010725 -3.9948349110580477
56.158558828969106 -222.1994306986314 -3.9930315274683448
56.184994887348 -222.0671234880715 -3.9855350769124214
56.16851211752262 -221.97840477436353 -3.9787077640043362
56.19400239388048 -221.922762539588 -3.9768135686435544
56.19164181816156 -221.81096281851774 -3.9699176410782284
56.414897629830826 -221.19351777192972 -3.9582663115342216
56.41438536794875 -221.0902454265207 -3.955187970694995
56.47883176359392 -220.88004606215026 -3.9555752170191965
56.4701675365875 -220.85209486601192 -3.9544015637746632
56.47814793189747 -220.70983460856436 -3.9531360820265764
56.50031398878608 -220.62174302359892 -3.954210615612025
56.56085034229816 -220.57589811281275 -3.9588700786987086
56.559269813533675 -220.45096787815632 -3.9585299721146403
56.57271111814993 -220.37320103274936 -3.9598174507022192
56.99498890824672 -218.2993349415341 -3.934121381211598
57.105579626441184 -218.06745354618874 -3.9482145684063403
57.13904125983796 -217.99697212328468 -3.952563262370585
57.15172162741935 -217.90490187079706 -3.957346437013166
57.17468874830978 -217.7921930041358 -3.963558128010563
57.141195969070914 -217.68238427116907 -3.9681358981202988
57.20557084131747 -217.56711868396883 -3.9758225808852616
55.674577820615234 -224.00284068539696 -4.004323030262659
55.71424184126937 -223.85266188336138 -3.9926585307306257
55.82385351528007 -223.26374281691545 -3.9494339788801014
55.939572185634056 -222.63355929815515 -4.015526168846282
55.97509667804655 -222.36813485600442 -3.995405379167951
56.032116234996444 -222.1279300087072 -3.9805042599111857
56.06628844869536 -222.05867007922373 -3.9776997273517543
56.118644091911804 -221.95569765918756 -3.9741015105441466
56.173008963342426 -221.7866638390798 -3.9672690744971297
56.16233444256842 -221.68038684887935 -3.9605848984404854
56.237716871186 -221.26639167344308 -3.9471478646878513
56.31023592673548 -221.19927045729096 -3.9503453496471312
56.296683703040436 -221.09364862168397 -3.9460545605963295
56.375555985059925 -220.95327490918743 -3.9487556400999075
56.32995874891008 -220.75730409295954 -3.9416945562802814
56.40916109028289 -220.60660720024828 -3.9467111435086935
56.4663630889817 -220.27576331108477 -3.951803834718114
56.602644692465255 -219.7337990042811 -3.973104310689208
56.929867327185114 -218.28834019670475 -3.9325717156571307
57.026662736417116 -217.84598437903423 -3.956692864119568
55.09341301265108 -225.91637549848048 -3.9766202514134883
55.64632148836546 -223.7098039713911 -3.981573661584136
55.761219035764185 -223.19836319161448 -3.9441439411039463
55.780332268108275 -222.76227008202943 -4.020193884486368
55.858573822072664 -222.61931571374518 -4.010610642329455
55.940976662859526 -222.14126811837681 -3.9762033753990402
55.932524472406534 -222.06839864928543 -3.970398054870282
56.0376250442742 -221.9611178915306 -3.9693288936273126
56.02459143895922 -221.8032664737687 -3.9584202668257817
56.08287441042528 -221.72718077520352 -3.957767585877205
56.11091928507793 -221.59073024748622 -3.9522355636286295
56.13451624981034 -221.3214386419673 -3.941480127022662
56.17842807729439 -221.27768118300014 -3.9430858979814967
56.12949753301767 -221.18412949967714 -4.0221630239264226
56.20868041346905 -221.07357206399902 -3.9385942530759905
56.20116502432683 -220.96909928377815 -3.9931566024128555
56.236892395025755 -220.76843532425613 -4.021423535729982
56.27625648903178 -220.55239385383805 -3.9356223848014684
56.32212677955578 -220.49520896873 -3.9835324929425173
56.4672705331569 -219.82596883646895 -3.9599848514220266
56.539017141853705 -219.7465428601398 -3.967806775221357
56.635579729601105 -219.2633127898665 -3.993235189605075
56.62854508514753 -219.1474524321974 -3.9981951327343794
55.48730119677911 -223.67305449886496 -3.9786833193166413
55.616002003885484 -223.1718255423946 -3.940991534026141
55.76096878349064 -222.77131335051448 -4.020281822141365
55.79110002483383 -222.5370481007661 -4.000360150662873
55.790698917763265 -222.22527914064915 -3.974401212118747
55.90719066498459 -222.09596454004063 -3.9709302368369386
55.894201916779515 -222.05837016432204 -3.967451303332712
55.929785482583036 -221.60112643952706 -4.025387306840039
56.04854133901857 -221.35208660315539 -4.021763613009661
56.08207737469092 -221.10732557241306 -4.0136370682774025
56.143087594845575 -221.03144276557413 -4.0176213701381105
56.135968614174324 -220.93272698683364 -3.9709021083333784
56.15551187623796 -220.85616793998517 -3.992903323262865
56.18495356228234 -220.7444370030856 -4.014999174722423
56.232132365439924 -220.67825433963858 -4.019500946860241
56.40367923665959 -219.71623876934493 -3.9583492538199065
56.412967788614225 -219.57219179675823 -3.9640909501113506
56.54006087821525 -219.19574833852272 -3.989636055987997
56.53352391582641 -219.07920189734816 -3.995078387506432
56.57501708129286 -218.78428127121148 -4.0144039358668575
56.620133998558764 -218.73618100851826 -4.020188870000739
54.86868496821062 -225.92333216380112 -3.9842087686032372
55.407661790750026 -223.64296380897986 -3.9764556972823013
55.471825162133136 -223.53140221831984 -3.9676260191250576
55.51590231894259 -223.37421990199542 -3.9555960058526964
55.54134697269249 -223.16913012092633 -3.9403041996490016
55.54168106372141 -223.10296026464593 -3.9354078131479264
55.66048159014747 -222.65010589779303 -4.005103579421631
55.71378307100683 -222.5562095980495 -3.9986495678633873
55.68065823826767 -222.30062497437075 -3.974999112247999
55.745339026046686 -222.20234373863204 -3.9702290955723845
55.770372478722365 -222.12144312361468 -3.965193143278075
55.833500331724274 -221.70030688801103 -4.023505987632058
55.970620844470105 -221.33496529570306 -4.012528576676655
55.96441807248016 -221.2696494523615 -4.008269146820633
56.019989587006215 -221.05601372201963 -4.004668407655714
56.0397004554636 -220.8713139595693 -4.000936377818299
56.1988392338125 -220.02233897791922 -4.0210376371211
56.230556170910745 -219.93226274794876 -3.938715661613188
56.28935097375652 -219.75396297621006 -3.9484039229006873
56.301067510640024 -219.64494829666353 -3.953025129795313
56.351870731860515 -219.56387801156626 -3.9598604287400034
56.366065398964416 -219.49778676277404 -3.9635388378015124
56.382287560025134 -219.38541633032304 -3.9695446680801547
56.48401956648439 -218.94241208513773 -3.999243899082288
55.37793580457333 -223.53466767533163 -3.967969391677611
55.3682147139291 -223.417534133793 -3.9587939210157974
55.391500378404075 -223.3664494838499 -3.9548077725620696
55.41587817453434 -223.1480664158359 -3.9381192886323406
55.53394892161126 -222.56349760641274 -3.992146435342943
55.61083236959067 -222.3888296542046 -3.9792878415056747
55.65272622353681 -222.28480264463673 -3.972333417811781
55.645369473678535 -222.20611136877434 -3.9653994538146287
55.681973535328005 -222.01287928473533 -3.9520364818705436
55.78074005078378 -221.75486185438137 -4.022967625413997
55.75465842120419 -221.69264032699098 -3.988325842223654
55.935753190872354 -220.9009437425576 -3.989868770366141
56.19140359628852 -219.9236456264731 -3.9650049646979793
56.20914351217326 -219.84763431436915 -3.9393482159605724
56.20116034991849 -219.72308807980465 -3.942706383155118
56.231041411036045 -219.68026227877513 -3.946473731592001
56.2124494391008 -219.5483905466092 -3.9501925614381435
56.250449477645944 -219.43294153625607 -3.9579846563481302
56.266107051674396 -219.35657658576673 -3.962604565118139
56.27752218696067 -219.22032173940315 -3.9701935696592514
56.315377153940034 -219.15013385946162 -3.976490813756137
56.38048163649135 -218.9904103120539 -3.98971539962733
56.37644090474613 -218.80655146338364 -4.000497036218118
56.46873751145383 -218.52497850308563 -4.024489306964962
56.461119909188135 -218.50146689370715 -4.025652520555663
56.53649773072112 -218.04315661787908 -3.9334127672099917
55.09754427732199 -224.1065691243219 -4.016719962942829
55.115635411290164 -224.0414255064463 -4.011046023930201
55.144709584839994 -223.77449764865733 -3.988602406124463
55.24345900332492 -223.38970348277718 -3.9568273823395
55.26580454276652 -223.3479145310395 -3.95345599308894
55.370639119275204 -222.99810992106887 -3.92663129551866
55.355211862728595 -222.90192599214762 -4.02016575729428
55.41750393570268 -222.84376143510576 -4.015837310753912
55.511055423259265 -222.41407564574308 -3.9773567363688263
55.50123694358457 -222.3833024115088 -3.974143466212669
55.587579715646406 -222.14243870555603 -3.957289034289917
55.67276822723497 -221.66539418234234 -4.005458591260471
55.796283789916785 -221.1552224229096 -3.9842149736392836
55.90833343370394 -220.4727140136528 -3.980543345486184
56.094351009232895 -219.72279804777557 -3.977522073314505
56.09501524785395 -219.61369143758304 -3.9825542464073496
56.16004575909999 -219.54079883864944 -3.9466738691768652
56.19049198677961 -219.4492097468053 -3.9529073681679674
56.16268989507781 -219.35141288131965 -3.9556044074537304
56.24852673492788 -219.0568586522766 -3.9772456551143445
56.37948610888154 -218.60538861313873 -4.013812789008526
56.340345116642254 -218.5505718521482 -4.015340627940175
56.500359634022345 -218.0241259655297 -3.9334972890909
54.782779169996225 -225.17179941297255 -3.947124612705429
54.96658523030389 -224.1319185447265 -4.020754571806329
55.02733482214232 -224.04812789057087 -4.012764378475721
55.02268266570981 -224.01478756876963 -4.010034920991956
55.1296954252674 -223.4715821020482 -3.9639607628903297
55.184881473657704 -223.3967117765329 -3.9576238560500236
55.3378279751894 -222.6831901015736 -3.9972995678595526
55.34911916634468 -222.66691876692315 -3.995989561157338
55.378391103030836 -222.51227709013372 -3.9816657047621775
55.370176195934036 -222.3995291434858 -3.9705543876515486
55.93248406784697 -219.76204013748114 -4.001332454674185
55.99807478729194 -219.70154708907035 -3.9839810470195243
56.011276808952196 -219.57471050648186 -3.9628099779085417
56.094275275803156 -219.47315534681215 -3.944935738872852
56.028373270467334 -219.40334066969268 -3.9436654228594845
56.12225391317713 -219.18076681017 -3.961882758640212
56.102572243965184 -219.10018361998846 -3.965239059871197
56.1824484684824 -219.06287954270942 -3.9726108683532764
56.21249680642462 -218.6225182261006 -4.002972235254167
56.240531657055236 -218.51075369755924 -4.012505222812867
56.337998047242216 -217.97993866330043 -3.932061936998161
54.9171508537508 -224.12176945272995 -4.020730794254141
54.96378471643431 -223.84935107871055 -3.996936946986613
55.052745696795206 -223.457070299669 -3.963342022225719
55.27383083735844 -222.5493692827281 -3.9819533189858416
55.30324476597185 -222.39583804287489 -3.9678065253870556
55.285228009539566 -222.32517881751824 -3.960379490135461
55.673955516459614 -220.52875245149207 -4.020627047798446
55.68202647568532 -220.46030837438906 -4.021767071428241
55.90125974471819 -219.7810513246673 -3.9970271156890873
55.88710342845601 -219.68281547082228 -4.000549604109088
55.96978559108513 -219.54764001410834 -4.016900184377595
55.93552390559592 -219.41308175797272 -4.021979302150533
56.04579023440042 -218.98592401694705 -3.968692936724913
56.08056355817146 -218.73840813279398 -3.9873167844078066
56.13939402092426 -218.59971914512926 -4.000498918450623
56.11773899885947 -218.479608859501 -4.008182608665144
56.179149529137206 -218.44088544258582 -4.014320211131885
56.26780678499693 -217.98915295219183 -3.9299924296053135
53.49233528855041 -229.84214401305306 -3.925650886706925
54.510394227215926 -225.3051670596383 -3.9635490438448824
54.81358906606852 -223.989541278844 -4.011253866627688
54.84310846923266 -223.93886355867014 -4.00640560100622
54.899520269015134 -223.85021125974407 -3.997944048632636
55.213220120394176 -222.35423460506965 -3.9607084267102106
55.24755576133194 -222.32378528040192 -3.958908806033557
55.25671198459345 -222.1717234074094 -4.023572106644196
55.27504162256453 -222.11232412241455 -4.01774618232288
55.612082362297144 -220.5856493439077 -4.011525851729214
55.88696603710026 -219.36846626057832 -4.0202720317280285
55.92781519172041 -219.09268942560004 -3.9546427155474966
55.99064700117471 -218.74667224338629 -3.9816677039410395
55.992423889331405 -218.6424265489123 -3.9893532790693516
56.03154136315305 -218.54142352500278 -3.99897093832148
56.25655268571996 -217.62480734120092 -3.951158258558917
56.421930958133984 -216.78836018526124 -4.007134340540339
56.407241278051146 -216.7124255445707 -4.012088894575597
56.49278795278736 -216.58833320481617 -4.0212219122676
57.0141761736795 -214.39089774555706 -3.9356809578084224
53.39550251704066 -229.8347146904862 -3.929912050782017
53.428864163164505 -229.8019835120822 -3.9277262614006294
54.27471796747754 -226.14397981259594 -4.01764749212625
54.29162252238541 -226.1183933323744 -4.015624586404114
54.69447857870991 -223.98143613660102 -4.012928735287158
54.73242589918303 -223.88901970050821 -4.004194772281475
54.806828107504565 -223.84365971880405 -3.99891812052855
55.13743781969331 -222.32603698113493 -3.955487414843066
55.11813997664102 -222.28110795526248 -3.9504382458929213
55.16305505708039 -222.0744614598474 -4.006109500185508
55.182016548457604 -221.992986193533 -3.997733712322903
55.503146208577554 -220.50998925219758 -3.9742506574285525
55.5308274127023 -220.38601421000328 -3.9992930645967824
55.578052543955465 -220.0973766053553 -4.013906595937768
55.582018430147386 -219.99363529864172 -4.019176056814536
55.765913317124415 -219.32595248481914 -4.01166867110607
55.80419326183601 -219.0404714220963 -3.9505308324962445
55.91682443335908 -218.73199871777925 -3.978662947197781
55.905740309916915 -218.69124966099616 -3.981082930336365
56.13291482586692 -217.6318258703662 -3.948615647296797
56.16218350210324 -217.58414145956755 -3.9521020510766505
56.296281985655504 -216.9794025275997 -3.993119390223265
56.34142027925085 -216.889077633621 -3.9996070869042066
56.33757563997406 -216.7015730348311 -4.012226107532345
56.371425821004095 -216.62204804387295 -4.017907736024775
53.32254636227505 -230.02565960468132 -3.9368942124571995
53.36378911424027 -229.83338537060212 -3.9312682913916737
53.303393743545286 -229.74244285820686 -3.9322419843251257
54.20451979874047 -226.00747698456468 -4.0130686595778435
54.64293440038673 -223.95999651776827 -4.012187517669613
54.61802459334587 -223.93087178350058 -4.010228417303154
54.6709736861198 -223.84740288348075 -4.001836557897127
54.754566810295024 -223.63858578992202 -3.9823241823735684
54.89584069867119 -222.97963314224302 -4.0210383633509466
54.86710888142086 -222.85287518241952 -4.0064535819084695
55.4627525661937 -220.14828209953205 -3.9948764039513325
55.47541102172648 -220.0807684595043 -3.9918058908436436
55.55155528149931 -219.96089078688075 -3.9725299125013867
55.538893324404654 -219.82171444929477 -3.996098366522376
55.6487323316685 -219.23115603411276 -3.928623970510437
55.80289961651969 -218.68027364256034 -3.9765478974386577
55.8209642307273 -218.6640143044075 -3.978728112578339
56.091260106335035 -217.53206104323152 -3.9544532161980634
56.09896521389231 -217.46796002227853 -3.958711092501597
56.11750024769362 -217.35005562660376 -3.9666469100640964
56.18523794003172 -217.23391543919348 -3.9750546444181785
56.18557913990219 -217.20946077487181 -3.976682512081827
56.23952116519642 -216.73619347750625 -4.009098089278892
56.7536829819285 -214.48727056215208 -3.9358093498230096
53.24064351846118 -229.73099310861966 -3.934902430314792
54.526550159656054 -223.9626940486506 -4.015189922465129
54.566483958996734 -223.924708199589 -4.010876488416694
55.31714114486697 -220.26495078425873 -4.025192250290675
55.41918010219916 -220.16672421960004 -3.987728960242479
55.42376410489653 -220.0633216332019 -3.9550340982482988
55.40928055736708 -219.97086258332527 -3.995577276748115
55.460773890326074 -219.8455132424945 -4.010628407522652
55.45226785814191 -219.7914240776006 -3.99723571701947
55.460770288167716 -219.7108961535535 -3.9873248243014956
55.53415166254492 -219.51774754933 -3.975006091896733
55.52585417689357 -219.42058586181284 -3.9816357522226706
55.63126386156406 -219.2339775013888 -3.927390226180711
55.750891152069904 -218.6651249912656 -3.975082795985622
55.73135815704998 -218.62097260963372 -3.9776496591889097
55.73561364932951 -218.53440042278402 -3.9848476308577676
55.98190808182627 -217.25967437744657 -3.971363707157456
56.00842441826331 -217.11925619224078 -3.9811436946971384
56.080476949984366 -216.92942407962732 -3.9946982787072787
56.207250341056834 -216.49057408861745 -4.025955280167335
56.83117031858553 -213.8715760428281 -3.960455668647217
53.09974819550873 -229.92229059934857 -3.9449806341182634
53.16254894470225 -229.71514735946397 -3.938143215631595
54.46088037202552 -223.98384740241272 -4.018730556068003
54.88085187941106 -221.82905899728812 -4.020706812318321
55.27622982798191 -220.25371753682253 -4.00445743341832
55.35553260571698 -219.7948200698585 -3.99980091576651
55.3709822631767 -219.57086087888413 -3.9553345327938856
55.48321280905526 -219.4311373295421 -3.9768144071528444
55.62561674510594 -218.6593794265393 -3.969484341792787
55.62913985751126 -218.5636225877466 -3.977560083612235
55.625784076390495 -218.49159493739057 -3.9834760118859553
55.9727499820634 -217.2487642284538 -3.9720236853692397
55.95984358185807 -217.11883482293607 -3.980823734093336
56.00120277583677 -217.0009310099991 -3.9892380081338468
55.99050314570492 -216.90867368483285 -3.9955934715640433
55.982073817011695 -216.8372169344735 -4.000552929742226
56.069607738347045 -216.62931350198107 -4.015572462083892
56.057133316140586 -216.55757903444217 -4.020597335009701
52.978940699940374 -229.7904649810112 -3.9479746229130286
53.05280962517142 -229.6871370179823 -3.9426451078056366
53.057536554732295 -229.63039146920974 -3.941286147384043
55.20097834150396 -220.2690059492752 -3.9518297115273233
55.24664047718271 -220.01954396953658 -3.9695033190139855
55.30479217274499 -219.59688881529794 -4.010184080606431
55.298694652232825 -219.52403004369674 -4.016584377925337
55.3558365630843 -219.4504078567261 -3.9856450723362444
55.384278963567816 -219.39040527333384 -3.9711863077291816
55.56155168404891 -218.42556178984947 -3.98650882601941
55.58624270224696 -218.3846255899359 -3.9910933206407213
55.75833450938527 -217.3388072345377 -3.964328608956659
55.77679592015288 -217.333799489435 -3.9647878191894206
55.920885975927064 -216.96807838570402 -3.9910778394936806
55.88074804580419 -216.83613233317698 -4.000234032151058
55.92823749729721 -216.72086393335428 -4.008581200849319
55.98438059544237 -216.58986102686117 -4.01807840375047
56.382567994295954 -214.7481017281617 -3.931164117685323
52.92104298189372 -229.71899802110445 -3.949318651066762
52.93055939968125 -229.61552667278306 -3.9468351849857353
55.06259377450752 -220.2564292392345 -4.025994357161329
55.03622176812294 -220.21694031883163 -4.02230634245916
55.096583864502946 -219.86441224462905 -4.012177053783694
55.173216438635365 -219.76506160053907 -3.97800979200382
55.22925729302439 -219.52917108353756 -3.945463496731422
55.456071637742504 -218.41040034163012 -3.9838740146004707
55.520892429317875 -218.3737050332376 -3.9895037417094668
55.70139886911851 -217.23259676760736 -3.971498396698146
55.87029059306908 -216.55890915276387 -4.0201020166530625
52.84886226465218 -229.64576428061082 -3.951218967815883
55.00781363518725 -219.78318924410803 -4.006392724674008
55.084861732225725 -219.5654370151 -3.986737275935432
55.226228916260006 -219.06527313498898 -3.9898187550674233
55.27892333817815 -218.8100444552764 -3.9414568984888385
55.36177023971135 -218.42024933903355 -3.979716865051214
55.394003934786156 -218.30670221719575 -3.9914354485995522
55.35938503273167 -218.24088824576296 -3.9966764177656477
55.72610762990362 -216.9671983286418 -3.9904751646701393
55.73748505525173 -216.4955254678498 -4.024775479171099
52.75489808593865 -229.62260604342896 -3.9551344502228982
52.76361654760949 -229.53817112639805 -3.953103478882517
54.91240553926024 -219.94655789528096 -3.9964737347578225
54.92960676294192 -219.84681816701365 -3.9747245336516905
54.95092224758921 -219.78419464447165 -3.9974199678847717
54.96116869479929 -219.64526902879524 -3.976752809203882
55.132035868891634 -219.15077058360447 -3.973959991470893
55.237399227126 -218.3053106153433 -3.987020192175111
55.53033162165789 -217.35374001941577 -3.962350222254823
56.112784687587556 -214.47170201451405 -3.9482169239132836
52.62510182141932 -229.78353430121314 -3.964252753041192
52.63400521678014 -229.71418079292334 -3.962558140312387
54.80087200978661 -220.1058714540678 -3.9804998307381045
54.81871684447157 -220.07983859759673 -3.9866780495469474
54.80540139774213 -219.78718447721488 -3.975104377999638
54.85401007416584 -219.77511868764464 -3.957995591258291
54.92690590542333 -219.61394878165532 -4.015565511479816
55.5427323620016 -216.49967003542778 -4.025051074685573
52.468406583646924 -229.84761642312728 -3.9728553786655203
52.539097684235536 -229.81487371304684 -3.968905911094212
52.21993259126504 -230.49604699595412 -3.9969571523638217
52.281931216020695 -230.32151066643064 -3.9907449793969456
52.36137659399487 -230.01805281120366 -3.98113229297467
52.41138317149381 -229.90010968197961 -3.9765695526197273
55.0454331697947 -217.97896785886368 -4.016234122326657
55.05936661291016 -217.88181526215186 -4.026646152662511
52.19169975602974 -230.22837636921815 -3.99318268967256
54.85599334631842 -218.24569338379976 -3.985577498651557
55.662621357551295 -214.55654758222323 -3.954198127587698
54.81043795545945 -218.18451944774574 -3.991602260380112
54.93981884618535 -217.50902181183918 -3.952409766697497
55.0285439774625 -217.0994164571988 -3.983025554277532
55.50288274924735 -214.85876899259893 -3.9444211724223126
55.51907515987793 -214.73219559807194 -3.949706999057656
55.61150088082207 -214.57424266632103 -3.9545931777715917
55.727393453441785 -213.90908882932507 -3.9815706727932603
55.96672370684553 -212.84144064204645 -4.023669401204582
54.92405087999199 -217.17295218269496 -3.9784077326829044
54.301307023836365 -219.54783984854157 -3.9985246682077156
54.81280567505598 -217.0513139882864 -3.9892693971628876
55.39137132191973 -214.64510815654944 -3.956695805906453
55.39347420917805 -214.39026411791966 -3.968119395325711
55.43220477857849 -214.33015278447238 -3.969844090765916
51.85645345857088 -230.0015997418845 -4.005118539423777
54.59296538315569 -217.5956288672471 -3.9497268214887713
54.730192105764154 -217.18233069746861 -3.98017518084749
54.776153011545034 -217.06468845229432 -3.9887507059699048
55.09945691976508 -215.29504408355066 -3.934690145780329
55.39210018983032 -214.3073437093645 -3.9718810384429974
54.36915609067952 -218.10057075061948 -4.0009862544355945
54.59804533428685 -217.1709390480273 -3.983258495890076
55.142081085250176 -214.95773986708036 -3.9488603798028348
55.10822206875096 -214.8389217750348 -3.955152976294256
55.127663445027984 -214.7562728408703 -3.9583776355712637
55.19360512852704 -214.65772640451866 -3.9611371473856054
54.465489649302405 -217.49463066966504 -3.95995696957804
54.489698615846216 -217.33252820906168 -3.9724282425746664
54.510437264527944 -217.12623330121028 -3.988486784543208
54.497327850409114 -217.03978535784685 -3.995674111345804
55.070489999799285 -214.8242413340012 -3.9568187801621675
55.0115185486579 -214.76343265442833 -3.9611710914719986
55.068719765144664 -214.69084231174494 -3.9629311402289
54.403721898449746 -217.179401021818 -3.986502692794348
54.41368228267261 -217.0911636368048 -3.9933752546544667
54.44204214000287 -217.00303282690714 -3.99982292116012
54.44460864601043 -216.88281307668007 -4.009412870327654
54.78916720039097 -215.28359532804367 -3.9435503258442473
55.01003451685068 -214.62127963716964 -3.967685606159497
54.986485382486364 -214.57882515055326 -3.9702850220017503
54.971689603158005 -214.48935843793063 -3.974797957838181
54.34895228332367 -217.14983068389296 -3.9901328734483514
54.34531084054822 -217.0719075835719 -3.9965174765868414
54.889554232104764 -214.5877746600119 -3.972582190989595
54.86806641646796 -214.52908344199528 -3.97589700723903
53.96294777693751 -218.05889862263797 -4.0138274446275855
54.23677028833688 -217.099511573229 -3.9970249066681336
54.8367748299032 -214.523611671046 -3.9770592944288743
54.89726831676391 -213.90152631317406 -4.003887598301569
54.935394317059625 -213.81671810738007 -4.006651407326977
53.95562735618178 -218.03854897468784 -4.0164318082160815
54.82174271237262 -213.9339866378279 -4.004589888013533
54.89707585864956 -213.7577386586737 -4.010481767854059
54.886043576585436 -213.67503782058893 -4.014636316825269
52.84278442107873 -222.1125812018514 -3.9397696997012654
52.87466751798048 -222.0710660765194 -3.9972827775382584
53.76348628777105 -218.01888730132046 -4.025341383566707
54.67351484962398 -213.99952223400592 -4.006034610213385
54.76210862938292 -213.78381859391916 -4.013313160007757
52.83874927687097 -222.0939679874329 -3.9709896211396187
53.59431114941794 -218.5787217179339 -3.9674281969278455
54.569536901665316 -214.1072721246964 -4.004268690152213
52.73907124877152 -222.06026044906028 -3.9453772481416567
52.86635511512217 -221.1162587823729 -3.9859767987945247
52.68585502698407 -221.8824284367851 -3.9376437563814464
52.690242944704096 -221.8543466224906 -3.9838790240855566
52.85720378162589 -221.1269574517985 -3.9890833604730576
54.42759997883997 -213.9635515468316 -4.015464026730323
54.32321523382181 -213.8342834748076 -4.024856391985927
53.435755261262074 -217.33625305554756 -4.006734442130577
52.2384264001791 -222.27798758713266 -4.010836767442912
53.361368213670076 -217.27958457200643 -4.014852595875196
53.07226054475922 -217.42564852026175 -4.018139009627974
51.22171618315759 -225.5391452467825 -3.956547384917002
52.5925941616047 -219.54274246365887 -3.958792839740354
53.19414938537785 -216.30080769561334 -3.9525388498611553
50.88337817400739 -224.88166109021387 -3.9643127109511958
48.94398306797545 -223.46384796948306 -4.013444904693544
48.89537495252291 -223.3098564693795 -4.012516908989732
53.34333293331608 -200.67623288257164 -3.97948595001277
53.68128700190314 -199.2592372073354 -3.983395807148773
52.97980872536167 -201.80107618156327 -3.979886412026652
53.22941374979706 -198.9547101521751 -4.003607040310365
52.432353764392424 -202.3307792037392 -3.99409870649168
52.73521110431257 -200.88816847340968 -3.9995014124255572
50.17402628628422 -211.5974802685803 -3.977113913538958
52.951561903671 -199.52440860040656 -4.007291625817656
53.01376488677498 -199.21976059634122 -4.008645288604159
50.10109492809889 -211.72368706799884 -3.9788295549660413
50.152042165943506 -211.63242306269865 -3.9777341551280196
52.81536155258343 -199.68259197999276 -4.010518667268138
49.97916867146654 -211.77569408325616 -3.9833473961205716
52.728862422151735 -199.41457467255572 -4.0169814554216074
48.12394073192196 -219.4373865318006 -4.009196604207962
48.15907525064317 -219.37276623511116 -4.007441532047445
48.183746757730994 -219.27604079700956 -4.006174083058198
48.196602966962246 -219.186761114946 -4.005547331286029
48.20094710749378 -219.08432349697077 -4.005357477456871
49.86122677286618 -211.7548884332975 -3.988484061569176
52.52841502751003 -199.7283591661475 -4.020698080224308
52.59485472539476 -199.64823118395503 -4.0192707591276315
48.046491074849875 -219.47429533373625 -4.013015758989026
48.17672260308155 -219.12991376873356 -4.006573907465658
48.181825290455976 -219.02819268886918 -4.006270920059641
48.149615882282205 -218.97816035020963 -4.007940530228104
48.10924045622226 -218.91371846830185 -4.009938365997469
48.064992668086624 -218.85716714675087 -4.012135271258389
48.02945965530053 -218.8146319638318 -4.013856849029413
47.7677002353293 -219.47805869387452 -4.026719705409901
48.59913647518605 -215.5374977035269 -4.004334974944515
48.60780485609485 -215.51099428310516 -4.004289379979083
48.45396044682803 -215.70670076444395 -4.009581246564244
48.47855576722911 -215.6793607051425 -4.0086355659576665
48.535605538521025 -215.52903204751448 -4.00729856247399
48.46295445462528 -215.22698917951357 -4.013090456503943
48.516225331171945 -214.92533238765967 -4.013260564589957
48.38710620589668 -215.0976836243865 -4.017487623704112
48.43292815159639 -215.03032214301848 -4.016029984298833
48.477523258573804 -214.96238922500598 -4.014647576445508
48.500739385185774 -214.8300046546609 -4.014776733203123
48.49294499149202 -214.74167887601092 -4.015897803656749
48.28124726468307 -215.0840484758238 -4.022224624438493
48.24802056559662 -215.08944864577512 -4.023788314113891
43.51294528615996 -233.77952069937152 -3.935256681301092
43.52561075720925 -233.66791887394243 -3.9363835992726077
43.474684986326125 -233.59503904861702 -3.939045538231138
43.40243013850821 -233.50723295264442 -3.9427455520924686
43.288016051470535 -233.5104017572429 -3.946713688788853
37.81214620370737 -248.19432833463796 -3.9547048225975856
37.74818306688127 -248.08800246036253 -3.958260633187878
37.648203646050916 -248.04359873698903 -3.962986919302774
36.79944967335464 -250.9261200312026 -3.9553045131853986
37.51973405453631 -248.04231409762954 -3.9675117695593536
36.73264815453218 -250.7969908523418 -3.959270898527226
36.640769692580996 -250.7129793267175 -3.9642788082762572
36.53352300788902 -250.65650699592783 -3.968760155672342
34.554557885748494 -252.81073173839388 -4.014223070752095
34.41217622723482 -252.79322462278185 -4.019419457062601
33.37541860306848 -210.5335330250796 -3.9463094097110543
33.36831974363586 -210.22546076145508 -3.943142768608547
33.216299748577576 -210.5844418086732 -3.94920740329655
33.32756512652318 -210.38352556620708 -3.9456052088207363
33.28791003999487 -210.2745289466387 -3.9445979918233123
33.336606793390416 -210.11972349709123 -3.9420347156996005
33.172286939516916 -209.85680705230203 -3.9416631333093752
32.78999738917048 -209.56855471051568 -3.944926664180291
32.498783313913975 -210.32768535781508 -3.958211223924254
32.71832764024154 -209.34349707723416 -3.9434545476156817
32.69649975123825 -209.23970142195276 -3.9421723728094444
32.3514467761571 -210.34895484156362 -3.960391017596884
32.24367644576216 -210.38997373801124 -3.962983827434941
32.058086553296846 -210.39525712719424 -3.9655730434210246
31.5875836410037 -210.91264481087657 -3.9785632013474372
31.555903066461912 -210.5324628978778 -3.975013733829538
31.499646053576846 -210.4136769653315 -3.9750502533351795
31.364017652959802 -210.54039023688512 -3.978561732544382
