ply
format ascii 1.0
element vertex 834
property float x
property float y
property float z
end_header
51.187894942717584 -155.03808697185107 -3.764455578770873
51.24876571966593 -154.99535980122295 -3.7575108240142896
51.39447337735903 -154.96867302267628 -3.7663720382039627
53.0509519271236 -154.7716493415315 -3.5464576937266625
53.3788440827251 -154.70889744522705 -3.580810535673197
53.42646944431782 -154.67638684875894 -3.5651878167831015
53.96811772878635 -154.60539943902876 -3.4938373836353027
54.01736380244084 -154.5815527563259 -3.4894528438798043
50.87378183991326 -154.94128727918067 -3.7772306071073585
50.96059591786874 -154.96188034439734 -3.7719012523253426
51.03477215183949 -154.93506446384268 -3.7644495661579374
51.276495998668146 -154.9219611470575 -3.754678467008186
51.37194113341324 -154.89613430998722 -3.7621474663085444
51.42399575963548 -154.88971431211576 -3.7335867187129748
53.34377604455018 -154.61338417416107 -3.581849206390789
53.41571067606605 -154.6001399607111 -3.5182762836437953
53.95421384631039 -154.53234034041895 -3.5193720348634208
54.014846236698105 -154.5303032913351 -3.5025676140807316
54.092871869190056 -154.50136730424643 -3.4911598389981164
50.849275481767386 -154.90788008057308 -3.77971321577699
50.94292804270946 -154.87578437414754 -3.7652487754927275
51.05537219223453 -154.85510919466105 -3.770807122461996
51.13825709975916 -154.8400623379221 -3.753007395741051
51.225991815964804 -154.80603860609241 -3.7300562679470595
51.33107413924985 -154.80710889403574 -3.742593192266904
51.451163674981025 -154.77508136837895 -3.72671763014636
51.494454708737024 -154.7959908931858 -3.706347486049033
53.08831517224336 -154.5571124328351 -3.5284154498822926
53.17274368488898 -154.51729918169787 -3.509989234112726
53.35476803237658 -154.5440081068735 -3.581948170873999
53.4255980602767 -154.52153380781704 -3.4876917367794
53.475611145044084 -154.45561036654095 -3.4863411128419965
51.21036438349458 -154.75666680553178 -3.7290359219618088
51.43484146746682 -154.69188323547073 -3.7262474231709
51.47699604272548 -154.68043124044274 -3.7062628357893432
53.04156400183935 -154.41721486347677 -3.519103168755704
53.18392358532155 -154.41679008491724 -3.546098937488802
53.516946353961465 -154.3941747867918 -3.5059262801081976
53.57002685733511 -154.34465951151256 -3.483152597921107
51.43999927764736 -154.56256542529366 -3.709356662951972
52.86695587328534 -154.33854471635726 -3.554223483705215
53.101414255464846 -154.3483327974632 -3.5333030788160213
53.239561301667266 -154.308876015409 -3.5591227706016832
53.55514470586024 -154.29151224485886 -3.488108853951106
53.66944068129016 -154.28121351134652 -3.4586352058320435
53.72173232387931 -154.25560018384354 -3.4430287817052845
55.190162561530066 -154.04859550030605 -3.28532085599627
55.20028642825448 -154.0616053927018 -3.288127697096131
51.40948838663493 -154.49875400829305 -3.711022549151192
52.89961085597791 -154.25055559019285 -3.5825787899417056
53.58098075807575 -154.18316460790132 -3.4970292037390025
53.65448172853512 -154.1509708829466 -3.497519897022732
53.75029890244946 -154.1488091462184 -3.4588263295633963
53.812223981045555 -154.09965349007607 -3.4440468340372488
51.3936313032383 -154.41971509043282 -3.7175672139917975
52.60020515034911 -154.1956321915879 -3.653299225789004
52.88760867067293 -154.1632754834141 -3.592806950880904
52.91792452200431 -154.18542479879164 -3.6024209123893405
53.669313508487825 -154.07612116202068 -3.4963488196800765
53.73997943283098 -154.03817774923473 -3.5017719569194434
53.821593620960755 -154.02487867316287 -3.46564162165433
53.928460281809464 -154.03144447936253 -3.423418419036084
52.18878883207169 -154.1281657397758 -3.6685578334225437
52.440972946726596 -154.10228483643004 -3.6402813958198714
52.5162121723343 -154.10372561393413 -3.657701082996329
52.91018012957217 -154.034222880917 -3.56982911043148
53.65858095445876 -153.99731111458829 -3.5127994504642417
53.702130863397656 -153.95059566622837 -3.490947389179978
53.79798908843301 -153.90911578703887 -3.489581071403527
53.88892722798553 -153.96396118894117 -3.451548905066963
52.14596674719687 -154.0605147986743 -3.679106176376933
52.22502393844945 -154.04612594136012 -3.6633701932535034
52.369780454053796 -154.0008952038487 -3.6450303180709285
52.41410190503617 -154.0310663642537 -3.6377994956471986
52.4920602571698 -153.98652422574276 -3.6612267744046365
52.81080735526106 -153.9572413698254 -3.6245925224015267
52.94136136110556 -153.93253117696804 -3.5892014809376787
53.733965085508196 -153.866623445118 -3.526218538192141
52.0706131737444 -153.9939229181222 -3.645326006924747
52.10733904574533 -153.95299818783604 -3.6733775526484984
52.24178519116773 -153.9471220215924 -3.664602442827088
52.28793955068431 -153.9298964821101 -3.6421221974806204
52.3968633233412 -153.92932014278085 -3.6397461727841383
52.47273610871011 -153.90181454129961 -3.6538354687655024
52.70949035465504 -153.89927056803953 -3.640440143521736
52.84429793732637 -153.84385756152446 -3.562316395227782
52.914666684740595 -153.87730136060375 -3.5786752971921016
53.86751744305321 -153.75081783316267 -3.4739199370795903
54.192721295525 -153.69920299480304 -3.382728819017998
52.09403796387758 -153.9090433624187 -3.669028738794263
52.28308995439195 -153.85909710855816 -3.670618708024462
52.81472748626453 -153.79472810954107 -3.551897865783914
52.907443149374906 -153.7565742848323 -3.6001142073688768
53.718918298830175 -153.68439027173585 -3.5206718245915316
53.92546129028346 -153.65362239100452 -3.4711116034008533
54.26820925740872 -153.55272990075352 -3.379619998453447
52.79332347548915 -153.66944867867076 -3.5410492961968436
52.87286319667581 -153.68464526488503 -3.591613810799155
53.602215094896174 -153.53805893445636 -3.52564728546
54.365154927705916 -153.41756050911388 -3.3965709563214146
52.83565974184317 -153.5241580966164 -3.575770293331502
53.62955342506473 -153.45038062645602 -3.526867395907939
54.36436868933809 -153.36135253578377 -3.3942434808714994
52.88068935646972 -153.42138014959573 -3.5893313741462918
53.27517375079002 -153.371758063142 -3.47855724792768
53.672035546181284 -153.3232864563358 -3.5192426160326384
54.457407670962375 -153.24129780206874 -3.393850194922212
52.785620039209014 -153.38882840782966 -3.5561145271343615
53.659956612787845 -153.25927369758375 -3.4696074597613666
54.53221225182738 -153.08384346581136 -3.4041558739716553
54.62418487190907 -153.12751435404226 -3.4086441188715
54.72140473884041 -153.1060495399855 -3.4108217393260056
52.75944842620928 -153.23257517434752 -3.551813001145292
52.90891890863563 -153.1124122544414 -3.506999552872089
53.79575164712104 -153.03776793409585 -3.4979925577089426
54.57135029479189 -152.90918944086874 -3.3598787896746756
54.66625629423645 -152.8983721881888 -3.4078287291238887
52.90349060228385 -153.0830883552395 -3.5119554242996225
54.66654352109963 -152.82272051754072 -3.3982379640075915
52.897591897620636 -152.80832278838503 -3.5035756959504694
52.92409715096996 -152.83079502583752 -3.508188825051538
52.974154679306004 -152.76631120515177 -3.5163668295149133
54.85657903882692 -152.0155043587359 -3.277570027451327
50.95239760662109 -160.84552239683703 -3.849737558470709
51.00685550754265 -160.84033544201574 -3.834722883018412
51.07118576727135 -160.78823680322554 -3.8120205694155382
51.169480714027536 -160.78052104013625 -3.778908782928509
51.39670507576386 -160.747360667556 -3.7583352330151634
52.354683427575644 -160.62567313809302 -3.6918637571855233
51.02071765212366 -160.70153308934462 -3.8221006414423706
51.068733563069266 -160.71892030876577 -3.811251013064187
51.13502035507855 -160.64673617241388 -3.78577524349012
51.374431125299374 -160.6565844749756 -3.7657092256108484
51.961265909426096 -160.5693235251124 -3.7184927081671786
52.34578514895264 -160.47654279807622 -3.652401019729093
51.000332295478465 -160.57247105338587 -3.8221489296402735
51.075617387143154 -160.60793044051158 -3.8032001900072476
51.2542738465233 -160.59681502108367 -3.732395824121104
51.34859630544699 -160.54196235261276 -3.755792074706513
51.56321377532413 -160.50719355976 -3.709578186826338
51.34669620766043 -160.44603043346814 -3.7433615790808368
51.41656168348914 -160.4791716157339 -3.753546036118988
51.53583238151049 -160.44520335119745 -3.703356270279257
51.62137914586664 -160.42001066651008 -3.6920850713950086
51.775451395911524 -160.35438045124067 -3.6858937290601976
52.01874244876983 -160.3112430810646 -3.691740981410722
52.28861387802493 -160.31266619326638 -3.6680870754639776
49.71111253138667 -160.5696947607016 -3.9024415999515574
50.99800719731884 -160.41738499049848 -3.7984192769007206
51.36690836984299 -160.36995297204373 -3.7416265135608215
51.383359466913646 -160.36764061384932 -3.7398143154435424
51.92964275907795 -160.24033380575176 -3.7220056090453486
51.984633367641976 -160.26002849123256 -3.6868540747922354
52.256394568799536 -160.24049752701296 -3.6597990917391767
52.277522106978225 -160.27039803954384 -3.6795583424456817
49.76684230795173 -160.46318998015934 -3.9416708142862076
50.84300260284247 -160.30444852842635 -3.7947012343888162
50.92005047693558 -160.32843485749373 -3.7915873197406587
50.983135769986276 -160.2933284645982 -3.7805884559430183
51.79699267296607 -160.20267378525054 -3.6898194901062746
51.945647880460875 -160.16660918679878 -3.7085391712062044
52.0089353203847 -160.18552076036477 -3.6896426147824544
52.25084207374943 -160.16327590267187 -3.664865021096393
49.81891393852738 -160.39298125093694 -3.914963624585761
50.768430044849666 -160.2304113181904 -3.8215694698556666
50.92392249031708 -160.23353262687365 -3.7765979560998635
51.80358327059996 -160.1223286112408 -3.697623424277488
51.88289294970687 -160.08205611502476 -3.693838905394054
51.99146478547517 -160.0488213895475 -3.6799116956932894
52.21767396413135 -160.04330643700527 -3.6646449638879943
52.23946323486164 -160.02363308737353 -3.659524899027767
55.22675963996132 -159.6364227303321 -3.3435124319861678
49.897448347450236 -160.27772247960147 -3.9440944230948225
50.705064729689035 -160.13863220802727 -3.827495785326593
50.79102596026943 -160.16180029643144 -3.808366111657798
50.86471892364923 -160.08902705923057 -3.790028481380938
52.15676518361121 -159.9345716167434 -3.667580879561276
55.10886907923287 -159.50685255744042 -3.3487432718422903
49.97191730409022 -160.14857718552622 -3.902587542667474
50.69011535545419 -160.0244703788638 -3.824477408816972
50.7639309353858 -160.03160414186928 -3.8080967458030206
50.85252445765237 -160.06054046161714 -3.7864266493930514
52.090935562161775 -159.83389632008996 -3.656313796693477
52.150273812453854 -159.8449938773196 -3.65305189464971
54.902849426312066 -159.40909471762288 -3.330700195192881
54.96389040099474 -159.38732381571813 -3.3457940457529665
50.0412410014299 -160.0454225983702 -3.905737655698585
50.65373589441265 -159.96004286487786 -3.816440943898047
50.756771373015944 -159.93564705214789 -3.810562376445429
50.835502025537515 -159.94333900687093 -3.783316733036778
54.898025240815585 -159.33531752599313 -3.336581812829584
55.01026305104887 -159.37132711865368 -3.34102660634954
50.07586854272078 -159.980791988989 -3.9127522677402933
50.65488399067935 -159.85745323440156 -3.798574681300111
50.752752854370016 -159.8292578873587 -3.799366655001182
54.821210889354354 -159.22533521289375 -3.345594810306426
54.98622584756281 -159.20133507599857 -3.3051174931346163
55.07635706117841 -159.2520067800972 -3.3016081031951474
50.61460606345583 -159.71198783549903 -3.79026267982724
50.7282154998904 -159.72359989989636 -3.7853439666718236
54.74304190071691 -159.17161574965945 -3.3334722604980316
50.63475254839854 -159.66386629214904 -3.799793783624418
50.714164871744394 -159.61902167058201 -3.778326676646898
54.693698014638024 -159.0936346532685 -3.3298726688893026
54.75613039484236 -159.0627508379741 -3.32441386814716
50.69154685695237 -159.55945876386644 -3.7884419229264266
54.661837703049834 -158.9632938802373 -3.334904028223651
54.69534797852435 -158.959251520474 -3.3284776007628842
50.49836398454167 -159.4636790000696 -3.8668791711592254
52.27646000156511 -159.20105549911983 -3.6187279319824146
52.352799254777715 -159.17069060023047 -3.5943136247742955
54.92282992895566 -158.87732994017793 -3.310501696903546
50.57499756795455 -159.34974980124878 -3.837595771766794
50.6578216154725 -159.30054944692307 -3.794696067543951
50.749573000690525 -159.3465454255212 -3.7730954142661304
52.26147561448227 -159.1179819476726 -3.6151930514480948
52.337539060107964 -159.13907056776205 -3.589342020309184
52.40846524816237 -159.11645938608925 -3.5790383474803233
52.833547596849236 -159.00127910242026 -3.532969600371927
50.58574745166523 -159.28173050605346 -3.8430634801605725
50.68228190588496 -159.24248218780167 -3.7963707445881054
50.75636473452218 -159.21311514590872 -3.7617240075202374
52.06879679047438 -159.02509210694032 -3.637141312684147
52.14175440356868 -159.02860881852953 -3.6098255789566744
52.21680698897341 -159.05756071362524 -3.6121011025940795
52.293249926977076 -159.03984884749045 -3.5964701531712473
54.439496591046094 -158.68550278978356 -3.3685578799951723
54.45713857459909 -158.70467474563986 -3.3584131730787345
54.59022182971934 -158.64852346956224 -3.367911871801957
50.673752153186435 -159.16853269684663 -3.8213061792303087
50.74602842055778 -159.1699282358981 -3.7711407185334327
50.815130936384335 -159.16310352654767 -3.7529776563825425
52.03948532810243 -158.97112406515407 -3.6315401839413566
54.212662400701134 -158.59515540968218 -3.45037128117659
54.40936243196882 -158.5775812397828 -3.371708306601793
54.49073810668153 -158.5757652112642 -3.3625743995745414
52.02234809980943 -158.89460532187766 -3.6312739430351515
52.79863858217578 -158.73464400052086 -3.544745521117586
53.925809682385655 -158.60105631735962 -3.405095877469164
53.94109321118866 -158.59890793856303 -3.4034123077096132
54.16145945318909 -158.5040820547577 -3.4327774212709707
54.26413330271353 -158.56879683668654 -3.401266410929101
54.37043377781544 -158.512282510668 -3.3622991495900982
54.48212870158765 -158.4843397137049 -3.3551729041626306
54.54517020296409 -158.47368884698108 -3.3733982382562866
52.7729784585959 -158.64937527398237 -3.557549845006616
53.868158826326045 -158.49683914528373 -3.406788654308582
54.09293900577726 -158.40631739556127 -3.45532957439797
54.156527763995456 -158.45547613520682 -3.4037222286394426
54.46654590638628 -158.40003699502182 -3.3561668218810574
51.89034805313133 -158.6330574310976 -3.6777112724750007
54.07566109064666 -158.3314619144627 -3.4627396859023265
54.389088928666204 -158.31309812072587 -3.3702279336004723
54.43166259370499 -158.27493446659983 -3.3895256298922534
51.18751489297887 -158.66349646196932 -3.77736842043975
51.897553342949756 -158.55221469693214 -3.660386613975473
52.14044089359573 -158.4853077116238 -3.646503111260973
54.052381648902404 -158.2439330603411 -3.457086774601029
54.13535301314335 -158.21950827580537 -3.4465995583228763
54.249672581368806 -158.2070709038901 -3.4098939064951366
54.30757152787225 -158.20306968815237 -3.40416818190588
54.413402894417494 -158.21707281117466 -3.416376528945411
51.218229394000566 -158.5982722684341 -3.770551447213867
51.26532225137743 -158.5629670054112 -3.7737978187435828
51.90703880704036 -158.5009248802923 -3.6581710548747557
51.96359983842595 -158.44836731379687 -3.6632917673223973
52.055715692380375 -158.42700151575175 -3.6547095216787637
52.161244618779094 -158.39786599729806 -3.6458447724973246
52.66699899909581 -158.37222749163735 -3.55926116124905
54.0349510574171 -158.15410648979025 -3.4412415068084306
54.13012928464281 -158.13650736564216 -3.438941938123699
54.21593214573408 -158.13255778088754 -3.420849748100018
54.299497680801885 -158.1316171319552 -3.4095007053667246
51.34271998294454 -158.43259049599033 -3.755104755976874
51.66476511306786 -158.37289062657013 -3.6468437118251305
51.734429444415 -158.35525788095754 -3.6669016722681063
51.96920734752832 -158.3611970624089 -3.6863084492331977
52.02940817758607 -158.32597163957996 -3.683031547539943
52.18173159656221 -158.35438634314275 -3.6398545689119457
52.20386374842944 -158.3409436969353 -3.649220056912523
52.6347759334359 -158.2851540614686 -3.558355071024916
53.94501092981326 -158.08413701105667 -3.444840235561347
54.03637319936047 -158.07459359431573 -3.432915216824929
51.38703851591934 -158.36613602766897 -3.7371266458487944
51.424221373477515 -158.3130453494128 -3.734974021290962
51.778913359113815 -158.31066904025246 -3.687672447791086
52.04209616513668 -158.27260175715872 -3.675403615167303
51.46511102606567 -158.2626135658103 -3.728482400577085
51.488506221324776 -158.22594556067426 -3.7248869300077505
52.522237306121525 -158.0538345126924 -3.5706099751393516
51.614634096706226 -158.0701511792408 -3.7328923716974725
51.66482478790057 -158.05872422761016 -3.727724347448283
52.50401519456601 -158.0043532925029 -3.5667730440877747
54.674126472452315 -157.61292311344292 -3.3749758386616837
51.39098906646274 -158.03068659405503 -3.761259061885706
51.505684006612164 -157.98224449080766 -3.7435100672445154
51.573213469866865 -157.99016796280367 -3.739392324138889
51.70841657099892 -158.01185370107206 -3.719612869178005
51.74711631701735 -157.99720474825486 -3.7114222030646924
51.925158097150806 -157.9341736594008 -3.6983537089120686
51.96499443066455 -157.95002622493226 -3.683377161434967
52.46710605196022 -157.86073083208038 -3.58036297144503
53.287742592374464 -157.71863891956875 -3.495421201966402
54.35734738998377 -157.60557577272726 -3.4001564088521787
54.5562933461202 -157.53310171454447 -3.3886378072388728
54.63603520918272 -157.57192703041417 -3.3890710499609153
51.51536475263618 -157.95500218227667 -3.737315808179232
51.56921657325191 -157.94583571853065 -3.7372155208457163
51.792112336219944 -157.8338578611287 -3.710008523478539
51.87390211074162 -157.85045229907098 -3.700581926371692
51.93868841336822 -157.86305347700332 -3.687344928339603
52.20844753827883 -157.7611771100694 -3.628896403367349
52.21552175110658 -157.76132493395409 -3.6393115160538634
53.05828370119658 -157.648342934566 -3.5110861178161836
53.18531026141459 -157.64791846224432 -3.4936136839103766
53.223671150585524 -157.64362186058756 -3.498797430538104
53.42538050973414 -157.58609406771092 -3.5320071501953056
53.6517940080498 -157.5534249083254 -3.5024050271598615
53.83420172148631 -157.53085249864654 -3.475460420756744
54.463037909343406 -157.4377206084263 -3.395406342886104
54.50057390386046 -157.4715411871034 -3.390891035350671
54.59340129227699 -157.4308855941179 -3.389944437993867
54.73061543105335 -157.43994396624385 -3.36884239061897
54.825252712392405 -157.42750918454095 -3.3380632307613984
54.91596229807649 -157.41489531652985 -3.3263936628851827
55.00047128548776 -157.4179759245336 -3.3260293190236543
51.67372307315704 -157.75746155548313 -3.7261924228845995
51.76495410171598 -157.7843911645282 -3.712518902678974
51.8323345033087 -157.8107593062488 -3.705381438485294
52.18432241881504 -157.71707377345726 -3.6404073228557214
52.21786632907249 -157.74271142773284 -3.638988839008728
52.36721947323353 -157.65439030862638 -3.5968285048889896
52.985221412154814 -157.59932163769844 -3.501349068610669
53.01399149664791 -157.60907601438865 -3.510209134022389
53.1293472605009 -157.53624998709432 -3.513912310742331
53.249271703903304 -157.55636500857025 -3.514873126096257
53.326619811078125 -157.5334680195599 -3.516874820438174
53.45810988660305 -157.51133250977765 -3.5117175704275256
53.519977829712055 -157.50904484718697 -3.505085826473973
53.65458632032214 -157.51506287827368 -3.4981272295293495
53.71206432255026 -157.49890498695783 -3.4770531720896916
53.80790793730732 -157.48907060111918 -3.4679543392511505
54.41906668444502 -157.38453975030856 -3.3907125486962553
54.49558099510818 -157.40567445281604 -3.38954677734427
54.84223158704479 -157.32404447771887 -3.3267674989725866
54.89058950716091 -157.34927413836826 -3.3219330802120406
51.296067337151555 -157.74880464771147 -3.766644493285494
51.65935011950851 -157.7198114796319 -3.7279649804200745
52.27711460878111 -157.60108454416053 -3.6533269591406485
52.31562695243919 -157.62671862931757 -3.642649372661474
53.058130086068246 -157.48528297658598 -3.5184867160388835
53.1256746578037 -157.47364746165843 -3.5088601170499394
53.22587481268566 -157.44464216968083 -3.510887136687879
53.30936995545816 -157.43967347094912 -3.4970376649036132
53.39420592191324 -157.43993740145544 -3.501912970514206
53.64283769251974 -157.3477984060592 -3.4830520331080455
53.67983704977767 -157.43041331973632 -3.4963437301540097
52.80510353877283 -157.38330457468896 -3.519061745772843
52.895787084197025 -157.4260453312655 -3.5396516122696586
52.99268634838173 -157.41033647510002 -3.52972301963201
53.12425638989278 -157.34656930143885 -3.5281406785344585
53.206344206998985 -157.34962830044904 -3.5062483620628275
53.29228399293543 -157.32270911734486 -3.493499672817055
53.37632615050003 -157.32268992576118 -3.4947004792107106
53.610340785992335 -157.31728934964354 -3.4688943082783816
53.83014919731973 -157.2240916221227 -3.398108466259187
53.84583597208334 -157.22722334314886 -3.3945336981608114
51.933236478641064 -157.41885363006452 -3.688459042600727
52.003891273180294 -157.39877451593983 -3.6817226540363697
52.09726395897051 -157.40746407362192 -3.6690998860782287
52.44266475315342 -157.33683277357795 -3.629873889847917
52.466148143721966 -157.33603723753666 -3.6269720789827202
52.80559915357197 -157.29973898125013 -3.5703789782000546
52.84927819959227 -157.27031796408005 -3.572843754464217
53.09393067121096 -157.30669706480424 -3.5396498345439436
53.197090407996185 -157.25035277208286 -3.516940304315012
53.27516094466389 -157.26469419354646 -3.505197524638401
53.351458066659134 -157.27772423566293 -3.4808803755003783
53.79188272331253 -157.16584080678055 -3.4193447634771097
51.5327645645872 -157.39650942860862 -3.7134967218633923
51.59290646176395 -157.39609191082715 -3.715985783330341
52.0336563591296 -157.36667511901388 -3.675908982398213
52.062275386561794 -157.3415444179596 -3.6709682683772242
52.44235783729709 -157.315361181898 -3.6303742118689613
52.458638798452625 -157.31264017377353 -3.628239422068859
52.60602945615972 -157.20608437118082 -3.6076188166955703
52.675607801481036 -157.2247037474164 -3.6050176561549026
52.76778782902055 -157.23564500965776 -3.594461153071964
53.208546405387864 -157.17981313221526 -3.510277772003101
53.24377033734807 -157.12259113105424 -3.494830166265266
53.414865508716915 -157.09330398600176 -3.465449025662461
53.475496669093744 -157.10378832376924 -3.4699118781378475
53.53430209458843 -157.0658327698362 -3.4589626151654587
53.70015286911139 -157.0623664585018 -3.4466615823894866
53.74036864835051 -157.0688661684674 -3.455781786193617
51.52116673737779 -157.34155049487026 -3.731505126220126
52.587491567702536 -157.19241006939453 -3.6140294934669734
52.68223537626603 -157.15723864060686 -3.5998835046395246
53.11255043761633 -157.06448068795527 -3.5590517035026825
53.47401787528325 -157.02231151092812 -3.4418664809977555
53.52787158902171 -157.0521332523933 -3.4554609568459465
53.66623505721597 -157.00498841740924 -3.463076252212506
53.71784895808261 -157.02605652502936 -3.466011250372936
53.24096552495146 -156.9725244406884 -3.4489037849982833
53.325503842315186 -156.9443667857713 -3.4448737019004416
53.54359875375748 -156.9318075772911 -3.463640612163941
54.282850931922404 -156.80545416282132 -3.408204305396363
54.34550554806578 -156.8229337757373 -3.4187427043021636
54.454105069722445 -156.73212706874426 -3.3997701031903524
54.51660001512765 -156.73576329540833 -3.3678038206000203
54.57250446238177 -156.71733436463578 -3.324359751017836
54.785439720368416 -156.72083594099988 -3.3210513268394934
54.339643116642684 -156.65127557950711 -3.4160053995794732
54.4056668830872 -156.68307196827257 -3.4009506120042268
54.4866233485735 -156.690186471396 -3.3168562605653404
54.288719597624045 -156.60501258782082 -3.417375461565619
53.2459405784738 -156.61792178525533 -3.5154952349671973
53.25965594303581 -156.6142357005489 -3.5244234415831754
54.333236035673806 -156.46773984452955 -3.396204045440005
54.37580478497185 -156.4725358766702 -3.397854933515068
54.31686300734567 -156.3487785029018 -3.3991895353363657
54.36714803873703 -156.38667644964116 -3.4014300633664027
54.496059809803555 -156.36604565443636 -3.392655521363893
54.30559832186612 -156.31617945988296 -3.404089889525987
54.332936589856665 -156.30711614998114 -3.4090814948653136
52.996251620071725 -156.35751754018406 -3.5568213513902047
52.91511476390765 -156.24860670372496 -3.564385069216237
53.002212671672225 -156.24961747383614 -3.5043905044393098
53.96864589559128 -156.11350054449997 -3.431307715397121
53.99681752771412 -156.11155882580243 -3.4339711026758706
55.41177519814291 -155.96740370258837 -3.23976418440395
52.73456934987775 -156.1965575441839 -3.5668857788213932
52.79869477973956 -156.2084437988277 -3.577033756604638
52.921314013062926 -156.22561879418208 -3.560274084672205
53.048229331924745 -156.14964695879 -3.536434341663216
53.92994775125071 -156.0838257060748 -3.44673166232725
53.99540537593063 -156.06999964004663 -3.437068139688919
52.80762056221886 -156.13784464040864 -3.5743257104329835
52.99795878320821 -156.068497419383 -3.5314389320241815
53.08364316987125 -156.1095474276559 -3.5426633317432854
49.09447765128871 -156.50863977162192 -3.97198442669981
49.16118161593742 -156.51945057374672 -3.967047225997829
49.22582056287743 -156.51633551635965 -3.959357611364305
49.004578919823516 -156.4458805262459 -3.978279210726705
49.050832008326715 -156.47847732920616 -3.9661567296775937
54.600392505983464 -155.65795505042416 -3.3610492020658556
54.68167951076367 -155.6530360397866 -3.3594972578153803
48.888988986837475 -156.37380022131939 -3.981354032369378
48.93050781349 -156.34792915036334 -3.9768175159764048
49.0272491608238 -156.3415527063403 -3.9532330653707874
50.23796469430499 -156.1498311596932 -3.8171109244815664
48.81687581864992 -156.25644974834134 -3.991737050918925
48.93327676894134 -156.29254856880576 -3.9737575299590544
50.12865760901747 -156.07705190322025 -3.8535554421517073
48.66434570259466 -156.1922306907759 -4.00025755996195
48.71291124858662 -156.177555811799 -3.986309465722063
48.794836614275 -156.21173582520709 -3.9723669145270786
49.209684608482895 -156.09402089322936 -3.9608910888582347
49.609786578404716 -156.01420760137876 -3.9103537517446703
49.70504849416052 -156.03805568798478 -3.8995617015591604
49.79551436550875 -156.03660473155577 -3.8959368852523224
49.866473416359824 -156.02958195903724 -3.8873117174917806
49.97665384324155 -156.01246730161895 -3.8726358592888914
48.609498887325024 -156.102863910069 -3.988916005967729
48.736727818451016 -156.08814140912244 -3.966378256998548
48.797714432252455 -156.04436523059766 -3.9498492017461917
48.908466024493464 -156.01638292479984 -3.963077423662118
48.99373746972602 -156.029790641403 -3.9564105464188226
49.13042931280924 -156.05701790441148 -3.9529032298946594
49.579643800082785 -155.9914289245272 -3.9146127787228626
49.70040439877616 -155.92208067430406 -3.901936401616803
49.75918940761016 -155.9496195966283 -3.8975767406243658
49.90158303194724 -155.88417374037374 -3.877462666060555
48.631384399279185 -156.01060273381594 -3.978885634000986
48.677574983177344 -156.01249734955087 -3.9666368242429417
48.81057048297622 -156.01212663528344 -3.9494285294466636
49.8197644136478 -155.82162850837753 -3.888087146378113
49.887421449456056 -155.8267909692728 -3.876891802102758
49.98168164203454 -155.75958763724367 -3.8535696167858475
50.0790900555653 -155.75123002398607 -3.8611610066072584
49.88842243277525 -155.68774617221348 -3.8393594397945887
49.95129595369128 -155.71313031449012 -3.8516390601592403
50.28415869543212 -155.6171684644205 -3.829909825783145
49.741036132453445 -155.61397162135236 -3.853233110255565
49.85548905091701 -155.61462373972657 -3.8528541714480236
49.914382669465745 -155.60417768454715 -3.860518287927851
50.18432985201551 -155.53552573584042 -3.8358289696691714
50.25757106113465 -155.58533882052234 -3.830247454203093
52.920445291501366 -155.1571955875034 -3.532313133351775
49.56276612239986 -155.53367142863647 -3.8648040997826287
49.613353567682104 -155.55321571156696 -3.860215559449121
49.72102811278074 -155.5416521792784 -3.84952974605305
49.83861510179299 -155.5229681384979 -3.845347590984819
49.90322059257767 -155.4989784576193 -3.8383323019336304
50.041906387634896 -155.4702406404252 -3.852212157006373
50.10847054322385 -155.47614302894377 -3.837153697126485
49.72159684625092 -155.44190831091996 -3.851390779142801
49.81612158181575 -155.45952369222752 -3.8418828608918636
49.90286787557021 -155.44029390870412 -3.8478928420055274
50.00182269155151 -155.3947665429299 -3.828886661735968
50.73815040948023 -155.2500663261249 -3.762002933072869
50.7546185416103 -155.25210796615647 -3.766516643303274
52.873714151604496 -154.9586057371605 -3.4988951464070874
52.93284270925578 -154.93701226085932 -3.508569146948132
48.6170685461384 -155.467503446683 -3.9508191160956563
48.705325689983944 -155.4723978630227 -3.9486357841593662
48.79484220714427 -155.50553615147095 -3.939357333898871
49.63220804714282 -155.36110029103432 -3.8557040113781147
49.66242466657269 -155.36235444719543 -3.8431557102249627
49.91524616665493 -155.30400627336516 -3.8412526382542334
49.9609577444373 -155.33371897361422 -3.8338220664715252
50.58657385667394 -155.1754628649169 -3.740713804376208
50.68716923187853 -155.18139857191255 -3.7507801855232126
50.786407713101624 -155.16363552531206 -3.7502142948325687
50.893413871335056 -155.14359249336283 -3.7559320399255958
52.76884763806996 -154.94399540543225 -3.4670292093304718
52.838226319888456 -154.88808301380809 -3.478809047221197
52.95143732693846 -154.8529263464588 -3.5142043518957156
48.48990865681981 -155.41273998273178 -3.956010986178382
49.51411349784933 -155.246236368507 -3.8534878923267533
49.55025640870388 -155.25977800112366 -3.846972517107294
49.67042508460228 -155.23561494127273 -3.817017886984376
49.811127906277974 -155.1927979074667 -3.808292540464495
49.85182876390709 -155.22277618200806 -3.8289977751931326
50.45409940734222 -155.08540803714388 -3.7144751403062126
50.60684921283647 -155.1475767056701 -3.7651931342353064
50.706941700930315 -155.13784055653514 -3.7372054115488353
50.78387750068897 -155.1123691291484 -3.739924429757413
50.86840500531101 -155.09080021850622 -3.7538415777423255
52.83427617662361 -154.76733819715292 -3.4778356295386237
52.940382921864604 -154.7794001314237 -3.5044765053621996
53.01792717543925 -154.74648465285227 -3.515641978607111
47.920762284234485 -155.42849567552747 -4.002355532285884
48.22800048904243 -155.31787251661459 -3.9990292314649256
48.31373674955262 -155.32734180131646 -3.954778522180586
49.57968671690781 -155.17049588849432 -3.8363669522781603
49.6532176775216 -155.13431143404847 -3.823550078101049
49.73206966292126 -155.12811856916866 -3.8137458450132335
50.395463576214205 -155.05881711976144 -3.7298147155963752
50.42480803979337 -155.0740554496642 -3.7216232430425533
50.65949937148685 -154.96627316218505 -3.7327517602321056
50.792972727911916 -154.9687944625174 -3.7480027148743513
50.84084732246929 -154.95180136225946 -3.7509774595362773
50.96097536954661 -154.93762519007234 -3.7476746127461866
52.92701529608253 -154.66746075892001 -3.5028190875261567
53.0313210576865 -154.67585542444291 -3.508894984656373
53.0836406020964 -154.6445671956384 -3.4868879706959524
53.41097412487893 -154.5790297620018 -3.4704708059045952
48.16789321000821 -155.25948510354684 -3.99376207726006
49.51504586096939 -155.0256006792207 -3.8459681421286325
49.62338878347987 -155.07327599069026 -3.8249076211724553
50.35015528699413 -154.92879806137086 -3.7307688129870242
50.41749872624862 -154.96125371995493 -3.709968843747423
50.546795723500615 -154.92951715238038 -3.702760060684168
50.612885622913495 -154.93589275967688 -3.7082190510974433
50.77163941772833 -154.89690744668764 -3.7577773408903963
50.84040717768816 -154.89049812336498 -3.753269260223892
50.93308375584172 -154.86400333937 -3.7276223301932783
53.44406257972039 -154.52389097611038 -3.4734829487977636
53.68499595486102 -154.43812542991432 -3.3953584575903175
48.07884066877532 -155.16065872194173 -3.9965680498849663
48.177367312653516 -155.17401742927308 -3.9654395883700464
50.27558804072924 -154.86581857428467 -3.7434640328337214
50.30004932121534 -154.8751582630619 -3.7417168729546963
50.86094512170025 -154.73749190193786 -3.7218880897507143
50.899036281599855 -154.7856009385093 -3.7226618451326536
51.04198591273107 -154.71574302310523 -3.730300275354532
53.0156032846808 -154.4423961603423 -3.5161494842255236
53.62602437850621 -154.37642063796574 -3.4487096734222833
53.69645577485371 -154.35056728992706 -3.4242418154453347
53.77804458960924 -154.36813620957807 -3.366624645644206
47.96040161857425 -155.08960578927528 -4.013530913991961
48.0383115758693 -155.05797672027495 -3.9771846542205287
50.648912552366006 -154.65263928303267 -3.7136857421830882
50.65757346282179 -154.6656505495596 -3.719323269816276
50.82905186696175 -154.65073464269213 -3.7383818676967895
51.03605411681913 -154.6425140682108 -3.707033143372272
53.81182657688617 -154.25754437337488 -3.3965431964342865
55.13771784883699 -154.03479059073987 -3.2592875045719887
50.10886659525558 -154.6721457007553 -3.741954229974464
50.61830405912308 -154.613351659252 -3.715238752400865
50.715744649444275 -154.56043819152157 -3.7188040905797006
50.78377511670193 -154.60322931751992 -3.7463413910739205
50.901475681281944 -154.52291232521094 -3.6781016834984923
51.00393026241639 -154.49789043234495 -3.6799457536125915
51.0455833564982 -154.49705592135797 -3.6949955172419715
51.329301976197726 -154.4670434425425 -3.6686072489921715
51.36182117979827 -154.48399385856953 -3.683872318966608
53.60312672327089 -154.146436342315 -3.4497171076134396
55.210567208435265 -153.90749632372433 -3.258416359594538
47.80397712664552 -154.9547270145655 -4.027564651909287
50.50369724306917 -154.5024591157428 -3.6931419748489214
50.56929549297307 -154.51500094963262 -3.704811116046821
50.67904631041595 -154.52064217620563 -3.7241344077688767
50.87971820067133 -154.45677059831647 -3.677337127353183
50.98143069893667 -154.4660295562329 -3.6874584480140262
51.04225670971435 -154.43437620882264 -3.674292803596535
51.304507583385494 -154.39475539823925 -3.667255282297236
55.25842013844164 -153.8008098401594 -3.255643917459825
47.604055166958396 -154.79071975881888 -4.030782891180782
47.69105758027469 -154.81425764950265 -4.012280459666593
50.80004251949479 -154.3380292859486 -3.6638775655210933
50.82778841342675 -154.3643412780799 -3.669091536436177
51.00635322104543 -154.35985880139754 -3.6737275995265657
51.03367805275545 -154.3641102047696 -3.6684101597458696
51.202816256003764 -154.32736096720987 -3.6788981710638353
51.25213036930664 -154.32810474611367 -3.6749377548894597
53.552827043100926 -153.93576069919237 -3.3614159905681613
53.635269332667235 -153.99302186959505 -3.432099863401653
55.30230385658948 -153.7474392451513 -3.248385920670156
47.55971391559619 -154.78730547368755 -4.040550283170997
50.75217704086073 -154.27936903241346 -3.669289349806193
50.83465530394521 -154.27387611201115 -3.665256957302641
50.997749918217124 -154.28717843271647 -3.6808930014507624
51.011906414348964 -154.24020913594407 -3.660336239480214
51.13813285059388 -154.21069767623115 -3.643375530839148
51.233743116837196 -154.20459469674287 -3.66383252558781
53.278414717383605 -153.898890855753 -3.413732372487621
55.380232513992965 -153.6593719007033 -3.2426726311121654
50.7068623303838 -154.2161987384939 -3.674548683023748
50.795598031136144 -154.14332083033676 -3.661477228461932
50.9338078223589 -154.10963820321726 -3.652011262824171
50.99155069609641 -154.19213149470892 -3.6425490596249075
51.14332363534261 -154.1224840265004 -3.651676443175708
51.19304419399225 -154.14653586434352 -3.6594216973109126
52.763310120150976 -153.8998992786842 -3.5259852083902214
53.303998736355034 -153.85466581735483 -3.406733370694523
53.35304416617901 -153.76897136721377 -3.3874927403503983
53.62212619619493 -153.81305676064122 -3.373451770688346
55.15102764060863 -153.52931353157433 -3.2310504756265654
50.91528822077204 -154.0943304211828 -3.6568709838106175
51.13105392372975 -154.01490950555925 -3.6340108117301124
53.32942615234172 -153.7525569185306 -3.4327533297969506
53.379722963939265 -153.70140575762207 -3.3869467676335616
50.721714309112365 -153.9999828021663 -3.6718961946805106
51.11982345054508 -153.9626364935256 -3.628057033669607
53.40688318695484 -153.61465116310933 -3.4032307607703802
51.15272782865192 -153.80068160672826 -3.6100328881462693
51.24253985533354 -153.7902514417898 -3.610232360669506
51.85540884312235 -153.712364436742 -3.55793549885958
52.738504205342196 -153.61753021149852 -3.531602705028654
51.19828133006021 -153.7489033609383 -3.611770825754095
51.24498897873999 -153.74557648135885 -3.6197117041042883
51.70068957952189 -153.6051680591082 -3.5704708686888287
51.7423944846211 -153.63015859744266 -3.565145027623551
51.86913051883291 -153.62341398661766 -3.5737907897544448
51.91490482751941 -153.6293896763224 -3.567378465708708
53.23594719110302 -153.41839895664222 -3.4486925747395505
51.68376528272676 -153.55837450172749 -3.579168741571955
51.73880614398091 -153.57556142059806 -3.5699838720812567
51.898185759718714 -153.5525943016862 -3.5536799801676273
51.908219791938805 -153.5367584124568 -3.5638257802977593
53.25260982204521 -153.3143379314441 -3.448982789187447
51.83642759496194 -153.4482706977389 -3.5830782219854784
51.89595934499996 -153.44779566065284 -3.554664180912527
53.986980304587405 -153.00363941901796 -3.341845426234173
54.051620354439876 -152.96248800811173 -3.32829636848547
54.49179952511984 -152.91801046614916 -3.2805947670343523
53.98024766339367 -152.9045662048618 -3.3340074823690444
54.07996207537843 -152.8799912962177 -3.3051561387953634
52.89951206602404 -152.91178341091535 -3.489664730507818
52.9663158742126 -152.9317837394697 -3.400655188251477
53.3550766642403 -152.90216948735977 -3.3703302200184675
54.06219161808677 -152.75149918294903 -3.346076465514917
54.34236725818413 -152.72977821992913 -3.2888836332301024
54.583636333272814 -152.75100702203991 -3.2893677202572946
52.78218606839297 -152.83926674696093 -3.432485509206639
52.96318744004857 -152.8483549183487 -3.4307214543967746
53.412511099400646 -152.78942372733593 -3.384787328364665
54.0730752792507 -152.7344585378841 -3.3389333808179185
54.33687461646464 -152.66458817288975 -3.2786364071717413
54.38969392002756 -152.66189163358388 -3.2701674892578514
52.78368889170824 -152.76812657091287 -3.440073209359519
52.83807443209768 -152.76408558017147 -3.4285617716558496
52.9248551851725 -152.7482010493993 -3.446187824919376
54.49301831412622 -152.52180630501294 -3.2652157249725944
52.921361160721176 -152.65172560264784 -3.4282006357379693
52.82716163844257 -152.6044151868877 -3.4356813352280677
52.919638549457076 -152.5910887486569 -3.426221312949307
53.78941914846239 -152.45684210101766 -3.3039578256227533
54.69377846455508 -152.25427706700467 -3.253220273999348
53.76528036722443 -152.28891010696577 -3.304960153543528
53.834242765393405 -152.3263310191093 -3.3112133773967045
54.675050964445546 -152.21897216973377 -3.27678599478733
54.7230984972395 -152.1694942633616 -3.276515749598564
52.436431438798664 -152.43662680650888 -3.444875536191668
52.471946387137834 -152.43150867135842 -3.441242501196297
53.788399876127905 -152.2465074388878 -3.3241527366196184
53.83827133545688 -152.22408673459066 -3.347851298414042
53.864555563055404 -152.1488321785812 -3.3430815825401528
49.44210030050722 -160.91773083808334 -3.8516372900742644
51.632021122709105 -160.29190167942582 -3.6731469954641485
51.697724247207994 -160.27051084993403 -3.6642037988238467
51.735879259741935 -160.17885541422805 -3.6639992713174747
51.751673701911926 -160.17663533994087 -3.6622594015273138
49.856848560777856 -160.33769594395372 -3.871377353100306
49.875847239492906 -160.30677468114493 -3.8495346271377713
54.71219212596657 -159.19288714841755 -3.3247825101597996
54.92105523924377 -159.11037107427546 -3.301481418695457
50.600504680860205 -159.63666818211422 -3.728789196206957
54.762786534701355 -159.02396618558157 -3.307900073868185
50.61008342798027 -159.5907189547886 -3.708930827073951
54.68043027659372 -158.9369362638189 -3.313407064801778
54.73753611676505 -158.93745833091023 -3.304039724557524
54.82617138680142 -158.9289305663642 -3.291460768260826
54.62408913268919 -158.87274290337055 -3.31779769870636
54.6938550352731 -158.88381453185553 -3.3166378550534645
54.807334307281465 -158.85276802536654 -3.290819520963416
52.38147516740613 -159.10569913577552 -3.5672994397397337
54.4916768096615 -158.74465099022754 -3.343641371399135
52.121075307939115 -158.99834801513444 -3.601859261298922
52.8247288043169 -158.9342420132103 -3.5201607983505236
54.708447859055866 -158.69563120693667 -3.301494620740147
54.57262752948745 -158.5398883722109 -3.3032167711410128
53.8796673630969 -158.58247773341355 -3.3941585662155926
54.49450008333326 -158.45119273392626 -3.3085552624560126
54.54951674568491 -158.4988464056447 -3.310958796613164
53.83345068807416 -158.47134754883533 -3.3986038350040735
54.450078488051695 -158.4081901715992 -3.3276626693362372
56.25156177548584 -158.08362807086314 -3.074627560294893
53.75661958204289 -158.39827788040782 -3.3926131262878143
56.135240758445605 -157.99907610290842 -3.0975898425511583
56.21922393678838 -158.04075805998363 -3.079215809247876
53.71536214027713 -158.29785342457555 -3.3907183134880134
56.018976123593156 -157.9350752296795 -3.1162941643851747
56.05968515632169 -157.9581618700468 -3.0988308017639996
53.64237236088933 -158.20869310723597 -3.392185787381008
53.688233177859594 -158.23708867124265 -3.3958713649914043
55.91574564588004 -157.88932159895603 -3.0998097056708325
51.640045920465454 -158.39427300478093 -3.6364076137006425
55.89863783814057 -157.7410333130712 -3.1054428900813225
56.34491098139057 -157.74989252593778 -3.096615508581512
55.54401169386899 -157.70646882417952 -3.1174570912052313
55.6618990017288 -157.7121746964954 -3.1173946442301337
56.154735976935754 -157.65552719094586 -3.1094640085762104
56.239138309491196 -157.61299288566997 -3.095553684952472
56.32876213572527 -157.62229830621524 -3.0985485774777013
56.48596436820018 -157.5454619351937 -3.1008835539159785
55.45853877803308 -157.6389333095805 -3.128569550020198
55.55394957751766 -157.64032455152667 -3.1281105845462407
55.65014093162511 -157.61503591338433 -3.128938892504071
55.710379317484104 -157.62754478134627 -3.140986154172885
56.06438825929513 -157.55684634141357 -3.103760678975701
56.15071030549031 -157.54524633522567 -3.1182647853046435
56.209382868450085 -157.52404879187398 -3.0998904252961466
56.41137028377241 -157.4965261049102 -3.092342144664134
56.513485900218264 -157.49969210708403 -3.0800335626466038
55.52458850760692 -157.52217590928697 -3.1367876720048438
55.64659818529854 -157.54005590415517 -3.135194629273698
55.42457282892701 -157.47916535185246 -3.129813324697661
52.38620005979212 -157.65813290337022 -3.5409828317781673
53.898061368174965 -157.3191833732636 -3.3687176615734957
52.74300725058389 -157.39793504794065 -3.4438412372481793
52.765497708831695 -157.40193751462692 -3.4638590315816606
53.81594458430263 -157.24962578572078 -3.3738265266293896
53.858563408759565 -157.2805806239233 -3.3732577156119303
53.770312214435585 -157.17576286831275 -3.3889592274371854
53.21721257705758 -156.98720629690766 -3.437116573735297
53.3506577175826 -156.9037546623605 -3.421898216584719
53.34937327938778 -156.8719223668748 -3.4146870685846578
56.069744455091 -154.85434804594425 -3.057709951030542
52.75057885753684 -154.9464514737873 -3.456547853683475
53.97348868219035 -154.76412008523684 -3.2419026931099024
48.01172350140916 -155.4611802768958 -3.966117944260695
48.069699272408464 -155.4551798818806 -3.9200779807970765
52.509365059225516 -154.79311760964856 -3.3862431758097014
52.63882832482334 -154.7897237181137 -3.420072324005091
52.73657985640705 -154.77326267581068 -3.431939816773907
47.840388963677384 -155.40308613633437 -3.9671181708180496
47.90005717683202 -155.41470573996835 -3.9548947188686165
52.499607785764134 -154.7786688815673 -3.3864457352345774
52.64384259560459 -154.7522487225157 -3.4235560405194008
52.68383865215222 -154.73122181493324 -3.422771813732996
53.16632975854255 -154.5953345874579 -3.3389860735068275
47.75790648139479 -155.31444863557334 -3.9548585807960284
47.85956618851745 -155.35080706306667 -3.9265484917584415
50.37644395657754 -154.92765612910668 -3.7106918692836777
50.40881584932839 -154.95154371042142 -3.704967324366999
50.52994445940832 -154.91846953045723 -3.674241367744058
52.681109897009776 -154.64846032532998 -3.458345411252303
52.80194964500971 -154.577030258057 -3.381633632512711
53.219109430263586 -154.52724965451225 -3.345287017968235
55.69280948205871 -154.14577034568626 -3.036908222331928
47.71620997276203 -155.18517828447568 -3.9497574265332784
48.24906625905731 -155.1045955889254 -3.924910090263086
48.32956710988543 -155.11845900305696 -3.904252049545582
50.33396497918135 -154.87349740163546 -3.715791486330401
50.46241278617141 -154.80268887834285 -3.668935800513651
50.48656630741971 -154.8425044715055 -3.666540661331812
52.500746033318464 -154.53550352906774 -3.4018013936652522
52.85044835629463 -154.47677084125516 -3.371883934693024
55.698848230819976 -154.02168388094682 -3.054975656089189
47.536689021803056 -155.13570281833438 -3.984618680134923
47.712591116610966 -155.15897556547242 -3.9495349750509634
48.29195642766318 -155.07501638929003 -3.9035503045122537
50.423418904072754 -154.72728189135574 -3.6799345961157535
55.37366458482798 -154.0144308581981 -3.139564706253472
55.447366038276726 -153.97274489993347 -3.1436079049523085
55.531028743025374 -154.01450715610068 -3.0661290410831845
55.59680226177464 -153.9813862307465 -3.0744376510967144
55.78390074272855 -153.9781152682006 -3.057296631638978
47.522446993815066 -155.08195954402714 -3.966991215404728
48.045607892006856 -154.94854723666197 -3.9383888887218457
50.030422918309824 -154.65106608066597 -3.726385268495159
50.068148480880595 -154.6525452703088 -3.7283280561662657
50.33460660017168 -154.62975440764137 -3.6975993072007007
50.3727939859767 -154.63178415079827 -3.6856569418109357
52.54118468654073 -154.3528618446955 -3.4188680684397936
55.51943037969275 -153.91416678745483 -3.12770745507908
55.64877671867605 -153.89074518894498 -3.0949661759923024
47.8103605696796 -154.85747602757664 -3.970037667275787
47.95225820570021 -154.88676964005285 -3.9456836513869664
49.98150388610462 -154.5977689428147 -3.7143611721333363
50.21594788814507 -154.5633720527195 -3.6880887039068426
50.27215500461175 -154.57739732650197 -3.6942243512524877
50.50656533625617 -154.52172468056474 -3.6865016190313376
50.53254070039913 -154.5122001912234 -3.6875693090346195
50.9474474852639 -154.47970932858755 -3.639975426066933
47.806335126963084 -154.83195013676038 -3.9699302061167066
47.91399732669612 -154.79993983159258 -3.928454339788026
49.90569954810431 -154.4981854582918 -3.7052454910341135
49.93663903117776 -154.52307431989405 -3.7059772696306115
50.24945778020523 -154.47003064476365 -3.6909726225173753
50.414643754624116 -154.42441433605924 -3.697775933323456
50.444844684765336 -154.46654702039686 -3.6969356530525173
50.80144650052634 -154.38360098191797 -3.655533576332338
55.556460548845784 -153.7358263134492 -3.1102102555963222
47.78166289931524 -154.74108707360898 -3.9372652760928104
47.92134846647709 -154.69983884747458 -3.92307756691028
47.96879398547347 -154.72461759904814 -3.9138769263297704
50.14639092625056 -154.3570751738651 -3.696399734594558
50.251343072878996 -154.3511319926443 -3.698212787003842
50.372586596553184 -154.36595048390453 -3.7025596618359287
47.50962318877539 -154.61990772010654 -3.971215117238317
