ply
format ascii 1.0
element vertex 840
property float x
property float y
property float z
end_header
37.51189741891068 -156.29034675276313 -3.7242577773914043
35.618238561120826 -159.62504883813642 -3.8613923458803963
35.70998529694522 -159.59249535392183 -3.8292651133717697
35.80521606219914 -159.58344300438102 -3.848339025864217
35.63291488398632 -159.4175947632503 -3.811537772341046
35.693898050044886 -159.44517903390945 -3.7989106813719786
35.771163224063955 -159.49825512076103 -3.8061055795163825
35.701773711324 -159.3898360726938 -3.8289324841554992
35.826028407607545 -159.40980137809075 -3.8470557000834016
35.85829606594461 -159.48236504792425 -3.77767839341616
35.88373694000093 -159.38920009628 -3.8562812688047554
35.88246488667325 -158.8394223099281 -3.8025503714254807
36.08239147706854 -158.81672856348996 -3.8138167975281854
36.231425758279656 -158.78370144003907 -3.8206432274009465
36.31181589984807 -158.77889784494067 -3.811336594989907
36.38851784163699 -158.77429914666163 -3.802343580744058
36.51027892215261 -158.45447513610688 -3.7225964925119044
36.54800725563015 -158.4477442053158 -3.7112971424242773
36.27105873696911 -158.23546753362777 -3.7543611162817063
36.322055772070655 -158.25533456731972 -3.7600038518131678
36.48773725617092 -158.27281512602545 -3.802765095812964
36.54621309447755 -158.28797500693506 -3.7646963906246254
36.64025303650987 -158.44168701842895 -3.746214071199191
36.718622455038144 -158.4476919552833 -3.773483226798494
36.976205659779 -158.6188822286316 -3.7332427558948478
37.03923752178096 -158.6221099173565 -3.6930000768982376
36.620067454800385 -158.2928409508357 -3.7565900863814985
36.387512605199035 -157.28807452443732 -3.787706896055109
36.54215379228414 -157.31788809887593 -3.739637637078448
36.696379297092726 -157.0264029320261 -3.688775519336828
36.856991172254574 -157.120483446219 -3.6692864886818524
36.88241874459071 -156.64937537055144 -3.6562799362740472
36.817654296092314 -156.59219644619702 -3.6800961249554236
37.00690516820579 -156.68473988003583 -3.7001407140691125
37.08979105118364 -156.70003466157374 -3.714601176208912
37.552891587908924 -156.3292739543926 -3.666730702029993
37.64209978916892 -156.40063202117818 -3.6500571039370215
37.67732045102536 -156.43193259812966 -3.6180574069282434
35.49732468717459 -159.62169251672503 -3.776407806207986
35.58684595238613 -159.59384976489937 -3.7709981679330515
35.64755782143386 -159.53989171504776 -3.770481434448547
35.69086506140455 -159.52730439981093 -3.680480551340768
35.59959728555208 -159.44892362008625 -3.774096206281788
35.68122664894689 -159.45887570243463 -3.769540518041377
35.75395913881542 -159.47024270322396 -3.702066588789772
36.970071942333284 -158.62802995841548 -3.644544787992769
37.005667333402286 -158.63033193734648 -3.666815573307153
36.31858864951674 -157.3008372303043 -3.6305906834537756
36.373589701956234 -157.31841052774766 -3.6534896227521303
36.562573134498784 -157.00107756892646 -3.6521496014856623
36.7706101310275 -157.08556584522958 -3.6434104691918114
36.92876312790362 -156.68572641741832 -3.630582374085187
36.952978319363396 -156.68870093263064 -3.6325936322018393
36.86435131214335 -156.62326037030718 -3.570001977009826
36.90074184559103 -156.64371076165398 -3.559059913548507
36.99090921001513 -156.6907763841096 -3.603778899765496
37.11724947548446 -156.7597503266963 -3.606140979762303
37.18960093876803 -156.78394851734782 -3.5402594489070145
37.264880403263064 -156.80666626448834 -3.5505235407023785
37.39794210605458 -156.87905228121514 -3.5863641172267644
37.462719291251275 -156.9139366992631 -3.6103926907103814
37.54903613820255 -156.3445821818157 -3.517982864229262
37.63494102556828 -156.40503084769574 -3.5691099228615113
37.72618638986363 -156.45511033874268 -3.583387427112891
35.41729817825192 -159.60361144453532 -3.6602299746605067
35.532021080440565 -159.56923049193054 -3.6684348511321603
35.458334409179876 -159.47343814921817 -3.6260412122731083
35.56492991718404 -159.5119192743805 -3.6650617688517677
35.68559980751494 -159.45012263759907 -3.6560017134001206
36.91935708100229 -156.62904689239602 -3.4551183539469505
37.04013277113348 -156.7034181927747 -3.5003259327508163
37.116689344944845 -156.72683561327725 -3.4960249869726234
37.22693784912829 -156.78659637475454 -3.529706928646566
37.45744410513779 -156.3019220550332 -3.45219394826133
37.53967906075861 -156.3769641056134 -3.4387785779605085
37.618755065768056 -156.4255287232738 -3.4581544354674354
35.45410964850932 -159.47477334612816 -3.5573796100403903
36.3146380114759 -157.31505136973735 -3.497255617977279
36.87218441892014 -156.6137358701651 -3.439989716884699
37.08425849825177 -156.66688471084652 -3.3794489324606887
37.231302486589804 -156.73970482666064 -3.415549040318214
37.10983901726803 -156.65334510706424 -3.365985908877617
37.24670703871261 -156.7239385405772 -3.4130402790044503
37.39784333128244 -156.32717250687153 -3.3748527646348925
37.473806889570696 -156.36081635530152 -3.4035926722207632
45.57294673744204 -160.27223742201232 -2.748797787556202
50.176436398420805 -185.11640148678958 -4.358616615910883
49.74535752490252 -184.18874613824232 -4.350122247706607
49.6554086662038 -184.2282649723565 -4.356502105853312
49.49279187835821 -184.33197255879975 -4.369399429420544
49.56711693144938 -184.26046244868806 -4.362762754789589
49.40985298384777 -184.3659184785279 -4.375423379994555
49.23669572586101 -184.1450937396866 -4.377257689652613
47.216615532824186 -168.49148993562528 -4.345944951291054
47.134909399008436 -168.51381026406966 -4.350202759347895
47.03831575251944 -168.62800278218518 -4.360913768661379
47.073748512438826 -168.5682397853986 -4.355844049516253
44.98339123990021 -176.52146447486905 -4.347998774608684
44.8045875054906 -176.57983555342204 -4.360554486901402
44.84280973943865 -176.47319639419027 -4.3544100484542225
47.96509050853647 -164.00589973360437 -4.371302709130241
47.98622811313722 -163.79170531286246 -4.356057025001571
47.99793909096835 -163.72578515198612 -4.351465811474136
48.05294628700953 -163.60168749253012 -4.343205517967954
48.118257661644165 -163.5303731802711 -4.338820822098759
47.842817304393236 -164.08415760256764 -4.3763422078689675
47.8884334225135 -164.00480663258347 -4.37077175849259
47.889580235499814 -163.85432510587515 -4.359877993295655
47.94535579765376 -163.8372237620273 -4.359016674683577
47.93230258114444 -163.64183631554891 -4.345054567938063
47.967976617122424 -163.5742889382422 -4.340608971010836
47.7233745060376 -164.0102129109637 -4.370261184840422
47.755568697657296 -163.9979774348413 -4.369525803802132
47.67834398950135 -164.09374109611593 -4.376223622951295
47.413683356733976 -164.0341397635462 -4.370631220076526
47.34042740300075 -164.0680160459069 -4.372938635254011
47.36802296910463 -163.9397167852787 -4.363349878128468
46.24361232430581 -168.1788843191579 -4.360817921433078
47.2382698075954 -164.00202985078073 -4.367573567448556
47.1271174614903 -163.87328060246722 -4.357409937741117
47.20855666615085 -163.75697784145387 -4.348988790731456
47.084818165002496 -163.94880776523644 -4.363032116635754
46.95370929140067 -163.91184687311554 -4.359835213709769
47.87205944454407 -159.63602763899394 -4.376948801219643
47.906842786114055 -159.56627832332853 -4.376364881449442
47.95051133378381 -159.43322583463498 -4.374187849892179
47.965939865746584 -159.35939920981204 -4.372623106295771
47.978949482836484 -159.273121253694 -4.370618405564687
47.974899753734945 -159.19949389536347 -4.368138405758443
47.838264714820276 -159.7068781698485 -4.377714362725864
47.83162186856585 -159.60564988831365 -4.373505841116931
47.87795090651259 -159.5380444300488 -4.37368855082745
47.873914680140274 -159.47540846763548 -4.371254613430966
47.927422877843384 -159.2203167765482 -4.366017801823372
47.898858978636966 -159.14576780946288 -4.36216889649916
47.96077987305418 -159.100053245854 -4.36443358606939
46.92437841929755 -160.10150137342205 -4.343808848304179
47.311222991068654 -158.47166489039938 -4.377167954712205
47.23085346334124 -158.38782483606073 -4.370552337978666
47.114572290487615 -158.35125081935783 -4.362106834003038
46.96070476062316 -158.3827653971538 -4.351850396878614
46.8623318304326 -158.34723814707982 -4.34467093814859
44.40468644809526 -166.9588589744002 -4.35276028361374
44.35961812018452 -166.9323406124179 -4.35290258961258
45.029810898807085 -164.01383987985662 -4.373995497610986
44.26076783985241 -166.89549139461622 -4.354595685792271
44.14246362229586 -167.06108657686963 -4.370947022235581
44.15162460707724 -166.95668289289418 -4.363431162661659
44.18447027781371 -166.9135705206086 -4.359067831520663
44.751356194494875 -164.01255298806498 -4.376877535935334
44.674568294131596 -164.00189357189268 -4.376850107439102
44.598361976485826 -163.99312280672143 -4.377023439688585
44.85746543051772 -158.59904969471867 -4.3463336013385145
44.78567009955016 -158.57504758285162 -4.338568746456894
44.763191402629936 -158.48958653967063 -4.335425129410869
44.73097589985184 -158.55788929036956 -4.332677295717266
44.74547019079044 -158.44387167136583 -4.3332691386176485
44.04687062124494 -158.64556306710492 -4.371855457934397
44.084812789830174 -158.4359753230962 -4.376028448211978
44.057258785163405 -158.185403840722 -4.374044743468779
44.38964854118432 -156.71363162200535 -4.345562624397643
44.40369415713928 -156.6477932340303 -4.350642346171439
44.44558720576635 -156.5374152809709 -4.360834657555755
44.49350620332325 -156.4193804088928 -4.37214102832332
44.48712638391666 -156.38834187659734 -4.373647574720955
43.98879683586905 -158.14273484306767 -4.365352017021794
43.98567611627173 -158.07715782714624 -4.366177442283158
43.981336283004886 -157.97533563209552 -4.367977567484381
44.31271654179913 -156.78279359791821 -4.3351559149684356
44.34593176289424 -156.60859834265273 -4.348358230476026
44.39148342024499 -156.53782034222215 -4.356451746517249
44.354386462241656 -156.44312684881174 -4.359693737779373
44.37116174581261 -156.3602480876396 -4.366556113143829
43.909213204907 -158.10528993373512 -4.355224844555606
43.90634855173961 -158.08370477911905 -4.3552846160781336
43.94037662566105 -157.9289127797133 -4.363749325822173
43.94493937880137 -157.8539512797268 -4.366690234307673
43.94516464107354 -157.77136850907897 -4.3696074474566755
43.92371366912911 -157.6915770097791 -4.370007190467563
44.3208321472687 -156.4219123983839 -4.358518591874672
43.3656692336993 -159.8434344299465 -4.335070724548932
43.821252311045185 -157.90603471095864 -4.3486243056117875
43.831841308690166 -157.7585177541557 -4.355290971786025
43.901976085898305 -157.63911395450015 -4.369685606112122
43.899372934396624 -157.5538266087906 -4.373627643574499
44.24172190183448 -156.10495996560914 -4.375535022610115
44.197033447238994 -156.10816010891025 -4.372158580413126
44.05865698087701 -156.01635341960085 -4.37001310753897
44.06594036624349 -155.97071467727332 -4.374229010588381
44.01213591406126 -156.03884375062702 -4.365136961294779
44.12173016243875 -154.4296888657494 -4.333437247326067
44.10021421185252 -154.38084908651763 -4.336643131838029
44.06591118116657 -154.30773841360292 -4.341551450467455
43.973371749319206 -154.26384553953753 -4.3432640068192505
43.914573693981424 -154.3515037557467 -4.33544474482088
43.86530771181438 -154.2380056412597 -4.343516611727141
43.92671574239818 -154.13366304820926 -4.352712301849428
43.912816594191284 -154.07434514737113 -4.357226626280951
43.418955625564095 -155.6384240340787 -4.3682180568774935
43.7863998580585 -154.13432618019928 -4.350676122778261
43.86378665219813 -154.0637132349624 -4.357355757979122
43.747033473268935 -154.16172415158567 -4.347908713842352
43.772390938017914 -154.08383164800335 -4.35456848070144
43.757436505487455 -153.99565026875567 -4.361529652483677
43.65456295176075 -153.99943066022254 -4.36013787106669
43.65399203244026 -153.88194857797444 -4.36984765097508
43.544401849519694 -153.95394878765745 -4.362976183490917
43.5617325089084 -153.85320821088044 -4.371532759584045
42.93423846118465 -155.4469038932987 -4.369846897963846
42.82038530738185 -153.90176621678629 -4.366938296786496
42.241514552832726 -151.71221066450647 -4.333231529252409
42.23876933252201 -151.58792647074452 -4.341106431115772
42.12516171978463 -151.72128309036793 -4.337084109561079
42.18645673074403 -151.66284555303204 -4.338392416252357
42.010451374358844 -151.73240436900048 -4.340910828976929
42.073103195415015 -151.65048793775364 -4.3435614968205565
41.99391152650758 -151.67138754265997 -4.345408818396025
42.026462849638925 -151.27056130206694 -4.369342652616227
42.00500187383126 -151.23121341519933 -4.372691490565728
41.70723213560327 -151.85005829783097 -4.346220257509643
40.92429107318674 -145.32050990294093 -4.332203028134254
41.12641987235389 -144.56387507268036 -4.343220285904021
40.83402972982009 -145.41896380987663 -4.334274329595311
40.880176594075806 -145.39866091652087 -4.332332005181406
40.77814863327169 -144.56989159611172 -4.361915146516816
40.72573249020274 -144.43266257975114 -4.368785527751257
37.11699987824197 -158.54199475906668 -4.368805118855702
37.08028327529091 -158.5876930537118 -4.37384118205716
37.11355162052185 -158.4877727435823 -4.368167819723766
37.081282168063744 -158.46496594166862 -4.37137006943139
37.14384200229876 -157.21197147671325 -4.348013157149232
37.02682750407187 -157.32924189390505 -4.361723145788773
37.06845447680013 -157.28326617878315 -4.3568161919703075
37.106322161327505 -157.14171158315605 -4.351624161797337
37.13266167998371 -157.1202532494946 -4.348674720764518
39.60396313491201 -147.02279567527634 -4.359099792770186
36.965023293972195 -157.33059182671306 -4.368589721691283
37.0421235442728 -157.04871677969095 -4.358101371176665
36.090149107132156 -159.48759166594667 -4.335596812973802
36.098470279550774 -159.41534591950523 -4.333250264616503
36.10679280008104 -159.32466909549294 -4.330476635703022
36.03372204163273 -159.53920083629808 -4.341177847659919
36.06184002131047 -159.1977938290444 -4.331032130036751
36.00304052763071 -159.14747900534164 -4.334431329039035
38.220437252744816 -150.0589505120527 -4.366577970876986
38.26599200034894 -149.98758516978168 -4.365201411844193
38.14523392620271 -150.0905911687207 -4.371196129762778
35.54040805217676 -157.39978351953394 -4.3325694409489985
35.49666583265618 -157.4024703886909 -4.335948986924194
35.53166170938271 -157.3170626974522 -4.331436717141796
35.518628412183155 -157.2322896500695 -4.330683877352107
35.42552246236358 -157.4332694436951 -4.342090143340012
32.746402776069516 -162.37052129500728 -4.353249337263424
32.76685039530673 -162.29280515324504 -4.351372386371469
32.75352138389293 -162.19575292509094 -4.350700960496373
32.71128680015171 -162.14669482907482 -4.35194588562808
32.68324607062952 -162.10729031050977 -4.3526493314706
33.83177331322099 -152.426567757264 -4.372557784964522
33.84522980674746 -152.3710065366779 -4.370797682337214
33.870834545489885 -152.2797833057875 -4.367529032313843
33.893855096118976 -152.1860260027396 -4.364360311619604
33.89104030885709 -152.11299517927958 -4.363357061137144
33.84837545370572 -152.0271408256638 -4.365409030785983
33.007020488549394 -147.92523435311082 -4.37113126163553
33.01838987227133 -147.82537710448497 -4.369335168084558
32.22928266696885 -142.19643443231604 -4.368054198954223
27.26672037747002 -152.57373484872673 -4.348459030115992
27.274233856958993 -152.51855684303763 -4.345964919304503
27.186305366620125 -152.6779985705519 -4.3554399040597485
27.234383542952354 -152.61655664988635 -4.35105811269735
27.27165199725645 -152.4568547704983 -4.344302156291434
27.262502860275887 -152.3909799794378 -4.342203728616901
27.234021420822003 -152.31953997456392 -4.341351879841639
27.066037701846348 -152.71079655229832 -4.3620731673597275
27.00036195440555 -152.14945715541344 -4.3457713563249385
31.714097982836982 -132.64306484444108 -4.324653757452332
31.61375523599749 -132.6490667276495 -4.330831557881403
31.494351405940247 -132.61121417098423 -4.338149126936966
7.680216808420539 -127.20887615071122 -4.319339078498687
50.29767030038777 -183.52243239546553 -4.295333633404519
50.07787082035318 -183.72608824777203 -4.314809287774982
50.162814221982416 -183.42796836965846 -4.29945817296035
49.88585378203477 -182.9400032682732 -4.2978420629591145
48.82496896318598 -180.7897064146729 -4.281191375527675
48.879337766544836 -180.70201363174917 -4.275112379397095
48.75723981539543 -180.83086115573136 -4.286568849202961
49.539288700698236 -168.08300897128674 -4.248564667868931
46.85751468373881 -178.03591834666034 -4.294740306254929
49.150188728042906 -167.9825867299736 -4.25371917906248
49.15972491203351 -167.86381367363978 -4.246461879287197
46.63561583361114 -177.802457851834 -4.299058936359201
48.96982276539392 -167.90999021709848 -4.254625109686258
48.93676675258909 -167.80854052533527 -4.2495661491006
48.838683108656284 -167.94998362616934 -4.2607971248086285
48.46439713498107 -168.94713549429898 -4.332809917528697
48.727281306378316 -168.01855434917925 -4.268178067235602
48.67027632699887 -167.95160519056546 -4.265881037062014
48.337230376255015 -168.70296040868703 -4.321798845067892
48.36495521670269 -168.59713309263404 -4.314402301012731
48.35150621786604 -168.50690509219095 -4.309309004954686
48.38883249481618 -168.48343547188264 -4.306671225193163
48.606175218390256 -167.74374946801544 -4.255362051031989
48.569047109293045 -167.5751752982481 -4.246422503467188
47.91899047159687 -168.07458233104515 -4.2964681124966635
48.18337181878505 -163.41068795271826 -4.331243247606461
48.28269515107739 -163.15186759427021 -4.315034097312347
48.27028222827454 -163.03947234103228 -4.307585007936062
48.324443238254105 -162.94518145849668 -4.302168479773064
48.33685415830345 -162.87432588738207 -4.297818723591315
48.36335574843732 -162.75098219099505 -4.2904297786381616
48.41567739938322 -162.56042507869867 -4.2794586322792325
48.449265685473485 -162.43044184956636 -4.272156232242591
48.45860191152365 -162.36997001497636 -4.268734628523968
48.48914934396942 -162.31978831870626 -4.266246120576986
48.13894806069888 -163.29246510274385 -4.322853198718065
48.21557900314689 -163.04181933168633 -4.307121937024838
48.26963933408212 -162.936554735179 -4.300963130324081
48.317478738896504 -162.69264437169033 -4.2862264461232025
48.36947356996959 -162.2315363816729 -4.259363009885272
48.21338521527604 -162.77134848595054 -4.289819670062426
47.72246148191208 -162.98066610444658 -4.297856540570182
47.71343117012924 -162.8770392846926 -4.290894527606228
47.60676729831591 -162.8447717227096 -4.287648206969535
47.63864606029239 -162.30080831109825 -4.253272605236555
47.354854270797595 -162.94413898479323 -4.2918602481972785
47.586318305573855 -162.39388700746198 -4.25838039474086
47.59976571381756 -162.22002643281544 -4.2478116783327975
47.581671235469756 -162.07946204771395 -4.239073698346575
47.18849053117799 -163.39303869702232 -4.322128187330995
47.31170764205045 -162.9479641064841 -4.2917325708603755
46.75953066263243 -159.01607021357566 -4.292816329794026
46.69357657288279 -158.3381488020513 -4.332901175805689
46.58755342126965 -158.27662122281703 -4.325020107642098
46.507739304122666 -158.29293455832243 -4.31969092194139
46.11352076613495 -158.57979890421655 -4.295713406264678
46.20857972204719 -158.2626926585994 -4.298782474084526
46.213625821859914 -158.21319137667726 -4.298785543110789
46.04100701641269 -158.56423304014683 -4.290460089238098
46.117631851774235 -158.23525258094946 -4.292318065000542
45.97562006610112 -158.13453749581555 -4.2819739813077415
45.799717605424036 -158.48903396234272 -4.272824292578615
45.94132364589167 -158.12955867531207 -4.2796096778010675
45.92993627732785 -158.07821237491368 -4.278587379373255
45.76676890335321 -158.21960734320376 -4.26813452651664
45.814979493226616 -158.07710756298616 -4.270763430787884
45.8579238228391 -158.0353398406772 -4.273553850641321
45.83849138525697 -157.9246091518124 -4.272078812158275
45.859215593230296 -157.84274028933098 -4.273498930177685
45.65391399651137 -158.19944417409783 -4.260274982328776
45.78697427470221 -158.0109650625798 -4.268690170864109
45.79927979885534 -157.88808988944297 -4.269438000607665
43.59947595452348 -164.86584855639578 -4.245400819364906
43.63371579121459 -164.77230782437107 -4.237691949251118
45.374471553575276 -157.7383124126395 -4.241327671493336
45.33133627042916 -157.76420328084808 -4.238356694679291
45.311326978149445 -157.68930406995202 -4.237477982926075
45.32940648821454 -157.58672201456503 -4.239480729366323
45.250273161952485 -157.55181652178985 -4.234627969598844
45.24530019632469 -157.46881939125313 -4.2352376789996145
45.20832290562742 -157.4253393752724 -4.2334239028118175
44.574971443202166 -158.89338967847564 -4.30782432679982
44.565823640568695 -158.87545033612452 -4.320509716259621
44.638624920070036 -158.62734359558743 -4.32384178938245
44.71690312939737 -158.53264082081412 -4.3309765628660015
44.72823204744226 -158.41231418868725 -4.331308745650509
44.70907622146388 -158.36804407040913 -4.329141259429745
44.52102324978138 -158.82715808660558 -4.305516829456012
44.521130899823 -158.71825455132802 -4.312872936119815
44.58244038685364 -158.65446784820938 -4.318324895975357
44.66084903187533 -158.30786682578596 -4.3240175250678945
44.62837143953279 -158.253200619175 -4.320674978579656
44.98680008464149 -156.83193006108746 -4.233635482689131
44.97570861043867 -156.79313062067064 -4.234231264608368
44.99775825534586 -156.65759254617288 -4.240022315130211
44.543346608674604 -158.1973364570747 -4.312072337490656
44.56441813819535 -158.1136985041572 -4.314680452757893
44.57583543956867 -158.0529238682116 -4.31629289656554
44.95122814769794 -156.73957175441927 -4.2346238769531865
44.95038956091358 -156.62912958881128 -4.238408867531374
44.93027276176411 -156.56843764040462 -4.239528019008178
44.98068244442861 -156.46644117920087 -4.2461385777984235
44.99786997092488 -156.37148976790948 -4.250799501661866
45.03853893141319 -156.1608160773844 -4.261744084001112
45.03729857424145 -156.10138708948074 -4.264280226162705
45.079293354080704 -155.96101770962122 -4.272753815263838
45.130388564006154 -155.8609669134458 -4.2799256809976916
45.13300922057581 -155.78234139532688 -4.283828598653443
45.146362318872455 -155.67343238835042 -4.289822731956622
44.50396071873546 -158.2191020463451 -4.3079247305084
44.512620271976274 -157.99522110677486 -4.310495955504728
44.49287348767688 -157.92680045290442 -4.309349630355313
44.88540240293953 -156.62904813972787 -4.234844876869484
44.956053267653 -156.33948936139763 -4.249911726349389
44.977249604742575 -156.29759442187273 -4.252743684629602
45.033795105787654 -156.05255865905798 -4.266319975588162
45.05028302348313 -155.948607238336 -4.271934552042826
45.11585375360207 -155.63986939415133 -4.290124139079986
45.10975472299092 -155.58728571162908 -4.29253436903034
45.11141459877848 -155.48060630600077 -4.298186235863078
45.11600012856641 -155.3698246075843 -4.304353010737151
44.446787542428936 -157.96262678531772 -4.304234021883205
44.44139295378795 -157.86901646007948 -4.3051009127278235
44.44118790599252 -157.77350791468643 -4.306810032774145
44.43390444054569 -157.69252454735715 -4.307812423260846
45.036533320775895 -155.56273341186633 -4.29056161716851
45.06734249314911 -155.46834877413738 -4.296943101029707
45.06493463318199 -155.3393068236814 -4.303871122162504
44.339702015075815 -157.8430351285256 -4.295395159886742
44.41034129055025 -157.7458195632217 -4.304350716701557
44.38712819541412 -157.64422891041082 -4.304438536114928
44.3548441417468 -157.58533447816535 -4.302809970058382
44.74605353294616 -156.4018034072336 -4.236427943576768
45.01488462400467 -155.3077036625336 -4.303555221423259
44.979347566874736 -155.26567252304855 -4.304496344578029
44.342405944240554 -157.62888716061866 -4.300474781771848
44.33361160126504 -157.53929223987814 -4.302234135706781
44.358112692835284 -157.435053932875 -4.30814653804593
44.37024592300058 -157.32575648242553 -4.3134383527118345
44.36478536310527 -157.27146822208098 -4.315159880818474
44.891578600854984 -155.2313083435612 -4.302994369267521
44.20878209276824 -157.44020658005908 -4.294018054844939
44.24207714443922 -157.2904049169648 -4.303183518425732
44.32131909533543 -157.19109048710826 -4.314725549076505
44.31341083385884 -157.11559553041087 -4.317563686130318
44.31141474410684 -157.02046054159143 -4.3220723881267125
44.35151902901353 -156.96198634913506 -4.328551293488418
44.78777977729805 -155.21424384633792 -4.300001734994703
43.942604495115354 -158.15372761937437 -4.250907960312604
44.14873868197333 -157.45120592117289 -4.288023869990241
44.196065918674556 -157.0298775792966 -4.311601105306997
44.717968961428504 -155.21689746414333 -4.297230394175975
44.73128976974026 -155.15368569902418 -4.301562777786527
44.71323593391343 -155.0817383728418 -4.3053715149762715
44.03233757692042 -157.3579640237322 -4.281241779678002
44.61894744527872 -155.0463255970135 -4.304311971856598
43.32690142230356 -159.81842852440127 -4.280729787172854
43.322725837522135 -159.79876102404447 -4.3258087552131
43.36653201442333 -159.6462117662587 -4.316580237376424
43.986354740789594 -157.10757519621717 -4.289472539496006
43.97180938709425 -157.07407461172124 -4.290058841788722
44.50911139821083 -155.0164868532506 -4.302568242990876
43.28466366105982 -159.73745455367828 -4.31554922524123
43.30361531892109 -159.68238175796242 -4.3125395633260535
43.94712469681634 -157.03919519232332 -4.28993440381746
44.45390846099853 -154.96880792159416 -4.303928084167325
44.42172569562527 -154.92411714420427 -4.305935798698659
43.60308434309067 -157.82198234337196 -4.32304534566972
44.36785212070961 -154.86208488811226 -4.308546341200504
44.33359913561243 -154.7898203841069 -4.31255647104775
44.29507287989236 -154.7229109074892 -4.31620794739685
44.190412874731045 -154.72040138264816 -4.313654680590604
44.17567498079551 -154.6510435359732 -4.318319365809078
44.12828855614089 -154.59217366075805 -4.321498834110313
44.10834131814502 -154.51023865057098 -4.327124692191112
44.01954313467022 -154.46047346940168 -4.329031684805573
43.90768718334412 -154.4262989372617 -4.3295257220542664
43.75862752619305 -154.82454361951488 -4.296203230893528
43.89808060916399 -154.40773645511246 -4.330743860153916
44.121706087176086 -152.7067918840129 -4.232239720472804
44.16104374937242 -152.68459055930919 -4.233100841208993
44.10155768343297 -152.6940294100296 -4.233190948458225
44.09035157457135 -152.61186962991118 -4.237659553469563
44.04119323601294 -152.60262815811595 -4.2387406756777395
44.03507440748918 -152.50514397241346 -4.244035467689346
44.00191518552304 -152.4330166277729 -4.2483664039747175
43.948933857993886 -152.40075790379134 -4.250818984965197
43.827536799685525 -152.46780592052687 -4.248778398646443
43.85669821659986 -152.36390416854334 -4.254055082525648
43.74597646330645 -152.4325653804636 -4.251859442193669
43.739513053917925 -152.3882620093807 -4.254498170984274
43.62221055921485 -152.41404530539802 -4.254863332650526
43.51816085192319 -152.41282632021867 -4.256703172074964
43.42800509018788 -152.36198566592046 -4.261194001167982
43.4777333368164 -152.3185494276367 -4.262807211796932
43.34983092677764 -152.31456017146255 -4.265377968513219
43.34908570557821 -152.26962140452054 -4.268037267569363
43.26706114935659 -152.21162166736073 -4.273059180160756
43.303007820825584 -152.15931029704953 -4.275288610619939
43.22130041127578 -152.17300824520734 -4.276292660691802
43.18262461704852 -152.09505048885887 -4.281656613251947
43.05193043282967 -152.1379843628106 -4.282082424610869
43.08040213583813 -152.1024026718162 -4.283567288839411
42.965466680055286 -152.126830758387 -4.284859818669742
42.992616838143995 -152.04017832741934 -4.289332555586212
42.94099791836968 -152.0017020479329 -4.292846696683074
42.9266080538711 -151.91846330817592 -4.298258340969303
42.9175164594705 -151.81404928211998 -4.304813576222136
42.795169601402364 -151.87772556206255 -4.304517268043607
42.86744059314037 -151.80424258546716 -4.3068384696319155
42.727460211715886 -151.88886906227725 -4.305875691380533
42.62753717264284 -151.87717235800517 -4.309707783650189
42.5295938201352 -151.85816171818635 -4.314055887739062
42.36347363355781 -151.98840992670983 -4.311662352910255
42.45266443429781 -151.8031995886529 -4.320033509244156
42.46242970493677 -151.75828551223432 -4.322487819082582
42.21095708314013 -152.1331254517899 -4.308108219823354
42.33161627757036 -151.95943309394082 -4.314575487393382
42.29061616943241 -151.84949926694983 -4.322883122875901
42.32440513333606 -151.80522073799327 -4.324405872125667
42.19145295786563 -152.1132045423009 -4.310076748019388
41.72581062855731 -152.57190496932273 -4.299695425353887
41.77699371833963 -152.5261648850417 -4.3004293435049075
41.77271008845232 -152.3866677760148 -4.309427997631895
41.86497021653758 -152.05446771006737 -4.32655047012659
41.541274410030276 -152.4412821856007 -4.3160993206094265
42.25368829263266 -146.3928267894242 -4.233191421661414
42.010371719708324 -146.91743346409527 -4.229913962976781
41.83571848408199 -146.98725515088384 -4.236516431887654
42.02367869337267 -146.2883797517124 -4.2473408723878165
41.795731388425764 -146.3870235467791 -4.255803310835376
41.75818557759568 -146.30037767469423 -4.260189288020398
41.877138650063664 -145.869647847745 -4.266639559722057
41.753272703128104 -145.6669931043558 -4.278699319339827
41.383054250605554 -147.03386035229033 -4.258188415558248
41.70803791033634 -145.65829924666647 -4.281242690190278
41.665131375927174 -145.58979434542655 -4.285401884514243
41.254658238647366 -147.18377723042602 -4.2605720343740305
41.21931132181966 -146.97693270238733 -4.268417628584222
41.31200194921504 -146.6634055445625 -4.272613984136827
41.35811439588 -146.54883841474913 -4.273519756574176
41.52249043772645 -145.75092882252684 -4.288058355074949
41.59817311591331 -145.55232126854264 -4.289909433055347
41.48488669014613 -145.56922665781735 -4.295254080875945
35.742565547208834 -167.93096457699968 -4.243739915070167
35.68108710003648 -167.8914067190583 -4.2468181389634045
41.1585439579112 -145.67601356210892 -4.309302001211339
35.60770581264935 -167.87453987514175 -4.250391495208344
41.063559177604205 -145.8027961233382 -4.310708103622815
41.213514616456436 -145.21707561780414 -4.319671240453826
40.60553705490995 -147.26679262410846 -4.2934286011457505
40.5618692558536 -147.15419438293517 -4.2991256978963515
41.01920478993045 -145.35064669734496 -4.3261930772624595
40.48394376028492 -147.28910720683902 -4.299618798472337
40.523717399020754 -147.25553070560602 -4.2983549039877
40.97130202455891 -145.3745001189995 -4.32808223009732
34.55773260584982 -169.5114875175637 -4.310186110075219
37.76239466776071 -156.52123115831566 -4.280449501785889
37.77708893786231 -156.44843322158658 -4.279186092275167
34.49262460945649 -169.19450691140148 -4.31231198406898
37.69864475566571 -156.5437059354161 -4.28708511932847
34.372700800663466 -169.22366399599198 -4.318481135137924
34.47459140950462 -169.13873242592427 -4.31288337724798
37.01051090167403 -158.5867887012085 -4.243995872758298
37.03600260526431 -158.532856024892 -4.240889075704473
37.511458474973374 -156.64731718539704 -4.306599704553492
37.55957703877877 -156.5857438079781 -4.301569406747304
34.28116913389352 -169.28896504463503 -4.323553409164847
34.316131470354094 -169.15025159846925 -4.32131372281232
34.30849269788731 -169.07900469649712 -4.321577853346807
34.359966414591526 -168.91963727725198 -4.318406014370739
36.86301927596166 -158.7243438561378 -4.258391789296963
36.953528827445716 -158.62676927212104 -4.249278801316548
37.001319135219326 -158.4754421863578 -4.242367187767484
36.97829594081905 -158.39671544702153 -4.242526367083923
36.96905372981113 -158.32581859794624 -4.241788779890919
37.43438028274345 -156.65832514499323 -4.314820023388478
34.23375274722706 -169.03559704818434 -4.325427881075497
34.22189383200441 -168.97537776070664 -4.3258608750541745
36.84307435986087 -158.73888143627937 -4.260225857478507
36.85933375540642 -158.69553683493945 -4.258037921396952
36.930634304797145 -158.27171603039352 -4.243670861513813
36.92832870445321 -158.22862357769742 -4.242963595547462
36.11436604194073 -159.30943358718721 -4.329543045257208
36.103559071064886 -159.2678041823979 -4.329424971139805
36.086469185023674 -159.2242027074185 -4.329724365815346
35.71626691018405 -157.10630363250763 -4.312655547954631
35.60023875353711 -157.20431060060906 -4.3237222299794125
35.6416878828607 -157.13842105725385 -4.319152707047373
35.69739994241721 -157.07978135572165 -4.313667336295102
35.55333260481536 -157.24185036122614 -4.328097686322107
35.59099575879675 -157.1403537675426 -4.323096620443897
35.57730743792936 -157.01001258109594 -4.321453393561064
35.50678876278909 -156.95603334848497 -4.325731661346944
35.36978442238727 -149.94272441439162 -4.23125805365818
35.274856130025256 -149.93565998881962 -4.237575807654121
35.176994270686734 -149.88703724591215 -4.243653740086539
32.05187545292693 -122.06844772337325 -4.229770884338639
31.86562179686605 -122.41910300630798 -4.243320666761366
30.95990140207644 -123.07683139734809 -4.302609140202877
31.064172446600047 -122.98138430512532 -4.295753046887979
16.345524316257215 -167.74107137903408 -4.233717251332784
16.06634948710679 -167.64553261187424 -4.236557544169237
20.26665570305932 -142.92633848883833 -4.322573944881531
9.594224265627208 -177.566210579731 -4.28990319911476
9.42803039636161 -177.5143029098517 -4.2928578870376
7.6819871177997925 -126.99515903214186 -4.311801438765388
7.6061544701790424 -126.47094937113613 -4.29490530086161
7.562918309386852 -125.95959855255386 -4.276950493457401
51.85828194749555 -184.33106558526254 -4.236531949884455
51.27166046349991 -182.73075069693252 -4.212720444388626
48.87844969821849 -179.34404775655022 -4.227011126030326
48.81791449890502 -179.40595727595868 -4.232512890638993
49.96716955435426 -167.32580358783437 -4.193793815396518
50.06421498613877 -166.54758813442677 -4.148525839802761
49.80561569822181 -167.053904465797 -4.182723727848797
49.92149195320047 -166.5358573003211 -4.151319741431631
49.562845397048456 -167.72532805915705 -4.227178233675892
49.79661154790996 -166.53623125574683 -4.154369061997011
49.83196717801074 -166.40376184551275 -4.146315165526011
49.911249712863295 -166.3351763583386 -4.1407124018598696
49.925331273484 -166.26542585278216 -4.136628457928089
49.72945367617644 -166.58818580617748 -4.158858022895501
49.29329781350075 -167.20308464584068 -4.204494698824828
49.43307854976669 -166.8210123325273 -4.17922019622809
49.5230329725788 -166.51301211528363 -4.15982870124282
49.5395548542153 -166.47359180245553 -4.157258257067708
49.57287577916075 -166.39393128366902 -4.15206573279414
49.248131862414894 -167.27563841265106 -4.209863596415373
49.284331348943994 -166.9625485670498 -4.191051155530082
49.08833268270656 -167.4729535893725 -4.225627899018721
49.044480618392214 -167.36590699244874 -4.220644836579436
49.188645828860665 -167.15465996737797 -4.204545387834932
49.030226455398186 -167.26228328727987 -4.215031779066271
49.172760895411585 -166.79628257556146 -4.184578328558987
49.14040589856966 -166.35089048881397 -4.160442889606091
49.04625858134614 -166.18442741172677 -4.153574345056897
48.832523557843196 -166.60195532813503 -4.182508634501908
48.934133413625176 -166.5110514522406 -4.174691403263121
49.03800014272619 -166.12511618407729 -4.150508535203798
48.591338315514555 -167.2374909211446 -4.225836965426832
48.79823617030915 -166.64912764312055 -4.186109479020548
48.52774539824621 -167.04930846604708 -4.2166247070874965
48.55961205937846 -166.96539740969445 -4.210835841754806
48.64061841430348 -166.71176391245717 -4.193934082155625
48.349520667463096 -167.26532576968174 -4.234418840754257
48.65556977000981 -166.18914488214335 -4.163803699383781
49.24225240151074 -160.82701560297664 -4.204466659738345
49.28674710579074 -160.69845129834783 -4.1999962457828275
49.27033549112152 -160.63154860198802 -4.196917053915529
49.03912825167657 -161.17430475908102 -4.21588248705478
49.06350092314387 -161.07310917784432 -4.211718867000161
49.110483194182265 -161.0080862743441 -4.209722224345828
49.1661027431789 -160.78789677417532 -4.201275210343006
49.228620893881704 -160.73157062420228 -4.200181021740827
49.25700424921359 -160.58118336257286 -4.194593576204071
49.267313709688054 -160.50717382244045 -4.191869630867501
49.31461819877295 -160.41017868853282 -4.189084613119647
49.27813653002829 -160.3108520494889 -4.184522919180896
48.879233880323724 -161.43464074914584 -4.22527907964198
48.915970958773116 -161.35364107723444 -4.222025125682496
48.96915283243912 -161.2609546071174 -4.21859606859258
49.019081353827694 -161.1677531154341 -4.215185101325854
49.04068024480913 -161.11262043081322 -4.213076475149368
49.052145108851114 -160.93099059851474 -4.205158765755662
49.070535869087124 -160.87438753839623 -4.203046993704721
49.238859743986396 -160.19872108643418 -4.179521095554302
49.25872821636855 -160.1118388168781 -4.176804853188725
49.224049497124426 -160.031035886087 -4.173181906940301
48.792433570528914 -161.52760933226944 -4.228315349027875
48.821901208047784 -161.47690101094028 -4.22632043079464
48.86289183023806 -161.33590754565375 -4.220164289847405
49.17013790185075 -160.05246589939404 -4.1727781476702654
49.21030693130385 -159.97057088267061 -4.170795242214826
49.15754277547218 -159.87331144003628 -4.166328548157563
49.186475793062264 -159.7730247972738 -4.1636599034760255
49.215010749355265 -159.65941127628062 -4.160662334728012
49.22580272923174 -159.57579093346547 -4.158327567644072
49.27185107175592 -159.47097844514943 -4.156214020148804
49.268892899401216 -159.41143117230735 -4.154423746968523
49.323579428315654 -159.18098877572035 -4.149281775744408
48.702709323119585 -161.49682463905708 -4.22515994907072
49.15837640059227 -159.69777311333758 -4.160619708574129
49.21191049702094 -159.55438358709816 -4.1573485672362915
49.23011212733674 -159.35003230220747 -4.151787657331322
49.271255454370674 -159.26621694883988 -4.1503940841664475
48.79417692772961 -159.33131620935896 -4.221472756355367
48.823410946404145 -159.2641228482044 -4.220975590506488
48.83920661073591 -159.16837175365407 -4.219456174319404
48.89596010856812 -159.08806021858769 -4.219725105978358
48.903633838041635 -158.3508637422803 -4.207218021788221
48.868294712340266 -158.3257488455945 -4.205690583178093
48.849374487347816 -158.2156638476029 -4.203563559128018
48.92867243981446 -158.12442125490224 -4.205076396872566
48.70040298355758 -158.51097046112827 -4.202649446619261
48.82127365177737 -158.2450808309955 -4.202951156805519
48.847582114713646 -158.0346960383199 -4.20128038369316
48.853700929659496 -157.93674540879312 -4.200392993688898
48.87607591767144 -157.83665794793373 -4.200137238601916
48.617036050673946 -158.47303602920616 -4.199196828282833
48.718936859205925 -158.08729476909187 -4.197531608718
48.69607806605652 -158.0345698673051 -4.196095702032124
48.798356649473675 -157.77656542515754 -4.196962135584752
48.78087135948197 -157.75051159452403 -4.196078558096928
48.83917860734957 -157.63113583732988 -4.197065010761663
48.71799857690077 -157.7172428210872 -4.193693071184437
48.759527142493674 -157.55764400218706 -4.1938505263697134
48.72795647137849 -157.4933927151661 -4.192312613928697
48.727372664161464 -157.4234455867817 -4.1918046195345555
48.692737077443674 -157.38791747430497 -4.190473754484023
38.440780429355904 -198.4573062029166 -4.144498192034403
46.51799037422951 -165.4955898416064 -4.182887117246926
48.53674794113275 -157.36244931357646 -4.185145495189203
38.29287118418327 -198.54003703204864 -4.153708525335084
46.46551028596798 -165.5039807385005 -4.18496458042442
48.50087040897143 -157.32828818760112 -4.183812566198689
38.14463791216468 -198.57815541890997 -4.162297560249894
46.290594135534676 -165.65560517926014 -4.199525338990917
46.32225317117286 -165.5475210171292 -4.1919616440189245
46.38677383718296 -165.5050762075603 -4.187414633535614
48.42426855788002 -157.28720276476193 -4.181045988692047
47.9880717014753 -158.2366355316845 -4.174424425539741
47.770082040745336 -158.4564066634907 -4.169949366634054
48.07061338765052 -157.29148062044075 -4.1694254590860185
38.11212059235376 -197.14829536175688 -4.162581902683631
47.76311717386764 -158.3619361532116 -4.168372358873178
47.95245341582847 -157.2782167086361 -4.1655254691196495
47.884931263076155 -157.2544547144287 -4.163197753197807
47.93429896240026 -157.20458647529773 -4.16462270132782
37.996401152221964 -196.90302144447037 -4.168833288924239
47.80783578696052 -157.2070142082091 -4.160576626153983
37.882381672957855 -196.65340762816822 -4.175526869631514
47.718537201336524 -157.2023821575804 -4.1575847426506
47.594000925571045 -157.1836019201193 -4.153569379067607
47.62316205675209 -157.1021638103425 -4.154333895540683
37.75135146950608 -196.5945647537382 -4.182932321605835
47.50351477059458 -157.20488846697882 -4.150599480264497
37.62164186823786 -196.55741453676782 -4.190825108014214
47.45170710349692 -157.07160833002888 -4.148759954752966
37.48385156559652 -196.5813644882501 -4.198716415783866
47.35300940581288 -157.07339660118788 -4.145671400859224
47.23102413546637 -157.08159425313573 -4.1416963559642985
47.055345124125296 -157.1056795014403 -4.136158744221779
46.98582996977899 -157.1017727602918 -4.133870703780217
37.6963738236459 -192.92349557758675 -4.1813955109922265
37.58484149182172 -192.83650392511709 -4.187591825456227
44.767622959625605 -164.06262159109735 -4.149988022331767
44.66832589268481 -164.04105114164324 -4.151901456610371
37.48640280801094 -192.6217466884642 -4.193333446659857
44.54521969836894 -164.1837802452623 -4.164981527159567
44.585331633015244 -164.08153852653103 -4.157192458389264
37.39993939972891 -192.28113321539277 -4.197687890014037
37.292018206649416 -192.18517855948608 -4.204135086246034
37.15941468991252 -192.29333106916422 -4.21181160356618
37.06093322833565 -192.1191200257599 -4.217576545461749
43.81742015091464 -164.7530648644898 -4.228919998188378
36.94491921635218 -192.083381433508 -4.22406209434549
43.75433368219128 -164.7271623878303 -4.229744060354179
43.69267594889957 -164.73486041810477 -4.232759114943587
45.808185654566024 -155.19925897158677 -4.133439221543115
45.78838023500268 -155.1356259222621 -4.134966045898516
45.826025640828654 -155.01338192030005 -4.139295453522695
45.8504513872817 -154.95349412531246 -4.141533499145969
45.91375570928271 -154.84740447202847 -4.1459190331257325
45.153840194060564 -157.55562069923207 -4.228309372548113
45.15459016538286 -157.40145482816806 -4.230264637137343
45.76884817704529 -155.17630588348783 -4.133377881364233
45.77226893086841 -155.1076564204314 -4.135507233062442
45.85327350727874 -154.81112769111294 -4.146076108547479
45.84097814127623 -154.5906872575067 -4.153168263753891
44.91608206965013 -158.11718727535566 -4.209595079920343
45.081836802202375 -157.38479203540373 -4.225836886326485
45.07880541189033 -157.31364870503396 -4.2268271554945995
45.08903193550172 -157.2029597639337 -4.229743535999557
45.09093291641983 -157.13562366236508 -4.231403482126776
45.724572677025 -154.8456035346191 -4.142943645464663
45.70530127254959 -154.791526771467 -4.144432452458887
45.74514591776255 -154.7001896094613 -4.148043772776714
44.574815024601584 -158.88983257130508 -4.163357158185721
44.58255422088131 -158.885802860907 -4.194869841850348
44.63666352440907 -158.65586163697202 -4.194513350268968
45.00607075123443 -157.28300774905932 -4.222894459144143
45.060593849549576 -157.19731721631618 -4.228134200487368
45.04806482341004 -157.0941589021789 -4.2298364200972625
45.60024285373504 -154.76751618019188 -4.143669659148422
45.62296703054902 -154.66266486759315 -4.147586334213199
45.649155071345724 -154.59167528440153 -4.150442575219146
45.70231085239175 -154.44242167160252 -4.15638456408453
44.52409118793065 -158.82985142451508 -4.18202882760511
44.53110711150387 -158.72123604944125 -4.188225359821875
44.97028211572803 -157.0594619692268 -4.226063650944365
44.96715226512049 -156.9807644402373 -4.228057540683275
44.951565019602015 -156.89116154251982 -4.229771166420387
45.52916377041959 -154.8013660568248 -4.141543125831779
45.61654297113293 -154.55014797927296 -4.151487598548301
45.59412108220321 -154.43719890459215 -4.155254603339867
44.8978104437844 -156.83132086863796 -4.228565518833131
44.90755353084035 -156.73950153573045 -4.232153063594982
45.5084052954589 -154.36486103517478 -4.156925267136347
44.74732507171556 -157.05042283030926 -4.213126719359259
44.78703579098021 -156.74983898214433 -4.225079426600678
45.38170792022952 -154.364660186648 -4.155569882100495
45.44282778576772 -154.35114532178895 -4.156747783852665
45.4312260858514 -154.22216137069486 -4.161567531905188
45.36829686040093 -154.16416660011393 -4.163268389344342
45.346346598710625 -154.1119728597346 -4.165142082986771
45.28909832180536 -154.0467786890263 -4.167331424251508
45.31988584355419 -154.01252507648888 -4.168960231290499
44.60315554043574 -156.50832124529214 -4.224581508509239
45.19072202841387 -154.02225343913796 -4.167629009388818
45.13850132001909 -153.9972728659418 -4.168303687590008
45.140589177383276 -153.94335281868328 -4.17062249777025
45.12231626935867 -153.8264867410392 -4.175530492047956
43.9809152194771 -158.1646817013778 -4.146295167068098
44.96932344757072 -153.85374483671515 -4.173602839578036
45.027384092165974 -153.8186519627733 -4.175439392281432
43.380121747357705 -159.86131113787093 -4.144358677693837
43.87740549381105 -158.12082409856492 -4.1394997705391425
44.9168942923957 -153.84720700873905 -4.17372799298464
44.89521777592495 -153.80165214265688 -4.175648900612308
44.97965887654017 -153.54917179332514 -4.187310815581544
43.34145111075107 -159.82813292751095 -4.14016801131666
43.30108255526293 -159.78814416005102 -4.197474160314643
43.369417800704234 -159.6514892117481 -4.223188763804339
44.822102972488736 -153.85845163550945 -4.172933125314936
44.881420066091444 -153.52329718054426 -4.188260472627707
44.88652201578854 -153.49140754015153 -4.18978147258468
43.280454058051184 -159.74509579456486 -4.204827953645052
43.306649682453646 -159.6790107185716 -4.220109632343946
44.80957312876337 -153.4282437052362 -4.192669511502422
44.48729604405227 -154.24861475430802 -4.154390435942617
44.51600342915444 -154.14686458991244 -4.159062817963442
44.727961306287845 -153.38310287312308 -4.194812087256297
44.70765344619559 -153.33154390054298 -4.197334879953265
37.99287478801512 -180.06624072670218 -4.145711384627409
44.42737155538797 -154.19473610336433 -4.156701415742267
44.61781387235613 -153.34032814452047 -4.19703490242412
44.67807436442938 -153.3330145976427 -4.197244874187661
44.57052063517084 -153.26614694051747 -4.200756818263112
44.53709685727896 -153.21027869198474 -4.203580283331412
44.47682293597113 -153.21910619472337 -4.20336107005242
44.43400465833632 -153.1591193306761 -4.206600649275018
44.225145202806985 -153.65353585696218 -4.18279428015888
44.42811549854594 -153.12490892028774 -4.208285983745068
44.39021567150316 -153.05273936174757 -4.212180686791103
44.149715944265076 -153.67194065596004 -4.182151201211283
44.299803538691314 -152.99803141042239 -4.215530105726645
44.28317463799116 -152.90887006647043 -4.220217057817363
44.22919081188103 -152.88423121539728 -4.221951842772254
44.200121096177654 -152.8144758471791 -4.225878099394692
44.16746075657711 -152.82400999016835 -4.2255961595741525
44.15414287058195 -152.77372588548025 -4.2284072717699654
43.31359188598147 -147.19769004327125 -4.162640646954463
43.26601310197511 -147.11261549518153 -4.167031743740147
43.202179960865365 -147.1122768778476 -4.169773723991535
43.166899284826485 -147.07495356336526 -4.172308483564702
42.919212351425124 -147.75309771916994 -4.164099199010096
43.09425600227243 -147.1305255921193 -4.173905125275213
42.965570415691936 -147.26171189769008 -4.175829082118561
42.62578619479703 -148.33186825520488 -4.160772605962715
42.9173252025199 -147.05456512243472 -4.183775933283314
