ply
format ascii 1.0
element vertex 806
property float x
property float y
property float z
end_header
-14.703610498824865 -17.263551833704945 -0.9774322169094961
-14.59694589210378 -17.206160269624018 -0.9177755256944141
-17.741422570267165 -18.98483046817479 -1.1118087879661738
-17.09742004461148 -18.62536531937977 -1.1425770971309177
-16.406718518390004 -18.214205569128815 -1.0909405682818165
-16.237229999046654 -18.065686279676218 -1.0186736099173905
-16.220138878478465 -18.06099721711267 -1.0121229699073233
-16.07038125384278 -17.991707936178457 -1.0493714584521017
-16.029521687376835 -17.950254137859606 -1.0317210233816096
-14.788621951489372 -17.21970217656388 -0.9897531086026585
-14.736347652616255 -17.203920543855094 -0.9815451093581905
-14.521621446790293 -17.019445731468497 -0.9779351847548197
-14.444944901274154 -17.037085288408157 -0.9834444650750022
-17.689805276485394 -18.81524734314213 -1.1234824167941204
-17.64981068436743 -18.745467690420362 -1.0993252934001643
-15.984471251985745 -17.804855432983704 -0.9963500759000554
-14.871417385833052 -17.17756066073542 -0.9966428785465531
-14.621645650519598 -16.990736789302066 -0.977859112114243
-17.680704747085507 -18.74787835660573 -1.1513682434329124
-17.655940042885767 -18.701641914864894 -1.1221958042978133
-14.69842308310566 -16.940253739392567 -0.9729112165595011
-14.702597269634829 -16.891365833058103 -0.9535867913066061
-20.388704838357075 -19.389186720735744 -1.3071851575296913
-19.87078475290266 -14.16770647128365 -1.1319850240427478
-20.09434276175811 -14.165425128602346 -1.1387865706614113
-19.981481721144338 -14.16275001396829 -1.145335880567084
-19.922603321968136 -14.108789407628814 -1.1292388020015867
-19.603121992413268 -13.908452660150068 -1.1262750394767562
-20.13654675659147 -14.127831606715217 -1.1416282573625933
-20.060305506650852 -14.062231402729653 -1.1241851443753001
-19.685319527284523 -13.827874238878017 -1.1187206010369828
-21.453742423763977 -14.789811982075292 -1.1405067895385534
-20.825399847536517 -14.361947041719697 -1.1506034716066673
-20.268831666554977 -14.031674492500049 -1.1218552390318848
-20.214091446944618 -14.071693709759877 -1.132772389565955
-20.094771468532105 -13.992137354122281 -1.0984608632646886
-19.721656275834377 -13.762466396741656 -1.107483400399855
-19.688545949943627 -13.726005748394911 -1.1059180510656854
-20.33228071468351 -13.957174450812492 -1.1109164883314107
-20.231282037825103 -13.964595268109452 -1.129836154653947
-20.17370859282051 -13.930376195161923 -1.0881831204698655
-19.888275596298257 -13.708523467034485 -1.0586641918920028
-19.85290031400152 -13.68904487992115 -1.0617040881320658
-19.71794112152354 -13.645575816302394 -1.0878103095319385
-19.601366164812084 -13.5356601509926 -1.1124600947376164
-21.00714345325344 -14.26615835642582 -1.1456660778066046
-20.899839178855906 -14.199162309261373 -1.1202006107508375
-20.432911598645788 -13.927494369950713 -1.071133850248853
-20.40083718034843 -13.910008771723348 -1.1071851269588222
-20.318995655664217 -13.84477454381819 -1.0801424894171234
-19.933255852760016 -13.64535931640569 -1.0504626534577548
-19.77842070873222 -13.591414057187048 -1.0823477272084376
-19.660253501905384 -13.452943712453463 -1.1066649343199275
-19.62324420378543 -13.460440831642421 -1.0743739447061775
-21.09400843203551 -14.214189243153204 -1.150622957178308
-21.03869048982334 -14.156923518914803 -1.1476998104604357
-20.967824387000633 -14.124026696273456 -1.1330603314923193
-20.510779905333326 -13.854820675909005 -1.0739442612129257
-20.424158469814145 -13.811741854811672 -1.100093158329139
-20.074118107146873 -13.553672926248174 -1.0509612418427332
-19.79638872287159 -13.484807563751406 -1.083400957910699
-19.644091901223888 -13.36456119027659 -1.1065091444608652
-21.10951176947823 -14.108886209731267 -1.1411925092980295
-20.11553183503265 -13.536219742418345 -1.052671973850381
-19.748863818279336 -13.252204880919294 -1.0972756023342136
-20.186573139839545 -13.491917073388818 -1.0554602115404308
-19.79917222059821 -13.192416852278981 -1.100307773137655
-16.33288580613742 -10.982702852190066 -0.8879931393831704
-16.3442738391731 -10.939143997209097 -0.8884457520393246
-16.27955534928955 -10.850422990022793 -0.8849672722307182
-16.26759971166034 -10.791813624375603 -0.8842109672900567
-16.24279275326509 -10.718861390378475 -0.8650370799940282
-14.654261261171495 -17.732859391626253 -0.9132638880029463
-16.632962978386097 -18.75928786834448 -0.953023613419373
-16.627766070455696 -18.73689615075577 -0.9524687239945916
-16.383607350663393 -18.627075049310285 -0.9677794874816987
-16.36412526365906 -18.613661851882007 -0.9582061793302845
-14.772962791067549 -17.628383100666618 -0.8924900081663764
-14.688773331995217 -17.646680429415177 -0.8895133109060159
-16.642784349711263 -18.68187701609637 -0.9938985170683413
-16.42231860085826 -18.518597467137187 -1.0104051791579036
-16.400289000587385 -18.51804002628222 -0.9888854723286076
-14.78055931572229 -17.56739264905068 -0.8909040273112951
-14.436167155306926 -17.304040901143082 -0.8540325243896361
-16.99316897373281 -18.805112709291503 -1.0329336506911417
-16.963818125679282 -18.688252933591585 -1.0276666687843885
-16.917492214052874 -18.64838636337436 -1.0147590014604515
-16.45481249110115 -18.40231793169469 -1.0071123398639519
-16.353994989808182 -18.35136379283805 -0.9736425036471036
-14.874275307562124 -17.484258606366048 -0.8716139062379109
-14.601135458070882 -17.30261388826971 -0.8171667884746551
-14.514715029425442 -17.279790407728925 -0.8471641554965282
-14.472549316202935 -17.27780828252725 -0.8622250528832971
-17.210615942136627 -18.714065978566364 -1.029166685038655
-16.98136247134419 -18.643386962975715 -1.026819341109887
-16.928224607664127 -18.56692627118246 -0.999951929572649
-16.44951573280218 -18.281513014942348 -1.0068830760286445
-16.383458729829417 -18.26073713955579 -0.9491354448883788
-16.329470559837183 -18.222387253040054 -0.9860191551131685
-14.984449092879178 -17.439261303059993 -0.8303644242892173
-14.938489732568042 -17.443769138804434 -0.8795536018938058
-14.662971370570029 -17.249378957029673 -0.8108958025562247
-14.596919301675392 -17.21186885363828 -0.8463819573549415
-17.21647408487867 -18.625908391550862 -1.0032547736077093
-16.999832790822744 -18.56233624210878 -1.0155402525224042
-16.96161873326524 -18.530010728660294 -1.0074450966824815
-16.35015874093338 -18.126515495105593 -0.9567295825745193
-16.272974088386544 -18.08889307437147 -0.9935229027655075
-16.22234388729811 -18.047729582754243 -0.9846486679322897
-16.08382631949343 -17.954101391687004 -0.8918738858007781
-16.08016995386689 -17.921176087815915 -0.8872921735932011
-14.71247083815053 -17.161313748266508 -0.8245632791481403
-14.685800314815339 -17.11215450672985 -0.8289105876834019
-14.51871273795404 -17.00065564355268 -0.8393998140258757
-17.225988583896473 -18.57066610349041 -0.9813115758641324
-17.17844857989659 -18.485388368499393 -0.9822566938464795
-17.16506494787992 -18.44580841630888 -0.9610270613934719
-16.35500103113377 -18.0595788523805 -0.9166595891646054
-16.263469788215147 -18.016763347186746 -0.9761784282105832
-16.156698757320292 -17.910593936264906 -0.8981774230774734
-16.069090190148025 -17.829849843185137 -0.9171415040965073
-16.01835457284608 -17.79645583058474 -0.9353936054335253
-14.774535530593116 -17.105797198706277 -0.8624879167190539
-14.585832586004862 -16.95316469822121 -0.8342750849818704
-17.172969559434698 -18.44371947845272 -0.9655898719964169
-17.16817825376837 -18.425752417678954 -0.9671774564633054
-16.08356130798046 -17.78187146320062 -0.9398867868567748
-16.05317867988205 -17.73986124980847 -0.9608283234620221
-14.858299536450826 -17.067065676994183 -0.886806100517425
-14.631631819529165 -16.890765844126665 -0.8115459118849646
-14.599175784457385 -16.88436567755439 -0.8006441532311876
-21.533599055192617 -14.759922444295693 -1.1155287558461846
-21.59780150200767 -14.734946796832679 -1.089226818686856
-21.52078933885683 -14.730044824457073 -1.0432122050153996
-19.836450716140334 -13.65584358523822 -1.0047089320102986
-19.747483920648516 -13.628759804768796 -0.9788529198575399
-21.73740008360536 -14.692250432976971 -1.108473484027004
-20.862356816488795 -14.135629925466008 -1.0701585406853598
-20.302952727499363 -13.84570613910764 -1.0494008522388445
-19.95728351188441 -13.600909539998426 -1.0309936084898943
-19.880704986195543 -13.633611500791154 -1.0281264881401904
-19.80198536508743 -13.57480003588303 -0.9870690134688254
-21.80650674830813 -14.66658266467258 -1.0881634709623484
-21.14149248046679 -14.200840214161987 -1.083029861458483
-21.053589566322007 -14.20703186936566 -1.0717505408371717
-20.93238005132111 -14.108610293185881 -1.0649726561116648
-20.90305216396873 -14.095437833672383 -1.0558910998612527
-20.395193614655135 -13.821095774905743 -1.0530602781904537
-20.374913512765637 -13.809061298408757 -1.0520127782464834
-19.944035515756543 -13.542263641208613 -0.994015634277064
-19.863088724079972 -13.450022022219608 -1.019619768231647
-21.24249509242462 -14.15884648912881 -1.052363014072976
-21.193795614628467 -14.150993673692161 -1.0546553676787045
-20.994181477025894 -14.056636295553123 -1.0275161028964461
-20.539862261150073 -13.741037092500473 -1.058222142680774
-20.043593280258435 -13.466405057279847 -1.0066238995902466
-19.889220017708865 -13.42938099214742 -0.9945389525649916
-21.297416814582377 -14.092458345360223 -1.0676301131471402
-21.279442457542803 -14.045261901892836 -1.0945479861758929
-20.70756231081328 -13.703347027968226 -1.0567869593998822
-20.64271699686897 -13.706142721339651 -1.0418169352880968
-20.573491797704197 -13.666969792865896 -1.0424473976908735
-21.429898511016187 -14.077323629890964 -1.0684272310444465
-21.3663443722038 -14.071269544341071 -1.0168171070775176
-20.72781174289399 -13.639191623245285 -1.0399873788258802
-20.689573581543474 -13.619102625903167 -1.0463821475206574
-20.8259747864501 -13.627826922799999 -1.0521526520253635
-16.391139268344844 -18.624657348618516 -0.9137440305248234
-16.45999997681794 -18.516008830734503 -0.8677644777864879
-14.839903160968769 -17.56065259393129 -0.7564050194116589
-14.477854333407146 -17.345792757110257 -0.7470746682322156
-14.411472683607592 -17.324217460314856 -0.7271093341933252
-14.319618100293004 -17.298989206028867 -0.7107974735890594
-16.475861740981994 -18.476219528057214 -0.8629492187776726
-16.21951728111851 -18.2546796885497 -0.8675367552342061
-14.926242231962384 -17.485759966966462 -0.8130013067780464
-14.610846751755869 -17.30417938840972 -0.764105435226947
-14.55278704054493 -17.299068888518597 -0.7393697384925566
-14.44312550379464 -17.256673553100402 -0.727287178552589
-16.294329281895557 -18.178519397023564 -0.8853166244403209
-16.274723336060234 -18.17692112476174 -0.8828469929686216
-15.892343008907611 -17.963561708457714 -0.8214812100023619
-14.973624417211909 -17.45325050502541 -0.8112458047004925
-14.961227060204763 -17.45758645880481 -0.8197806841477433
-14.660615705358122 -17.253568423173842 -0.747566798747288
-14.601142418625951 -17.211704524372664 -0.7475568064455993
-16.494586293860166 -18.2477189350586 -0.8157589159759548
-16.45857502268142 -18.189071275028784 -0.8289894995833519
-16.391434077038525 -18.16523022975978 -0.8362631278151869
-16.086714028731468 -17.93787872978022 -0.8661149366860907
-15.97885259699483 -17.888493427349896 -0.8551820211734256
-14.743431340630654 -17.176234853118384 -0.7959311643842125
-14.638991336831303 -17.147098801691865 -0.7882917588794389
-14.422468731946472 -16.96040820917811 -0.689890517391957
-17.21294207572739 -18.568004930457732 -0.9388470869574399
-17.193266711688874 -18.50690472187722 -0.9369692143133054
-16.49137524186777 -18.12158396024255 -0.8313649263452726
-16.433243898081205 -18.116837625005793 -0.8241014297047937
-16.331809035813247 -18.00804935378789 -0.8197018071933072
-16.204969232507253 -17.936912477141032 -0.8393243638026928
-16.180728966273804 -17.9115279493846 -0.8651799706665948
-16.07945973706756 -17.875155257570164 -0.8619558225101893
-14.51592795085773 -16.91560069990554 -0.7413008537426302
-14.460161874521287 -16.91460839854101 -0.7515809327115666
-18.859579421863447 -19.35944216056543 -0.9651713794894531
-18.81823337656931 -19.328978601232706 -0.9713836822038322
-17.175606450121865 -18.4410904358126 -0.9372636016958463
-17.164419939295964 -18.4275106306984 -0.9446815047924566
-16.367432634382304 -17.923503627805577 -0.8295462369110971
-16.252214805317895 -17.873986799660806 -0.8337407855908248
-14.557808295466803 -16.870036866546602 -0.7410988628919413
-18.888058780114477 -19.350603706865733 -0.9647443504473117
-18.82248779357788 -19.27922692909904 -0.9695464011438599
-18.777333208674957 -19.228664749094712 -0.9775161574893189
-16.387508743624966 -17.831894445854385 -0.8009477211664318
-21.46094404472398 -14.75908221436911 -1.0282852468075614
-21.405222798111378 -14.742704181922008 -0.9928366345605648
-21.52828260549691 -14.72112538725536 -1.0006062508958733
-21.467605693677278 -14.715893809673052 -0.9848026458673683
-20.99995071816653 -14.023734389570468 -0.9783508947633194
-19.942344429194755 -13.369667570398295 -0.8385648009749144
-21.203778930127122 -14.005575939788258 -0.9610942377270857
-21.143776481190514 -14.015888936661677 -0.9632358737984182
-21.03907696640221 -13.956092326549363 -0.9653328918678058
-20.14917908650933 -13.409642157845358 -0.8602563552734729
-19.967542028166466 -13.265236602386631 -0.8755424964846021
-21.238858455608728 -13.96434300050144 -0.9847126558286399
-21.170618573386733 -13.897923070175958 -0.922822534849844
-21.1322943674373 -13.883105099197875 -0.9213032117826306
-20.231854880427548 -13.341053483152155 -0.849951539971544
-19.99725600965193 -13.206864815875662 -0.8690121288152809
-21.350345920789465 -13.912599492395438 -0.9943376143281445
-20.12118401414678 -13.156809970439287 -0.8459479096162671
-20.021666518564366 -13.13135344646506 -0.8731560534088498
-21.455340472185192 -13.897370082411149 -0.9120759410143423
-20.061965064425607 -13.030181220310974 -0.8720367823905387
-20.096587205009012 -12.950554479424225 -0.8865912496673919
-16.50335145116288 -18.775393214183072 -0.7747387619350623
-14.71637104296709 -17.71024945112267 -0.6462290320569823
-16.558417658062503 -18.727116054353786 -0.7589047178731748
-16.4988753831892 -18.71528532888252 -0.7720823165804157
-16.438201937561214 -18.59843069501599 -0.7872587016325322
-14.770856733885438 -17.669493135960558 -0.661668408656175
-14.760800677047119 -17.62204495886187 -0.6885838168080385
-16.64418918930331 -18.637705513050683 -0.7792271707825689
-16.433172542729867 -18.566191747434765 -0.7807342300872231
-16.380279783989895 -18.462811941457066 -0.7208548778181812
-14.811781548159663 -17.609911007464767 -0.6961039009382355
-16.676430494582096 -18.56655929450512 -0.7893841777257145
-16.361133558349092 -18.340340626546624 -0.7685804686281014
-14.969684340949518 -17.566604410738343 -0.6399003798259275
-14.917773720594395 -17.511851418249552 -0.6895670256040927
-14.517113651433064 -17.30727091926226 -0.6920414885306378
-16.961965099318 -18.59559196382976 -0.7440491353660437
-16.69896990962223 -18.512804078115185 -0.7767016911081416
-16.393999328966 -18.300339421675766 -0.7780174528689935
-16.380329892858207 -18.21428796444864 -0.7899478410507994
-15.091277197419208 -17.46931577833028 -0.6674267351670178
-15.007283746698555 -17.453278377061938 -0.6804739197157967
-14.960919725645306 -17.453468664380043 -0.6915059457213146
-17.162580453522047 -18.581429181630938 -0.7583339993932519
-14.822589628882781 -17.231547383839963 -0.6244241267580012
-14.386907971024948 -16.973065977781413 -0.6768419400777742
-14.168591312023437 -16.84714572978404 -0.5750469057118499
-14.038610849288103 -16.714962823281 -0.6185634824787964
-13.960636332729074 -16.718708466535162 -0.616408055438502
-18.92688194806432 -19.501803395339973 -0.9519454506816114
-17.1690091005759 -18.528041163504728 -0.7714567738400652
-16.22740121339137 -17.913220271306958 -0.6957468175107943
-16.21896296590269 -17.90326042710528 -0.6956804614139529
-15.98635442119468 -17.785381010129157 -0.7029683845042765
-15.929987310332036 -17.800084665773724 -0.7043799922607189
-14.967608182264426 -17.1926542862067 -0.6254505001957106
-14.336039444726643 -16.816327033689973 -0.6295861215076248
-14.28736792171254 -16.78792354973046 -0.6221919866441378
-14.164123191338186 -16.683375434660803 -0.6532095740671884
-14.102750418150128 -16.69874248626711 -0.6363873971487212
-19.000230648511028 -19.510837187315403 -0.9504891486238354
-18.933252940393373 -19.45991708262319 -0.9520059767062684
-16.291216612127506 -17.859907097750664 -0.7376622633150056
-16.23930788732379 -17.8088895620725 -0.7410919540753892
-16.044473990025402 -17.744751026832663 -0.718987868850878
-15.050711292580143 -17.175493755348555 -0.6284988100342592
-14.404608388650258 -16.800984529465115 -0.6122363319879665
-14.330727505468335 -16.678915297722597 -0.6288605565793335
-14.24015081466666 -16.671400350716397 -0.6434966442888661
-18.98260600692039 -19.387635216459927 -0.9161447927287014
-18.93283381191112 -19.26387763652092 -0.9189675273890686
-16.504773557691937 -17.83131627254596 -0.7902941421696135
-16.395233341812638 -17.814452970617083 -0.7594867433567554
-16.351848285274066 -17.800406184363172 -0.757856422491386
-14.416165281254795 -16.676005346280206 -0.6179588378814249
-16.53946455885018 -17.803729589215067 -0.7396388746784486
-16.4993028200529 -17.785868668469472 -0.7313876845955303
-18.90226989108806 -19.118164574882282 -0.872968059352064
-18.87724375026981 -19.063130874355505 -0.8595040574480006
-21.428424936128835 -14.709157139795625 -0.9280861807786702
-21.603857897026717 -14.72142000491562 -0.8611999722792885
-21.554399864732535 -14.69188856844201 -0.8773091962323128
-21.47247630412294 -14.698918473960152 -0.9211526591179084
-21.652156257763444 -14.69222183008432 -0.8591017730847775
-21.027863954465836 -14.041918653406544 -0.8502410659028006
-19.97894461461273 -13.390938738711633 -0.7940941393877137
-21.059876418760737 -13.975289088059142 -0.8459919732701342
-20.031060009334094 -13.322024474769382 -0.7977840928031055
-21.175750944592078 -13.918596916447033 -0.8809643844729521
-21.1346176446692 -13.934181307011627 -0.8598855880626504
-20.16734542568157 -13.314532905405482 -0.7943905702285603
-20.064753698318277 -13.2869825297855 -0.7942198132159902
-21.334978734600377 -13.850692633165444 -0.8237434545981097
-21.257182556647358 -13.863958628691158 -0.8568778421242478
-20.46866534997504 -13.331335556040054 -0.762016138799875
-20.276554261936536 -13.254741511757889 -0.8210774641101681
-20.133116878153167 -13.15597328117067 -0.8210943110069961
-21.394530546695048 -13.834596819318037 -0.8230887727597662
-20.547358504980288 -13.276845414985557 -0.764027101571302
-20.32174751830707 -13.21934808624025 -0.8363536675690826
-20.18326022268973 -13.051635465729067 -0.7985697253048912
-20.115569480012898 -13.086325359149626 -0.7913656591441248
-21.500213177786584 -13.793216178495676 -0.8209971479263383
-20.654030430182136 -13.237200239080732 -0.7733812649266947
-20.20885851325202 -12.992852567095458 -0.7576727909544881
-20.264635986944306 -12.949796795397287 -0.7491820714696258
-16.897611247737544 -18.850672575810215 -0.6493928594985463
-16.67842659576511 -18.661872804398786 -0.7181160644815794
-16.394704501265313 -18.488919505900167 -0.696223145373875
-16.912173055765304 -18.68540218331713 -0.6862254114104307
-16.428637390575382 -18.437077954227888 -0.685114146444868
-16.938846053043427 -18.594436892069464 -0.7102389192296449
-16.877776010870956 -18.545219835209032 -0.6528004750636974
-16.463138065703344 -18.3241602397327 -0.6597669196165328
-15.109171397542413 -17.46797140904626 -0.5610103064635711
-15.005032331126882 -17.48693412185379 -0.6221392317906975
-14.048272152517345 -16.851249140822222 -0.542461903574561
-17.16099335240797 -18.574755466153157 -0.6742808769086837
-16.99144357171665 -18.531357219934193 -0.691577030159078
-16.720925900191574 -18.321642083834263 -0.6605584463822569
-16.68834411550047 -18.297726824799526 -0.6648160244199699
-16.478511629109114 -18.19695002324759 -0.6388591190159396
-15.859827696975252 -17.807818626652395 -0.5827628168539581
-15.15617073769775 -17.43415170089286 -0.5546460304648686
-14.780571968174481 -17.220894503670255 -0.602289149841611
-14.737710507297828 -17.19371319978982 -0.5673119479710951
-14.674733917890958 -17.177504984430172 -0.5357063084333227
-14.200135445816834 -16.83946595769381 -0.5481138387642064
-14.134278254861421 -16.835559455880475 -0.546558805375381
-17.443941775118972 -18.638198633583762 -0.6959330617495032
-17.407187496264275 -18.625014349265577 -0.6974587414663209
-17.173644289247893 -18.541653883701443 -0.6554939229567145
-16.9974341815954 -18.434442016486727 -0.692481003374975
-16.739792915974537 -18.262306663874206 -0.6423775300213319
-16.721844554418386 -18.216504471013202 -0.6651333525048315
-16.50843468023291 -18.12296779805691 -0.647551836822611
-16.34119297743336 -17.958439103981256 -0.5983279278581499
-16.275438540872454 -17.923090232529965 -0.6183568710610511
-16.2003533891316 -17.885552299333572 -0.6388833951999104
-16.080879674144658 -17.83040249503409 -0.6244795089909446
-15.986053252877184 -17.813303500616193 -0.6684986794126818
-15.20604286510935 -17.370591681298283 -0.5453338433603261
-15.159158384089146 -17.344859242302903 -0.5309719813069257
-14.956723293848865 -17.166733756413045 -0.5697767652605334
-14.920667345003785 -17.12516162245356 -0.5372096995737741
-14.800166665376205 -17.143786015210043 -0.5446513762848066
-14.343599181237053 -16.774892748394766 -0.5250122201330043
-14.293782741347338 -16.788672554450542 -0.5275915146011045
-19.065814400244044 -19.498199283743855 -0.797844466906928
-19.000736303712852 -19.456942385966844 -0.7628494499160661
-17.4536408546643 -18.61001647803148 -0.7112097217179806
-16.72640169903079 -18.174944395785502 -0.6717413588562676
-16.35473950692119 -17.91409927164746 -0.6019645006042091
-16.288929510083175 -17.88173174053189 -0.639118987901501
-16.22393403080392 -17.81377176728577 -0.6469462115290765
-16.111294794420218 -17.799869379511097 -0.6290373407747323
-16.035841411565396 -17.731076359617887 -0.6279581291278054
-15.058309024380772 -17.16986609494216 -0.6109380038242718
-14.963529649690958 -17.128028830105475 -0.5398537708266453
-14.929105407031901 -17.109670484719565 -0.547492570069563
-14.424403736962669 -16.74693288856631 -0.5023192049893874
-14.342313883184318 -16.758580288814457 -0.5231893848296261
-19.003075863684018 -19.373087779855783 -0.789833309074157
-18.96689956088207 -19.328018645575703 -0.792525189567557
-16.5749905768652 -17.945368807875102 -0.649485444642554
-16.510446457657284 -17.883624143158602 -0.6315071311717244
-16.460604479826863 -17.82685835203578 -0.6711096392922415
-16.05411380966903 -17.626547200474405 -0.5987080786794304
-18.962322957435912 -19.224963886036214 -0.8402983525443204
-16.554664649872194 -17.84073637806792 -0.6960619133028905
-21.76834732333793 -14.699397747984477 -0.8314179725117692
-21.674548094213165 -14.71755050071706 -0.8329839537523516
-21.91138525241097 -14.66617562959199 -0.8285490218025562
-20.78976746608769 -13.886546773446339 -0.7053652219198181
-20.15598736177829 -13.480824372367493 -0.6645904931765511
-20.819057150303937 -13.852017850720562 -0.717020962006534
-20.338146181287595 -13.379333602670258 -0.7006052431902625
-20.252960195522007 -13.402265679237427 -0.6794092533631136
-20.373148592241723 -13.317485923460408 -0.6895011234634834
-20.23090647353909 -13.23406588672793 -0.7366687496929588
-20.09989776618964 -13.10194787300544 -0.70900812661928
-21.426798851961035 -13.79691452161375 -0.8036663136815372
-20.494239579846923 -13.284343188331476 -0.7250785582310498
-20.47667265254505 -13.206118505603833 -0.6677974428378656
-20.158140827106937 -13.038684970497679 -0.7207783681297264
-21.528214417523692 -13.747671220537718 -0.7919096123091401
-20.548857313145586 -13.212303065796052 -0.7192005432014408
-20.214587476666136 -12.994082265707277 -0.6945169196294145
-21.573755338845928 -13.709892113903498 -0.7629282832516092
-16.875967710599376 -18.901235854809794 -0.6415597936485733
-16.880437710621063 -18.831969596036135 -0.6396751065269208
-16.8390778926807 -18.610109579090494 -0.6185196906260713
-16.845567301497354 -18.568467444141316 -0.6072685964150835
-17.154885690038746 -18.585382033874517 -0.5883202006021566
-17.084105907637415 -18.550337733945216 -0.5782555260480802
-16.90111580553246 -18.445147190937558 -0.5587950520089859
-16.780528718140893 -18.410472766376774 -0.5708753410246405
-16.713057798239483 -18.34392475640682 -0.5727563644554894
-16.69384367188351 -18.289001794968385 -0.6067665504881539
-15.76300917153046 -17.77789490090789 -0.5293622033276095
-15.250907851790306 -17.436998976638737 -0.5078818687702313
-15.20014945414084 -17.419960004857973 -0.4779862104727802
-15.133892554046692 -17.378570646876316 -0.4289473231969987
-14.819881778619026 -17.185036973787792 -0.4114138719524223
-14.804639195978968 -17.173178175575803 -0.4109842690151221
-19.084980771389784 -19.597474451521343 -0.7032037304818388
-17.564900377087945 -18.70857216268167 -0.5843794338043389
-17.458254582220714 -18.661331936080135 -0.6324435287173517
-17.380522079995263 -18.6215754367409 -0.6467707132998859
-17.341476365272005 -18.566191812493315 -0.633782247332319
-17.199910926642783 -18.555402385199585 -0.6158326744421533
-17.097594622469984 -18.475263777085633 -0.6066102216334834
-17.088024044868202 -18.40797387000133 -0.6123173662267412
-16.92252239679776 -18.375923068434656 -0.5505738487060701
-16.722820001371364 -18.267653140588244 -0.5763751327173201
-16.702825293520714 -18.228793994820812 -0.5890648710656445
-16.5010817323355 -18.060202753222036 -0.5181953737669138
-16.100757405365606 -17.839006241676383 -0.5751159552217254
-16.024812276674673 -17.775846359533325 -0.567459128022573
-15.836499514962462 -17.730264189345768 -0.5520930028671479
-15.28071500513704 -17.41248522167286 -0.511200057538578
-15.208158102270893 -17.35435838045047 -0.49181526626909505
-15.136977477469514 -17.311085720579875 -0.4749933240522525
-14.929912991410015 -17.184644519040067 -0.41800822833115925
-14.862280063927631 -17.176340593594702 -0.41756053788141523
-18.959383843614933 -19.46595940302955 -0.7027536932352207
-18.913200332729957 -19.404518397550937 -0.7110521863744217
-17.424574941105544 -18.573972502587466 -0.6493098655239121
-17.361499114691973 -18.509706413433793 -0.608806920952643
-16.7150541507392 -18.165604681962037 -0.5850152668176178
-16.504280216003202 -18.052941786917717 -0.5127528706682853
-16.488059051781494 -17.97236991831248 -0.5617589678724627
-16.355000606932894 -17.91817440341098 -0.5655982738827456
-16.328336446144533 -17.881189992008448 -0.555555798045891
-16.280496966018024 -17.817602437064913 -0.5007288873021114
-16.093578232315956 -17.804952738557134 -0.5769565895686105
-16.041027985246444 -17.75676278493631 -0.5688428341085973
-14.488671838709465 -16.767135785990334 -0.47147000300655895
-14.44262714720327 -16.751025029448147 -0.47432361810272605
-14.35230760863918 -16.759612829659876 -0.46155742257623655
-13.711078842662111 -16.32406514546225 -0.3363225012968123
-13.686690135881285 -16.314984919636036 -0.334041408305377
-18.904252638723577 -19.33426674809685 -0.6994431146124828
-18.857208760894906 -19.305418178264414 -0.7053394793051193
-16.48227215797322 -17.915922399499454 -0.5729220983782578
-16.064730512427847 -17.61501549497503 -0.5119050750928381
-16.050935177627125 -17.60437313458662 -0.5065482091406879
-19.062803319695096 -19.281176799658382 -0.6749362405975805
-21.26384119317906 -14.630729342797906 -0.6657348145419839
-21.372174896487113 -14.596331665941516 -0.6875982964308421
-21.497985796792605 -14.563306786570239 -0.6647364397674401
-21.46173707770424 -14.57471082293224 -0.6532251141287777
-21.603983681115608 -14.496341200912127 -0.7260751313563738
-20.79911595485533 -13.87686775336826 -0.6093823906214015
-20.277039023797155 -13.32262357942491 -0.6316732144357914
-20.30882563299063 -13.298681144369956 -0.5970203713468835
-21.345690636496602 -13.757576342693921 -0.6660427331621743
-20.402928477126178 -13.1767823352969 -0.5486695663790699
-21.49039405114027 -13.69487763057069 -0.6923285584237198
-21.36512502363548 -13.706352009933315 -0.6268958680901887
-21.44009936100626 -13.642959198594074 -0.6187290918887225
-14.184846578035618 -19.395577940999992 -0.4021966398335315
-14.26081756399881 -19.332497410928696 -0.4063390075011768
-17.063093269491024 -18.6938059740203 -0.519214666289924
-15.071295372168663 -17.48558903839098 -0.40607856319897895
-13.111815705590526 -16.31469977336256 -0.21129435522257267
-17.19614378036723 -18.64430107580364 -0.5056544035989557
-17.171965832889285 -18.59537291737365 -0.5298779462980268
-17.05208171382673 -18.570053378908433 -0.5230972952476511
-17.04490000473188 -18.49209155154523 -0.5083445351977585
-16.906470939378288 -18.418357785152537 -0.5138272188566776
-15.16295763741679 -17.40802666924688 -0.4073692075996076
-15.116028691034781 -17.40155444764628 -0.37919356467036747
-14.785595623476219 -17.165492228358453 -0.3976538271520781
-13.512101255189684 -16.41648930222004 -0.24849661682930435
-13.31635022393075 -16.307631513709836 -0.26111621138837826
-13.186360068558008 -16.30919525378464 -0.2388562998009771
-17.53408558594441 -18.69490743637382 -0.5466171188707243
-17.49264133033948 -18.68408531767595 -0.5563031583738007
-17.1999476034355 -18.572439553980818 -0.5255189562714563
-17.11757840774285 -18.50798401617725 -0.5442779581221144
-16.91418037117184 -18.370163535034138 -0.5238381775212122
-16.468707823860022 -18.116753787519475 -0.4802261760992942
-16.47217799242856 -18.077615794913 -0.49181788476075033
-15.13398236501341 -17.30665055317512 -0.41465543526932025
-14.96142273427872 -17.186358678261254 -0.39824678104406186
-14.821595900052781 -17.163872347432896 -0.400065752760313
-14.80132741567741 -17.155316695514074 -0.3880976508239117
-14.189706463600709 -16.79478041637391 -0.30027495790053715
-13.847254953894044 -16.51251244062648 -0.2560832509257147
-13.795798550646312 -16.476557196808145 -0.24887718413561355
-13.674941583507158 -16.430508732401996 -0.2628192956246581
-13.58275592776575 -16.388512511989862 -0.2703840049180275
-13.551355398758908 -16.31783971939642 -0.2988525108072675
-13.408155697509272 -16.30993396280071 -0.27618199605485816
-19.049612968175456 -19.50292162990914 -0.5709437344423665
-18.979116868691918 -19.434333664777743 -0.5982548857545382
-18.93337063238906 -19.401316779396964 -0.6234156648804474
-15.16349732611997 -17.24884611961312 -0.4126827778739356
-13.885670437328159 -16.437231715702005 -0.2884803266208068
-13.844942134476206 -16.446652166043084 -0.25729253280178077
-13.696677184623148 -16.324696874506902 -0.32797199005316957
-13.632965627419617 -16.320966480109796 -0.31807237013887946
-13.578656677762154 -16.301040571511994 -0.3066947210669959
-19.096800802597656 -19.36982253636188 -0.643959656806188
-19.006701630467052 -19.394643113754917 -0.5865097728200641
-18.923615035998722 -19.35761795819055 -0.6210415235958999
-13.940611458101026 -16.403373407528072 -0.30520536067009885
-19.071934204963096 -19.31817696289729 -0.6163824246800347
-21.181449615784324 -14.673122299899598 -0.5585212757270348
-21.17207045584036 -14.66344035104961 -0.544796086085416
-21.27832798492678 -14.631662512027944 -0.5898529270439652
-21.379213205065312 -14.605315681358672 -0.578929598606645
-20.733418243834713 -13.864655846034852 -0.5650488384930623
-20.800503663028223 -13.793591034712417 -0.5186170643023755
-20.73877331926138 -13.802594231426806 -0.4825352177712102
-20.205844334201164 -13.466807866459568 -0.45953103837240905
-20.247790344880094 -13.342981937923955 -0.46269908576737595
-21.072089224404007 -13.748404559016635 -0.524744362085471
-20.320282834347605 -13.285956539462603 -0.4719210927258676
-21.30003510325173 -13.703795649572092 -0.5778382603943297
-20.36022373323157 -13.193082382038938 -0.5186941640274578
-21.27902877895379 -13.646431690727123 -0.5131870821729223
-20.439590203925103 -13.140942286641266 -0.5270141973932236
-21.39289890431406 -13.587358507143227 -0.5275389227593733
-13.904100085663359 -16.859509847570955 -0.20018648472865963
-13.815685805465112 -16.87760461949147 -0.18012421021725378
-13.630214108146015 -16.717303042004794 -0.15257478159544713
-12.958328343382327 -16.312116305443446 -0.163624339104801
-12.832129132606266 -16.320981118175375 -0.11713777208898224
-14.129922246312027 -16.928117597149775 -0.17632849157537445
-14.01802692747936 -16.833134553529323 -0.21384903207193284
-13.931867777969709 -16.817119541647138 -0.18266619295343334
-13.884698924056442 -16.745125312883896 -0.18636569324907026
-13.766579006790653 -16.70641556413108 -0.1850011839849841
-13.679499533270505 -16.634058199634936 -0.15223375242017623
-13.58636241452459 -16.56806372047505 -0.14890008201309957
-13.070885477346422 -16.316078078338045 -0.18993420409910322
-14.224300590109502 -16.871078342911243 -0.18096488092715046
-14.164802301338499 -16.841265270608147 -0.2160628114038634
-14.060776534591694 -16.790723454774884 -0.22903618453405128
-13.982899961342769 -16.745073573428556 -0.21321473316905737
-13.872251495973213 -16.70407689053193 -0.20878727333891822
-13.804590099684308 -16.59942436020058 -0.18337495627540568
-13.73299184435636 -16.561702960873074 -0.20808654651250758
-13.645258324266036 -16.57519944070664 -0.15557806584146094
-13.584845078075894 -16.44334832059344 -0.2320979667789007
-12.813517150243921 -16.000475583689337 -0.10110847350994856
-12.729953223559445 -15.98680881432296 -0.0868075617868923
-19.092334095141315 -19.609411993678584 -0.4914643771015971
-14.339855995126577 -16.82343083898632 -0.24353107449435318
-14.31252131083753 -16.822293795733653 -0.2472361231676139
-13.766975578385043 -16.522659316466704 -0.22503300546280602
-12.928550223888582 -15.954666514159763 -0.11888059949482788
-12.844056590282252 -15.945354168014404 -0.08868668895277698
-19.217999989806742 -19.591374667263068 -0.4740973841040622
-19.089582639093152 -19.579878006501986 -0.5085790463214246
-19.04636221348546 -19.508332278347794 -0.5111025495190309
-19.01484718007465 -19.462605165879094 -0.5040702565671704
-14.418609131363393 -16.796198229235678 -0.27371003615770007
-21.237308024097434 -14.633265128873798 -0.42283634006023973
-21.192840369504072 -14.638718491832044 -0.426702263378256
-21.378630597544774 -14.583694624247055 -0.5091813661587337
-21.62187614721686 -14.502529289424405 -0.4701774822945862
-20.630659250061996 -13.802434632133663 -0.4286791362570245
-20.199115975320492 -13.511881432244802 -0.42256860606993774
-20.01517552892758 -13.478815822006617 -0.4036845877855799
-20.76224653114172 -13.767725788345636 -0.4615457294760644
-20.642439279424003 -13.755905307093816 -0.38419681853805066
-20.293193680349862 -13.465099495594144 -0.3591981096807171
-20.23429975139923 -13.47247929553045 -0.4024680410613276
-20.78549645130591 -13.732626809310634 -0.44022933500213546
-20.338154786978727 -13.412397080690752 -0.37826637144217556
-20.140027617681127 -13.341422812634875 -0.38058647443483784
-21.269782323289913 -13.601206806889078 -0.4657449076572171
-21.37393879003566 -13.55403403759816 -0.45555788802057695
-21.395468128302213 -13.498022843624266 -0.41252384267747033
-12.460407124463487 -16.3508681234931 0.005395441810765567
-12.60651767144406 -16.338658157059815 -0.04100600896693685
-12.502399221926503 -16.342268620679132 0.011458011568278637
-13.635922068528915 -16.841152258268462 -0.04891864844603111
-12.71679286044172 -16.310085889978783 -0.06766685870486355
-12.630284398946095 -16.299004575974415 -0.022248511779825786
-13.735121175889988 -16.7987996553725 -0.07890478402343726
-13.573020557142168 -16.69839046275045 -0.11727100834674342
-12.584398410850554 -16.10237884137058 -0.004176542796067051
-12.508173791933167 -16.070489617234937 -0.006104862519975329
-12.396040189240143 -16.042085547477154 0.023806605843963435
-14.166678837564433 -16.93525055007534 -0.16721681322268578
-14.114850395467437 -16.914629715279943 -0.1633120026501248
-13.917956659196577 -16.75851204827585 -0.13742413701904277
-13.850450105071902 -16.750061633601078 -0.11365528557277349
-13.592992445635755 -16.613284260880622 -0.12689331822016003
-12.82781999667221 -16.17754558335249 -0.011785164793001957
-12.705771021024681 -16.088798896731337 -0.0022484953651458195
-12.65453953496881 -16.067063489446436 -0.033303862903028225
-12.546121562588326 -16.03980322063043 -0.023759306855644202
-12.491545448406796 -15.93243538151592 -0.006599852589154742
-12.295840135720574 -15.881554546581993 0.022392468233187746
-14.229548929605281 -16.869605100784916 -0.15040796438627535
-14.144297192632632 -16.810000714886666 -0.13774423377403244
-14.106366285420677 -16.79523964697024 -0.09712084772774032
-13.96385739088845 -16.75901356272538 -0.15761989328057902
-13.88705444417128 -16.6997716990853 -0.12080032953080666
-13.630396067124392 -16.483079756422036 -0.0418614224750421
-13.611560068491588 -16.475827248648187 -0.04435251518323258
-12.801476432408068 -16.058448020708642 -0.05812077405898064
-12.719682588934132 -15.96406661620157 -0.05901486874306794
-12.583064537638608 -15.929962034399027 -0.021399710630947033
-14.287827269574148 -16.822664815109 -0.14532032473105505
-14.181793070308588 -16.782736051358157 -0.1334161368051312
-13.65845950444072 -16.459622896922156 -0.047546190010259615
-13.034035667315948 -16.055574315793667 -0.01150146251476003
-14.400973192464008 -16.767177310403923 -0.14607313891299267
-14.443643140896977 -16.502195529755976 -0.11689857296276052
-14.561147164631906 -16.46487148260165 -0.13941306505752515
-14.61780034853048 -16.442736945445148 -0.16451728961713652
-21.25014254282026 -14.620791445005434 -0.40700831808441607
-21.516688625044893 -14.509303922399255 -0.3407817651921573
-21.752513506715623 -14.44929000436541 -0.42594991440089036
-20.590322797482994 -13.754919730956695 -0.3507507699448811
-20.571476752284273 -13.729589010518477 -0.3042705238752753
-21.792985315156546 -14.436268659841122 -0.4359666495847716
-20.64181860770909 -13.705811994268156 -0.3274057781917993
-20.282403435365705 -13.47357708522259 -0.33912446564248133
-20.276505304187943 -13.43576756411803 -0.2958400501146792
-20.780206893110734 -13.655717778839428 -0.33742693361887144
-20.729487646608835 -13.615709929438546 -0.302928442973327
-20.326926591996752 -13.42125754299569 -0.2902897105375083
-20.274692011570835 -13.374470421490374 -0.290705518480015
-20.19916777827507 -13.274072259757324 -0.3313393200053645
-20.93518674864447 -13.646363835546047 -0.3044481764499748
-20.30329901583994 -13.284043358236223 -0.3124912855827491
-20.231483181736817 -13.241427340931871 -0.30878188930066497
-21.15713882585477 -13.607912368042548 -0.3730765670586491
-20.388243082893958 -13.237026464677765 -0.2999791681682996
-21.220846175478588 -13.566270615273414 -0.36339163638616556
-21.16007612505561 -13.546016003116772 -0.3302393406777281
-20.46456624949187 -13.175818444655452 -0.2693832404450125
-21.29477002612613 -13.540344414951168 -0.3891328108631481
-21.284790485449186 -13.475543429461808 -0.3121687366268756
-13.49940565966904 -16.87893928272205 0.00037897910320672246
-13.606804121311484 -16.833723216954862 -0.0323494644634581
-12.610690054199488 -16.20727444828098 0.05630395801949484
-12.455890376790961 -16.177878720899937 0.0967185674524158
-12.407413729373406 -16.127807081554177 0.10196859166656935
-12.698006471960582 -16.18393718519203 0.032572800260352475
-12.592239083547769 -16.143271195607852 0.04044331648482635
-12.286114197675026 -15.912450608730817 0.05515628303154552
-13.775064945854677 -16.70909334732416 0.046027036613310424
-13.513892870390292 -16.532991746851234 -0.009764196195308217
-12.625257059319077 -16.043778136054463 0.11241411287224246
-14.12446881711577 -16.819664482024955 -0.055714449312604275
-14.083784216311281 -16.75103902838261 -0.0153668562962469
-13.985406936081564 -16.70433345728608 0.014336870754309006
-13.854649182717818 -16.70916546335186 0.04505480487224256
-12.829513231127697 -16.039945874554846 0.07640787861508369
-14.118854121952301 -16.722681145250213 -0.025736947942888055
-13.659387052309874 -16.4325870321663 -0.030553596465462518
-21.650898767949002 -14.44952860137525 -0.305475373822081
-21.884201876499766 -14.350931389843492 -0.25389000886430046
-20.648627739767726 -13.599985169954596 -0.23406113536534934
-20.745356373882135 -13.500834122729207 -0.18887013653183815
-20.675549771900876 -13.514782104200858 -0.18529452132250301
-20.763688218595902 -13.468266024719501 -0.1963800811838592
-21.000668036715503 -13.508052321180642 -0.18843484839816604
-20.849455884965753 -13.423544639394278 -0.1974240643920704
-21.223229910601084 -13.459695026564255 -0.26257215272902446
-21.16204611885677 -13.469819577481728 -0.24319911271757222
-21.244909738567404 -13.400211044108103 -0.2003872620650028
-12.256757385748987 -16.13343847723905 0.16975524765770533
-12.43389099379802 -16.108530317094317 0.1867580531007551
-12.302571113062209 -16.126998443309237 0.174143607268755
-13.699285110836655 -16.74456708186234 0.08410004880554545
-13.655084381164997 -16.76660510569914 0.08941539582813629
-12.62382643935845 -16.101734460746563 0.12380017041216829
-12.553216051455955 -16.07118715744919 0.21074646350812665
-12.431481659791132 -16.032547923992578 0.18459325249461545
-12.260646399194671 -15.947815873275784 0.18256119172808272
-13.849774395242896 -16.752872166233857 0.06494586206765773
-13.77642444900236 -16.706109469515933 0.07150980484887093
-12.576255994529667 -16.033972761677003 0.13755218501327682
-13.952875419576749 -16.70303945320677 0.08536279794791013
-20.536006735465637 -13.581298544349407 -0.1472695041714015
-22.01782221564957 -14.240750250880156 -0.20577810132568686
-22.09931846219643 -14.206258908033705 -0.17989665702726443
-22.016406089177618 -14.210491895775906 -0.18423499843597424
-20.970207238267857 -13.525534298847184 -0.14722319541324635
-20.754906134043885 -13.452830488969246 -0.16303867444676867
-22.17192372934538 -14.176972319744953 -0.16493392712461152
-21.044705152106225 -13.494885341859934 -0.166975407966647
-20.865487525188083 -13.367609506680981 -0.14559150427152756
-21.13584415013981 -13.432685550798007 -0.17241175919392937
-13.836927878586499 -19.387473999567767 0.15766099810713308
-12.74711556787408 -16.468095558039487 0.26429182799910667
-12.227313921333847 -16.115907070512318 0.25529117688060077
-12.21848060185556 -16.110647703155397 0.2809515367700435
-12.26807976840173 -16.08832570110009 0.27211309036251774
-12.205097722486293 -16.047648533979835 0.3130645104278169
-12.405931138550422 -15.919250168819673 0.312852476095151
-12.654910302833212 -15.94885226730363 0.24846928776857036
-12.231737676424189 -15.885327691454275 0.35539299098117416
-12.327570443980818 -15.88161588400126 0.343330042117566
-12.175381443394247 -16.52523267435618 0.4602789062361865
-12.14665673693974 -15.994508064070546 0.48058376068482955
-14.305612141009966 -11.830319868084773 1.0230626714759732
-14.268226873169866 -11.777846920758575 1.0713545658048156
-9.75254442492987 -22.96770740491381 -1.26445448268868
-11.671670549232367 -14.60115916650342 -1.2687207214458467
-12.740863978921166 -19.720133329470862 -1.2652475994761034
-13.212928902168164 -19.903020653548246 -1.2680870227812833
-11.940514580126177 -13.223111296764047 -1.2693359700886646
-12.00714792226137 -13.20034096890059 -1.2657141036410287
-13.558499083806385 -19.996099553938226 -1.2681989332718295
-12.16874443007423 -12.898221793356376 -1.2649593946770596
-13.75298668433759 -20.065989000139332 -1.2705814718788067
-12.250976170326638 -12.790629037150943 -1.2637892969947355
-13.892009981432825 -20.044052253646903 -1.2659332137696764
-13.528465102649582 -15.935085710883165 -1.268249145769174
-13.530675240481706 -15.807425302110344 -1.2655020280710028
-13.482164633329974 -15.672300422458823 -1.2691345887173777
-13.510877591429008 -15.585083102200338 -1.264981075266535
-13.092759359849087 -11.853434307809593 -1.2645996387641958
-14.552808994652867 -16.560267483756203 -1.269554751474384
-14.727710690038665 -16.888690882148005 -1.2676161592500415
-15.024332557178143 -17.285453605644744 -1.2669159352748505
-15.305598166525128 -16.976673414043578 -1.270113733823229
-15.536021140680754 -16.73568434993819 -1.2686340760872388
-15.479993270893399 -16.623595089078773 -1.2684974130406435
-15.465749960907008 -16.58548040796021 -1.2678872664769276
-16.227794504618597 -18.01871151547129 -1.2660663324790842
-16.355396120276225 -18.058826800907617 -1.2682930869367603
-16.277774255634547 -18.028607202067015 -1.2655724799908288
-16.358269580889434 -18.05261219292223 -1.2669147723599359
-17.035669134477082 -19.012150412548998 -1.2658310707784102
-16.022324746137386 -12.722198342597117 -1.2705772033680494
-17.359015678388943 -18.91427923653719 -1.264332851504937
-16.198279279680943 -12.703914358375066 -1.2717757180293374
-17.492999638420006 -18.898783525390897 -1.268886558745573
-16.237057024552964 -12.752980362076187 -1.2655429494537762
-17.621464348761982 -18.85475464928094 -1.2697141088263821
-16.4571281176293 -12.741138656957213 -1.2678205978438157
-16.576250090128443 -12.762136815674287 -1.2664328914325897
-16.652673799555277 -12.755409728705287 -1.2684629280571484
-16.782669883933764 -12.796667850252465 -1.2657213140218186
-16.85876009155461 -12.798525965625299 -1.2673598684684522
-18.290985013489475 -19.31976288587128 -1.266614858156802
-16.97706950121592 -12.836822679106291 -1.2658204330027751
-18.400780464448356 -19.23291534544003 -1.2650733655834818
-17.103159015366263 -12.856403272191535 -1.2676800005909301
-18.463267804011462 -19.21769542087914 -1.2681148903244215
-17.221810241337337 -12.900727024123434 -1.2667105834570436
-17.171425953420663 -12.858253076623159 -1.2701415129522704
-17.322751667558073 -12.911715036390103 -1.2699749843514567
-17.415576020015905 -12.946857309052449 -1.2701376362657861
-17.390419668311132 -12.934860792158549 -1.270362009378638
-17.564326588479677 -13.00905925234903 -1.2705673153820114
-17.54261617552339 -13.006289459559849 -1.2696052774638087
-17.637723953395042 -13.035612638942364 -1.2717674237473666
-17.92730879165263 -13.25442280009181 -1.265073346837701
-17.815956364401615 -13.131524180209118 -1.2719263361572763
-17.940407897821505 -13.2456564200624 -1.2672517805757737
-19.293043283376978 -13.608646208650143 -1.2659890061967216
-19.261065388763427 -13.534250173442125 -1.2671828534617324
-21.343919251905618 -21.204915301374527 -1.2647283093554613
-21.427175054867025 -21.27069233076528 -1.271828925936874
-21.435812286485753 -21.138268927077597 -1.2670878111671866
-21.59298923280707 -20.904988924126876 -1.2665386496084288
-20.558301530293676 -14.257359415391388 -1.271415543993232
-20.55023485118908 -14.222555669130708 -1.2709814880669197
-21.870368023309332 -15.453436823539608 -1.2701642278054028
-21.925111541014285 -15.112788956993546 -1.269081219743811
-21.90787500735523 -15.073181401658433 -1.266818997004533
-23.944957196529213 -16.875403885990277 -1.2668015344054973
-24.021353325135923 -16.8459695799396 -1.27052842632392
-24.240308519601292 -16.336969127747803 -1.2695574752448529
-24.26752224102072 -16.17683421808517 -1.2668782361798137
-30.755930877508078 -19.81085380637744 -1.2690418887810537
-0.9197968370256362 -36.15842114390716 -1.189818314111667
-1.2921008862863133 -35.844991779393304 -1.1877599310951912
-1.478340211173494 -36.02979588386414 -1.200223286399691
-1.9026394841988328 -35.914949632973794 -1.2076062035108075
-1.956848532263887 -35.703824162776996 -1.2005519588871976
-1.9100517646201087 -35.6240124624751 -1.1961461133888232
-8.715283159260428 -22.79904827646341 -1.2543433834472268
-8.810353850409422 -22.8196072735791 -1.2555637633369572
-8.832863659664694 -22.660536203069803 -1.245769438600857
-9.433733488471248 -22.595271632312265 -1.2417339939391918
-9.85815743826172 -22.825455207086854 -1.2557342418116924
