ply
format ascii 1.0
element vertex 834
property float x
property float y
property float z
end_header
7.100811315862041 -159.84373824429946 -7.598317469447859
7.54356354172306 -157.6279219887928 -7.555657838461772
7.431971408085271 -157.87924171221542 -7.560642048802097
7.471969586975598 -157.8039309823676 -7.5590205838059115
7.510190232992512 -157.72044949891682 -7.557597161689806
7.5513388583216905 -157.12730544923994 -7.546383145806549
7.581413966830199 -157.0308228207933 -7.544391666578032
7.021933585153654 -159.37500761604352 -7.589257264682966
7.351870777131792 -157.84980964673414 -7.559957430727303
7.176371097615897 -157.9492206067962 -7.562119871497144
7.431284595128934 -157.16909317695828 -7.547209350020101
7.445856468183321 -157.0362204637159 -7.5445282469909944
6.776319544564917 -159.08082610982834 -7.583887140057397
6.45648890000639 -159.70100414782132 -7.596372412301166
6.5817821067315325 -159.15299538398295 -7.585672114394473
6.775753651651856 -158.21118154457045 -7.567261333476746
6.83445836737738 -157.5835333972411 -7.555243740279144
6.950756672861463 -157.15011535659923 -7.546928004790513
5.838713115688112 -161.6980612152379 -7.63583826117719
6.782971826801756 -157.6313104265681 -7.556361352055449
6.7010474615458655 -157.59209953844356 -7.555519995376242
5.663032485185251 -161.63477704699793 -7.634962010924011
5.719526062525585 -161.53113635192724 -7.6330117688756
5.992465748035215 -159.75377043815075 -7.598007390359999
6.237336886435088 -158.72721386434796 -7.577773104816647
6.279946818031359 -158.63495332267414 -7.576108258367451
6.375653744430437 -158.05432907800738 -7.564845397208886
6.052741362366445 -159.0603775086413 -7.584452678277441
5.900094625856859 -159.020210915936 -7.583918406959893
6.035320627771457 -158.7533093172205 -7.578725000025208
5.761914652944572 -159.30432737469988 -7.589788373654732
6.308797358375202 -157.02431010213417 -7.54520852135282
5.663091231147408 -159.20015399076573 -7.587784060443853
4.720772980725423 -160.45958306747775 -7.614358881423334
4.515311444280529 -160.5483638975851 -7.616443147050605
8.08424153504829 -144.07394503847232 -7.630681783660999
8.032137715103142 -144.01397881890466 -7.627055533140402
7.977193004582327 -144.05006115615214 -7.625633792814645
4.943030644441613 -156.69105624527944 -7.540664848463478
7.717482526148036 -144.66889360128025 -7.631179990817987
7.655326721650535 -144.59526227313063 -7.626663035113823
4.835794055928245 -156.63177634693324 -7.539641295227736
7.47716922422997 -144.99891526103968 -7.631440367884801
7.620616844921665 -144.37347637448767 -7.619289990230006
7.725497527530571 -144.07501435669596 -7.615918058708444
7.781597724763941 -143.7263477741256 -7.609979103986956
4.7460981083475655 -156.64601169466266 -7.540009696160896
7.356587872229678 -144.9823512522187 -7.626401312988323
7.484896118427823 -144.6900030347285 -7.622665678090958
7.475529940339788 -144.61678492546906 -7.620230029778799
7.466244534576228 -144.54273201341258 -7.617792476638337
7.5800653762278145 -144.3167569762227 -7.616211425999213
7.595477920260919 -144.17778387915138 -7.6131909957420625
7.597595487816351 -144.0667380985931 -7.610486604179123
7.69259336269557 -143.7123622110035 -7.605882494862712
7.299760101089641 -144.97584794025946 -7.624033092685279
7.406312579815239 -144.67117850276998 -7.619129868448763
7.483608672268442 -144.38726885362422 -7.6142497694813
7.486760586110625 -144.03566339963442 -7.605147986910778
7.3263831836297 -144.48692611530268 -7.610809940836821
7.368633051913585 -144.28432083904156 -7.606873210899352
7.4039413714026985 -144.17906419270875 -7.605491175431977
7.110224279167383 -144.95925595889136 -7.61648430755603
7.373139726594927 -143.9113769274665 -7.597405442792807
6.940879106428872 -145.2008002398546 -7.617959555230746
7.017171947661158 -145.08413658166455 -7.617004820536168
7.076345313538964 -144.6658971217977 -7.6063304144867105
7.062744160726391 -144.57319176593478 -7.603098567648124
6.95365995864632 -144.79287062879357 -7.605527358167308
7.034280172001095 -144.58638432378123 -7.602358898044784
7.031748808929743 -144.51937964302988 -7.600302206029909
6.463280582367339 -145.59495150463414 -7.616624635477324
6.173560488764901 -146.26692299240707 -7.635648308616332
6.286017343604323 -146.00874956944392 -7.627946254028932
6.059980229519095 -146.2694543206164 -7.6325942253399655
6.111551308334864 -146.1559606074228 -7.629197229078154
6.014286930080704 -146.34670159623852 -7.6347658092567965
6.373246300128917 -144.68200514593406 -7.5807577215271
5.8302467789646535 -146.48102988930728 -7.635810883642653
5.585237334433629 -146.49277625147337 -7.630134242445822
5.661331167489928 -146.4097061404828 -7.628334561719189
6.02725473810797 -144.53264501648803 -7.563499469032645
6.126251722851185 -144.27548400509355 -7.558909586953821
6.333517694725183 -143.41267169439013 -7.542567099023299
5.437361379928831 -146.6698589140997 -7.634546938558175
5.551198402718995 -146.5418460716179 -7.631491655002694
5.494393206862076 -146.4216884067669 -7.624841296271175
5.611812424426576 -146.1303463105596 -7.614944786841675
5.8523244171849225 -144.95816911416523 -7.573253724566954
5.849565252321579 -144.9227634667324 -7.571713921916718
6.01400002579102 -144.34039274566004 -7.55680952881467
5.6906808432169385 -145.35617888573827 -7.584378012563486
5.686396579770957 -145.10678656757776 -7.574077163375143
5.767444925282849 -144.94684963808743 -7.570159241391298
5.79322257770489 -144.80650000822362 -7.565494706300668
5.791831825990995 -144.64533495011986 -7.559381163553799
5.849382307802184 -144.5379294528386 -7.557385319854748
5.582445059569267 -145.14052729998593 -7.572411577525879
5.624625421196802 -145.0455935874355 -7.5698978709035964
5.650689418043241 -144.9367181450493 -7.566335879467508
5.7372975460592475 -144.7879154898412 -7.5631419204920896
5.744021327113121 -144.6514461384694 -7.558075162903171
5.7916074422632775 -144.56603045993876 -7.556397911636413
5.6159366702918465 -144.90376505041567 -7.56391457738672
5.734405696027913 -144.38263621193175 -7.548194810403587
5.747192124060682 -144.24809471558117 -7.544239267818261
5.7767467465550055 -144.04227829693255 -7.538724686281147
5.008752240980099 -146.89042716687646 -7.635309537836923
5.4711343722509955 -145.0623600556653 -7.566111485873982
5.527038381720036 -144.8838789199278 -7.5604855604829
4.924495431547761 -146.86144432725146 -7.632190357989761
5.370220167351281 -144.99348343604916 -7.560335999540196
4.963624290146884 -146.13516730248884 -7.599319706313542
5.0791232097564905 -145.74344639474575 -7.584501735910589
4.700180280664221 -146.36681986775577 -7.604170384915106
4.716133071623625 -146.20535108442158 -7.596974823803952
4.641021096870185 -146.22887328278213 -7.596535360196072
4.828916220013518 -145.15503259644169 -7.55237785299243
4.848110173826855 -144.97041088112553 -7.544938732550356
4.751258655328558 -144.9603428221673 -7.5419526309954685
4.677415972305403 -144.9405373372311 -7.5392397954512385
4.570039174783208 -143.06685287951822 -7.633947231053146
4.261423521998903 -143.2679960014626 -7.6252528945031255
5.066184597409865 -139.89478239895934 -7.597205242695107
4.282006192101353 -143.1377278028013 -7.6192064734343745
5.023180890890943 -139.90776180025517 -7.593540771785746
5.065483485786261 -139.6116009377105 -7.6001324863807795
5.798157902920684 -136.54018999596715 -7.5428835313982345
4.5240529557486715 -141.6426201324329 -7.571777926006045
4.866468655256943 -139.8002228964086 -7.5816111383131215
3.9183843510942165 -143.67440522324776 -7.63228988000679
3.9233158852853647 -143.63152433495648 -7.629673862343007
4.476415484572479 -141.12918727552173 -7.555420316191656
4.855354021031296 -139.7139879659311 -7.581641344372744
4.8575366450851085 -139.4899476183289 -7.585009806280368
4.879880801341608 -139.4328790747718 -7.587762426382928
5.608770448327343 -136.46471276351244 -7.538851839702415
5.575296951413955 -136.44873929407487 -7.538187471123907
5.608581193775732 -136.24344051001393 -7.546694502421409
4.786686206918013 -139.60373195619235 -7.577468308180846
4.8104933495284925 -139.47516487932225 -7.5814208207829274
4.767526928813027 -139.38659365172938 -7.5795281370237575
3.717226587272939 -143.71170108238772 -7.624626470859303
4.379562465460394 -140.88780825317224 -7.543517023505277
4.6005329459114135 -139.84678161873214 -7.559359544161033
4.706945234423983 -139.48594803032051 -7.572852589129971
4.695318651073382 -139.3716859963473 -7.574013713312838
4.672531316669148 -139.2844386415113 -7.57394063356259
5.4265979632068735 -136.1810931473233 -7.542681382336037
5.423919976066795 -135.95123665938587 -7.551040455727734
3.5927775892676808 -143.72687330979684 -7.619600049650839
4.345240834001474 -140.61976937714763 -7.5376641535413365
4.412018678306877 -140.14863304305092 -7.541942791674392
4.430339004479903 -140.01295558297238 -7.544076560380706
4.656958034798261 -139.24083270084398 -7.573638188636815
4.633947901749355 -139.15059172278546 -7.573898833986042
4.667123799968537 -139.08931837772704 -7.5780286959674035
5.397653798386333 -136.04804371605073 -7.546536214965809
5.378508924164734 -135.8566899639054 -7.5530974241823525
4.345357192160553 -140.0297494531015 -7.536946151934271
4.540664952309586 -139.029394960435 -7.569656301713939
4.54641575185755 -138.9383408783032 -7.572623179031504
4.633263391268976 -138.87967865540998 -7.581106184946604
5.3241309275937105 -135.87730339832004 -7.550441716034256
4.453598857277451 -138.99076841416468 -7.563885369173011
4.503734047898999 -138.9450230310079 -7.56910562558196
4.499437140809026 -138.75872721369694 -7.574481367880582
5.1962112701935865 -135.81657637241517 -7.548632244044835
5.3520883290353005 -135.2230368441799 -7.576391700580041
3.2681691174326657 -143.67014454703704 -7.6004653127319095
3.332756652078536 -143.57805418270226 -7.5967847177827315
3.5977436450637126 -142.41536029437611 -7.536782009855094
4.048382187812027 -140.183439218858 -7.631245044853057
4.347877276545249 -139.0939022437825 -7.552753390196581
4.331499108705332 -138.951636727733 -7.5555462663414215
4.375214107524792 -138.8792981071991 -7.561114327227971
4.403712519746945 -138.7875102284565 -7.566238877130696
4.4741587141073165 -138.55289902030117 -7.5796643024555985
4.5327526967942005 -138.46356188965618 -7.587342745386404
3.250213819360668 -143.42738248114304 -7.582139584164733
3.3267639893462775 -143.07178880890453 -7.561174568407055
3.4362764869585933 -142.82603518845144 -7.550883732151434
3.443638709672407 -142.62006979271203 -7.53847941360231
3.962038729331966 -140.22933400355467 -7.621022615887723
4.012511464616871 -140.15082501365148 -7.627152694605973
4.282583180287135 -138.87616754269777 -7.554089258669152
4.294798268328451 -138.7677776140496 -7.5586022882888
4.322243139943426 -138.6335391786952 -7.565378360924439
4.382097296892209 -138.50778354725006 -7.574491318902171
4.38596397784038 -138.37171727292358 -7.580076574782714
4.539327555377181 -137.7002435585805 -7.620982792684902
4.565236713874414 -137.59634228295485 -7.627853976213557
4.546146299167196 -137.5503896136639 -7.628926065627823
5.160603016682984 -135.02308918609782 -7.578310366118606
3.237204697315679 -143.04436294359996 -7.554705087044647
3.4530347133676647 -142.12630931652353 -7.6322686268347155
3.461940638715549 -141.90949722440232 -7.618767877164564
3.741723772878368 -140.92856230657156 -7.6042832751197835
3.850756963972259 -140.37765419238121 -7.608230257818461
3.824388479673542 -140.34886639619577 -7.604998016886588
3.8851531798338437 -140.15060901020914 -7.612163637893515
4.334442868261524 -138.37328475553716 -7.576267423002437
4.284945564978694 -138.262431234003 -7.5773031603709144
4.323739009096047 -138.1919323176924 -7.583162118037385
4.348642611793798 -138.11123389724344 -7.58847866402612
4.397705338532197 -137.87313726601533 -7.60294144371997
4.462606623139815 -137.7120957832797 -7.615183360861878
4.482668834389628 -137.5356332406091 -7.625412195838862
4.520155798034061 -137.4079901586832 -7.634643001366821
5.051108461255138 -135.11322779021938 -7.571310871697826
5.027565318135412 -135.03283622711908 -7.573860256285975
3.2968983542624803 -142.31787447838764 -7.631627215027026
3.3222994273454924 -142.00800574065445 -7.61153002065088
3.440781741614865 -141.88318543757296 -7.614968221995912
3.5644338744776807 -140.9685500875216 -7.585142107498588
3.654125566374511 -140.7512498566785 -7.589963301508987
3.6234706180513494 -140.7082616431454 -7.585568649439278
3.6774435955897773 -140.4619902068374 -7.588445218225816
3.744772202840944 -140.29845164593846 -7.595501510631355
3.833923028041247 -139.75082769418643 -7.6107591361037
3.9430367438203158 -139.41070370116563 -7.631866853465654
4.154570973827893 -138.53725881878736 -7.556534663327684
4.144149016839322 -138.44515613984905 -7.559490870519206
4.342407258713074 -137.9428087931345 -7.595812898595022
4.3242855864736995 -137.87439602017932 -7.597825461934451
4.321601001176356 -137.77707517769414 -7.60243868363862
4.3791353346824415 -137.7017714930343 -7.610082624777987
4.413747102964441 -137.52452257008846 -7.621525360015056
4.841611283486342 -135.74373201142654 -7.539999413904197
4.904260621741045 -135.21367915455912 -7.562835695906443
4.982520637431286 -135.04973909381923 -7.5717556149810274
4.985681382705003 -134.89435959494406 -7.578078853109635
5.018475342823365 -134.83017326162127 -7.581686011807439
5.0317534808833155 -134.60675522726913 -7.591079975882439
3.314366952358424 -142.01605958462318 -7.611292023900507
3.330497187968453 -141.76590783083213 -7.596590946259193
3.3369170047863044 -141.51663289564843 -7.582980964019934
3.483985842317281 -141.0319407639718 -7.57804124153693
3.5305855259223047 -140.94888233477585 -7.580729720752006
3.536807286123961 -140.8703410630439 -7.579235424017525
3.569310668542324 -140.68313080911446 -7.578815934704898
3.5701194054891854 -140.60601155741742 -7.577602908398907
3.6130615015346637 -140.42051761925362 -7.580565203861595
3.65171334799827 -140.39936501434977 -7.584957464681551
3.653230390553921 -140.27281804330818 -7.584663832245594
3.6842616240621977 -140.07449368089576 -7.588926598654132
3.6819644206463087 -139.99524699653304 -7.589326586916584
3.746284222532986 -139.7416860503445 -7.600748104039849
3.7807518132016837 -139.68598354288704 -7.605923439509686
3.823971354884764 -139.5887602316096 -7.613219407959525
3.8142764282703974 -139.38894855778818 -7.617909372753111
3.8763686062400273 -139.28918091044514 -7.628327428506378
3.883502436861148 -139.23790551718278 -7.6309665607126735
4.036402989905222 -138.6433431662769 -7.5436989887586545
4.130499449147777 -138.42929006589688 -7.559137323996769
4.175590979626207 -138.24123604555956 -7.570456127659159
4.1357004654452885 -138.1676058796334 -7.570957765667158
4.233367547203189 -137.78147082694863 -7.596246069021777
4.930477117884154 -134.8321025330182 -7.578976252401914
4.932528996562295 -134.7076585594472 -7.584091969156877
4.946671786126561 -134.47146951260243 -7.59410406488665
5.02298284657749 -134.41387852584757 -7.598734143942062
3.159953073530363 -141.8220678860686 -7.583207445328075
3.268576996792303 -141.5284229482324 -7.5764392423125075
3.4485322323875667 -140.9482666930121 -7.5713682433020235
3.4212267942725196 -140.87939527375258 -7.566251314945882
3.45083335127669 -140.70347326227042 -7.565453634415537
3.457830502610487 -140.52121792397037 -7.563318462959694
3.617569797828037 -140.05490810112286 -7.5812617183601425
3.71152032929174 -139.77884976882515 -7.595948439391453
3.7083643369913726 -139.54496261677355 -7.601080185037023
3.760089295300908 -139.42565797672296 -7.610563554858393
3.7656703480889546 -139.37077127988027 -7.612981139475227
3.7765597493043077 -139.2779190240047 -7.617499662613259
3.8069595016201827 -139.2109229473804 -7.623446688007101
4.003591415720606 -138.38979340260565 -7.551688037207009
4.023481809738696 -138.17007263319596 -7.563015393424859
4.144168844321835 -137.79767523261376 -7.589482999325824
4.71865694317256 -135.32909994243104 -7.552655701740117
4.812295119794088 -134.7730099136821 -7.577918205463047
4.935862259344354 -134.44353537575608 -7.5949850904473335
2.988622165897507 -142.2684133352919 -7.600771102044813
3.0622666156778897 -141.79336075931872 -7.571718201082839
3.1986076357260584 -141.5040094040369 -7.567766657464983
3.2921449606506963 -140.9217219805898 -7.552799316797192
3.365300176047488 -140.7071876321391 -7.5556146770430965
3.3827946185372353 -140.60380960330667 -7.5557055723785
3.4220309789088685 -140.5040228691735 -7.558934327872349
3.3932486578138517 -140.4511086484449 -7.554980623910554
3.450994389274504 -140.29175537232203 -7.560898324734216
3.559567488896002 -140.04403458293493 -7.574489223986746
3.5316112672653683 -139.89460286243744 -7.573016982133027
3.5362154490264714 -139.8644673905608 -7.57403251856575
3.6083484787436033 -139.56623566841793 -7.58900501277052
3.630279921051767 -139.4469209552083 -7.595087695376598
3.673497152554323 -139.20283724906952 -7.608881803060218
3.6581821175891647 -139.17920138021108 -7.608171254847939
3.9654341598782987 -138.25155143145668 -7.5551501122649185
4.119361596196786 -137.47143190064816 -7.6059783210873775
4.104804823262717 -137.3242145809927 -7.613656266385991
4.709932100486903 -134.86827163979942 -7.5709887284600095
4.710544981939384 -134.68688761759714 -7.578457768933203
4.727502534808483 -134.60281277858667 -7.582384258738856
4.77417159476054 -134.4567343771699 -7.589749481042396
2.0562992191233747 -146.13594621370763 -7.555011546237768
3.0637274809420085 -141.61998117010668 -7.560710921018971
3.2050189909184263 -140.90117683499108 -7.54221805534569
3.2027440809353913 -140.80528184075365 -7.585834738858688
3.307913174842678 -140.66780923220534 -7.5481384425771445
3.295418754445033 -140.59615261188983 -7.545429457796615
3.285664809306975 -140.50852296525727 -7.543052849612182
3.3327595347824586 -140.41283604837443 -7.547564835419002
3.4364139883279026 -139.98766179149695 -7.560618575309635
3.4334309728995995 -139.9130872468532 -7.5612702156569656
3.575502652232069 -139.39552323084902 -7.590606470747686
3.5839020386510607 -139.20443203388845 -7.598862784506291
3.593017454194119 -139.12062861195164 -7.603483982378297
3.9480527986143525 -137.89105224792863 -7.571681121744755
3.9352933994405896 -137.57943212989488 -7.588371383910465
4.0317725396182915 -137.52133074962902 -7.597607698171287
4.137710875210434 -136.99677261775963 -7.63530849189655
4.673290997662808 -134.6376073812359 -7.579440578810101
4.652843030207375 -134.4592295402317 -7.586203751395537
4.7678615985781185 -133.9274274149593 -7.611621005693734
2.4147400118456877 -143.9762531648695 -7.592282624635554
2.6237689542078395 -142.8922495208087 -7.632586487550593
2.6893188049362684 -142.71266522758188 -7.618901910577715
2.78507384997492 -142.21877814647667 -7.579730853209481
2.9725319917755626 -141.67670906455618 -7.555212101896745
3.0443303351748496 -141.2893748158121 -7.633399648324927
3.0094777951016947 -141.15650634071244 -7.620308488970426
3.0998813720452727 -140.85084012481352 -7.5954437141185585
3.1515003685636964 -140.58252300301095 -7.617997917786464
3.1644706969879843 -140.48160799041744 -7.618017389939687
3.2331585365320654 -140.36817405093123 -7.627164453173827
3.2904943264379254 -140.26748014810192 -7.588570378217163
3.296217746413437 -140.06699264727558 -7.543376537990713
3.3256464370727543 -139.97295214657626 -7.547818441322553
3.3054113802530214 -139.92748875320885 -7.5460426403342
3.36778192251676 -139.8456218444878 -7.554677398444362
3.441714766528266 -139.46378265426054 -7.5731634446772595
3.487899650937595 -139.21548644786677 -7.587804973885919
3.5098872151610783 -139.1291976802156 -7.594021228837705
3.517519786550465 -139.05194226550196 -7.598432340219683
3.562175974176512 -138.91427862106417 -7.610105906317278
3.871308826894423 -137.46167021040458 -7.59130792352996
3.9163467509027616 -137.27299361223433 -7.6053732978311
4.0202265144131175 -137.04026694927583 -7.625694355334272
4.5867212064550635 -134.44135544204937 -7.585115517575299
4.64697597695827 -134.38241365451717 -7.589235220454602
4.662086222887744 -134.13519185484262 -7.6000199473743955
2.5441309641739913 -142.89102866881896 -7.627423530407996
2.539929928350756 -142.8252695625369 -7.620354034431519
2.8162930433395132 -141.6066308635239 -7.626795867739535
2.9289568749796073 -141.3932657000143 -7.624701535316095
2.938523119174665 -141.22123261794226 -7.614250818121339
3.0608826974622394 -140.86022119460944 -7.613081261091492
2.990349536173393 -140.7539519959663 -7.598596769781449
3.058644321600715 -140.62209790631792 -7.604865543722804
3.078493966384985 -140.57189359654478 -7.6066678432532315
3.1010505425890855 -140.30411615734312 -7.6065057681587245
3.124705320985843 -140.16031480168127 -7.610177853013803
3.1842052862329564 -139.9751360104309 -7.621218995326368
3.1932822095352438 -139.87621809208062 -7.624548889960753
3.4534722170401086 -139.12756281264348 -7.587889913549235
3.4841151698267634 -138.9674145684284 -7.599030565605277
3.496991721818906 -138.8967912059623 -7.604077812546249
3.8008561430444887 -137.28705401993622 -7.5976821112495765
3.858562293675529 -136.95230428312027 -7.621990212008773
4.488420288599485 -134.48501477391798 -7.580557558141678
4.504943251504557 -134.41679097789384 -7.58383740190553
4.569924397095175 -134.11352537558778 -7.598381303634828
4.5913767401325805 -134.0560102014311 -7.601400782989477
2.4634624158937513 -142.88360778061588 -7.621671023687984
2.701915495238622 -141.77370420586013 -7.536101100167091
2.73636748113344 -141.73171815798977 -7.536229599897272
2.9783944436013936 -140.7938398374074 -7.598237900577793
2.9417462816436597 -140.76332516942762 -7.591673482949772
3.0112150862456577 -140.62640980444684 -7.5978070631386005
3.022736905500793 -140.50679395595915 -7.5968801714724545
3.041945885481689 -140.13255868000323 -7.597657647920974
3.11572977949848 -139.87751691997136 -7.612718247935954
3.1420629360378696 -139.7832532458605 -7.6191832715923
3.315786486720157 -139.26483007190905 -7.566663977729223
3.5544043479568996 -137.932915679061 -7.544368165902522
3.7818998576962035 -137.12770026393153 -7.606520762737835
3.8131034101205263 -137.06433976270446 -7.6122600540348655
3.843019240112458 -136.94542820347007 -7.621493260190581
4.3952372830252955 -134.40714634133641 -7.581220815950369
4.456843652398306 -134.10467367056108 -7.595678249924512
1.6236823157589657 -146.13511143314662 -7.553034120232665
2.370795778139407 -142.91619024483074 -7.619629923797675
2.3416143833054575 -142.85326023820272 -7.611224371423013
2.8952806712853847 -140.6819438862285 -7.581977190536229
2.9489192411769447 -140.17062319551684 -7.583159568113731
2.98999447703 -140.11374860412027 -7.589814339953982
3.0481371392362426 -139.82911074043477 -7.603712294591746
3.076460826712197 -139.72303823829793 -7.611161856513887
3.122600889861733 -139.66475597026673 -7.6200472705634965
3.110303159232905 -139.3645272862476 -7.631753737335501
3.222188288535818 -138.8969193664401 -7.575217433118503
3.2487090859886014 -138.8149318186375 -7.582784950273531
3.252813676428156 -138.78916669723256 -7.584757897788088
3.36209326381594 -138.32889487669078 -7.62617110404097
3.535330437295982 -137.56934458642672 -7.5647955574862795
3.622698887808722 -137.50840670700472 -7.573723065471581
3.6118229850083177 -137.34561934017182 -7.583080150164133
3.720981552211254 -137.02567515811887 -7.6095704311744035
4.332871392676545 -134.14111814769205 -7.590812186934617
4.348912193925316 -134.06563074518866 -7.594429515791083
2.2280890722665 -143.09937153988284 -7.631861815222583
2.2671749551846228 -142.59819526472506 -7.579748244480051
2.7410913613053567 -140.6698445847806 -7.6350754132472085
2.781043475850867 -140.35906509894104 -7.634277586461563
2.8604281964287273 -140.14499900411772 -7.569751361888996
2.8657304988784746 -140.08986040479923 -7.571062633312938
2.9091070361536033 -140.02255527500498 -7.578537976002898
2.93709045904447 -139.91509787125318 -7.584778225949848
3.082292830427101 -139.32711439213764 -7.62979718993544
3.0494266062120507 -139.21479235595606 -7.631780200925586
3.1163645338901547 -139.137630133163 -7.5509478093682265
3.5866826942492596 -137.12194682459491 -7.595837148155863
4.306666341299994 -134.01494179145675 -7.595478146833183
4.280141266897848 -133.96129170500396 -7.597071438399555
2.18182476575577 -142.77052376168 -7.593255509035246
2.221631587910963 -142.54735357711496 -7.571673407472849
2.2750673527929512 -142.13060541557368 -7.622475565959969
2.371104041682753 -141.90246079185872 -7.604501318231339
2.568446260329445 -141.04484521379828 -7.626326840291539
2.5503172490520942 -140.95175275654367 -7.616298255051837
2.6595144722386403 -140.67347805947054 -7.620203689189372
2.770412133577491 -140.26299305715207 -7.631509780948948
2.7379379060635056 -140.1756023780104 -7.6254686905219256
2.798804622388861 -140.08297947772374 -7.57988676230666
2.8099110318176317 -139.98977700718825 -7.563928018082044
2.9996161102679695 -139.09011272514317 -7.564118872495476
2.9983902480115097 -139.0308573346372 -7.5442611510008195
3.0676540491361948 -138.92184449321545 -7.5578314804988675
3.0733353852482215 -138.84846280597804 -7.562862129239321
3.252728205779155 -138.19694987766158 -7.626075916910612
3.3383506809321566 -137.62775025906154 -7.549778213241692
3.3702725040379824 -137.54216984409697 -7.5569709830245015
4.207440887091939 -133.98747918472066 -7.594047983544758
4.179960850405475 -133.96043307659025 -7.594498617186025
4.211514283820829 -133.82701757367315 -7.601044675385899
2.0118843184187094 -143.18092730681326 -7.630844619175745
2.130964323244581 -142.703625611071 -7.583220805536937
2.223905204602277 -142.23905860522507 -7.631606095803263
2.456753919966473 -140.98412020243083 -7.566670530145512
2.5213800727422653 -140.93718986174954 -7.538251703513779
2.5097112716745418 -140.6306576377002 -7.590819393730334
2.62530344278757 -140.346936118275 -7.604722451651146
2.6937067989843646 -140.2148409994589 -7.616923112705512
2.6716289588975095 -140.1122977630073 -7.603016147291549
2.6984546928577293 -140.075783071506 -7.618915087303191
2.873848670857549 -139.2462805733296 -7.605133916913366
2.853461712930198 -139.1770284584092 -7.606949587779991
2.9368120376424742 -139.0461320555008 -7.62773613507367
2.9352482923943706 -138.97300058382734 -7.606421102694197
2.9311221180564186 -138.87313990527042 -7.546977661032903
3.3210801209360747 -137.17911692882038 -7.57761778070468
3.3446661415179113 -137.17328423169158 -7.579228198483275
3.5178295975908673 -136.4885376645315 -7.634393672783016
4.073243726987638 -133.86749205546118 -7.5957524761584105
4.1487177903257315 -133.8357173194323 -7.599053016646717
1.9100230795060515 -142.83025136365507 -7.586240653845643
1.9778254137803408 -142.8063161017757 -7.586726409458832
1.9350053515179613 -142.68787994426143 -7.571341133546502
2.4085141239720844 -140.67142258719767 -7.574008095130466
2.4069172992818615 -140.61274811626143 -7.571127610472987
2.49674914608006 -140.31139795186994 -7.580059049901894
2.6117803161057704 -140.0855833131366 -7.602424995498681
2.6272958574393446 -139.98824875105987 -7.607182798138565
2.6052857316817253 -139.96538160425808 -7.6036195030499485
2.7715609976677387 -139.26414549581577 -7.589705195951055
2.773922184071805 -139.17873339913027 -7.595933013722611
2.8356698305380883 -139.04917717828434 -7.613900240763652
2.857108459584786 -138.93210454037842 -7.595851057137862
2.855005306159776 -138.86296670209913 -7.580208398009961
2.9016272892466075 -138.81369192736784 -7.5479066173497245
3.9845840641114396 -133.9536964396776 -7.58976971890237
2.000234623054382 -142.11307765049384 -7.595970744372261
2.308842720804111 -140.75311247407546 -7.60815386093378
2.340694843423891 -140.68942255765546 -7.604089488467551
2.366681493082038 -140.58256407634957 -7.594486915828324
2.377036633127172 -140.49337621001854 -7.561264625755263
2.4303450889334144 -140.3075879804359 -7.609999530448634
2.439100488232462 -140.21176709985994 -7.633459516282702
2.5125774574492 -139.72121026241066 -7.595905526699883
2.5860047490558444 -139.5866494947497 -7.616844685345214
2.6119302100527606 -139.570935067059 -7.62244380557517
2.6662981847973812 -139.28557145601397 -7.573661748261564
2.7235755137314026 -139.09484409308928 -7.595339759675029
2.751228992924199 -138.90360516659726 -7.614589837174167
2.749863842138856 -138.8274288663093 -7.621089719471266
2.1373155392220404 -140.96597856048356 -7.546289405279476
2.2642569324575437 -140.67243413194444 -7.568197825098423
2.2613112194474936 -140.55944041283237 -7.601714941235309
2.242083290500574 -140.4926343636701 -7.5359363070686936
2.334075140783484 -140.40258564212368 -7.612064355809464
2.3594329163556402 -140.26000314668116 -7.605265420169611
2.3714096146944206 -140.18164475033709 -7.618290931994259
2.354447813813206 -140.03642791350606 -7.616698705930044
2.3780371157495783 -139.99413880631906 -7.607326564890672
2.4253506887520455 -139.91643904748722 -7.571393297854389
2.5243584620038964 -139.61317500536137 -7.60411872270933
2.5230838028503753 -139.45306270610382 -7.61483754759086
2.5467657225178693 -139.27544891019986 -7.633461291927622
2.6261709332769305 -139.1023841831002 -7.581819281812382
2.581290150873282 -138.99242309454388 -7.585098935871888
2.691213378790213 -138.81275201478783 -7.615020902096426
3.1697989426681823 -136.66689117678106 -7.604762522774749
3.22498973310299 -136.48172830293743 -7.620439620204794
2.0595611244813936 -141.17895194046335 -7.5550011858122055
2.100974071078215 -140.6953366927006 -7.631399522698059
2.1109937506572196 -140.6738213001706 -7.632101359544641
2.1369282426183243 -140.5544359789862 -7.622555988320856
2.170482274166817 -140.4724764671774 -7.6114042010753336
2.2087850098717077 -140.2202533234749 -7.581484754562857
2.3010948769995156 -140.04535550831247 -7.60451406435641
2.3233556021329242 -140.00841376531375 -7.610492025384454
2.337756793852797 -139.7224491477843 -7.564017959287926
2.355518656193393 -139.6723698223571 -7.570187688977838
2.528229639573266 -138.98324428279398 -7.579179954998236
2.490181763661695 -138.90292921904796 -7.581738064203289
2.5793307739706863 -138.75845826776043 -7.606609317489711
2.5916081435620155 -138.57363214389068 -7.626920800884399
3.1426688301893453 -136.4622046503412 -7.617889218833358
1.3571548751661666 -143.74795052554367 -7.550624869593726
1.8950142605542413 -141.39270885936077 -7.6208388694298
1.9177097490223636 -141.0966379621775 -7.608446854015159
1.9553711869293948 -140.97820828056862 -7.628448533204862
1.9802550419265377 -140.9404110035578 -7.629076864514334
1.996653706842336 -140.8087067890572 -7.603828366424416
1.968001607223881 -140.7480740560243 -7.6037046181291235
2.0419981812712598 -140.58792438144548 -7.60821777506398
2.101330504424862 -140.4863096521395 -7.562963607960112
2.090890622690629 -140.45352244316626 -7.592990892966112
2.139929926462241 -140.22152465541723 -7.593545296405352
2.2689040538250262 -139.70813703891218 -7.552431173529627
2.487643304064401 -138.5717735265344 -7.615359849013248
3.0326504960664473 -136.50238318400292 -7.609909173446507
1.290104993201478 -143.33484634995662 -7.626724378740694
1.3536911762170196 -143.2199541450956 -7.613945528103206
1.3544321023810335 -143.16300423230123 -7.606991372805216
1.914021039255323 -140.86171048775688 -7.551286396382753
1.925796807954102 -140.81135073732767 -7.600601140324651
1.9234578324593712 -140.73417600494253 -7.591481554635819
2.005970549964146 -140.43391977189367 -7.565068437882758
2.6171325492932898 -137.8296057055379 -7.605375315130577
2.850742388276964 -136.58169203178966 -7.5959132186975395
3.6188074657269533 -133.24426253023384 -7.611994754072956
3.6142189409297583 -133.1837452773105 -7.614597331777766
3.621471532151993 -133.0980282549337 -7.618541067402117
1.2285162854127003 -143.27467335631349 -7.618268867673466
1.290001296617108 -143.22154617244996 -7.61281964280467
1.7582200940110138 -141.00193050703106 -7.538542859209183
2.0876504179405524 -139.34888897785495 -7.611329751009606
2.355550845078562 -138.5464852133358 -7.603667667870057
2.819504510077028 -136.36752676507535 -7.610210237587023
3.355496916491559 -133.9245781724883 -7.575780888113768
3.506222301604791 -133.1737792898935 -7.612574260665368
3.6192583299977965 -133.03653648394658 -7.621247091116164
1.1702314497719488 -143.1608842172977 -7.6033136208097085
1.2335513577140493 -142.67755027508306 -7.545099240942339
0.989462601268464 -143.41767545106364 -7.63313946915624
1.0029418933052616 -143.38344288152038 -7.629008739622189
1.0209437598398203 -143.1968258502304 -7.605969182007352
1.1113136739407106 -142.99142742959634 -7.581550886997668
1.8799392150872918 -139.50030081621324 -7.6051587032017665
1.907839387116629 -139.39607850581615 -7.5713560480691235
2.077976841311783 -138.76688946091 -7.621527582955606
1.0004820534110148 -143.16018564867656 -7.601225521181122
1.7727178326017725 -139.41258164184768 -7.594703265767892
1.8583582028557157 -139.33630007498533 -7.624914522653878
1.9420546358201032 -138.62226029779728 -7.625610193860876
1.7421586736442098 -139.42023621843774 -7.53770403044703
1.8965148074661977 -138.68903865922454 -7.610150275199104
0.730761789188507 -143.31827131486628 -7.619586545444038
0.826057879429873 -142.7023571155988 -7.63276432710195
0.8307313599366818 -142.64269133384238 -7.6232379324657735
1.6104068657899324 -139.41456274401315 -7.561179634502543
1.9534312682411001 -137.82433163864698 -7.561333543684354
0.6453829484027476 -143.06852922357865 -7.5885280085429985
0.7403702157444514 -142.86152659888361 -7.562557991350173
0.7904948840020029 -142.72078526253463 -7.545094004876024
1.8647531554701802 -137.81186093290574 -7.557568865997008
0.48528906821311235 -143.20750961157762 -7.606873427654603
0.6749278709424538 -142.7114425627806 -7.54384198106014
1.8359583591318687 -137.7199752368383 -7.565808776612489
0.788703845830328 -141.65781108999522 -7.627180616753315
1.3206071536753075 -139.1846452612275 -7.5574168111719064
1.3225933091331372 -139.13878973275493 -7.568039144036644
0.3484234577092529 -143.09389244344774 -7.59436578623284
1.292096638874974 -139.12868655020984 -7.566150833090299
1.5831506188613949 -137.83846430055658 -7.630388008467005
2.4277164675033065 -133.94526728443222 -7.5549208863204935
1.440212775881652 -137.81028533803752 -7.586547321163104
2.3860756005937684 -133.96682380766168 -7.553093455613364
2.3980334970476003 -133.8375010390865 -7.559275328120806
1.3559709610447443 -137.79224031958825 -7.591107151047067
2.1434708640085836 -134.20271310227804 -7.537680567596625
0.18275558572466832 -142.5975022515015 -7.6239568784775145
0.1495295592792315 -142.45350053264104 -7.602425985845521
0.12035300538405236 -142.5068300146263 -7.611848603572032
-0.023800235353980792 -142.11142871353007 -7.631008789133667
0.08325734807341056 -141.5176538579665 -7.594729354322603
0.822142765693409 -138.26845961894819 -7.603437426299262
0.8152575194831952 -138.22847054424582 -7.610764107488258
0.6640435750518989 -138.51745431380755 -7.615027562338303
0.65308486933296 -138.44454557038475 -7.62925612056368
0.503873756305717 -138.65597912039465 -7.6345288239051925
0.6483801401355312 -138.4140795907513 -7.632472891786075
-0.57773520796104 -143.1581586926248 -7.631218719943814
-0.965317508017939 -144.23750134011195 -7.620303964054552
-0.37035563388784287 -141.81697218566413 -7.58442853965541
0.4380937638429584 -138.33060821912687 -7.587673396409278
0.36783789231050557 -138.10079809357114 -7.63427159128972
0.05032134594134918 -138.6825561509843 -7.559209938837946
0.059652943849634155 -138.65803407269652 -7.553262640836061
0.030563724515000668 -138.54051926035706 -7.566896446266933
-1.223444797774279 -143.55927079868994 -7.574115566373453
-1.1852705012921039 -143.45038855301627 -7.56385916014151
-0.1003427462113865 -138.69753568423093 -7.557735802238141
-0.056046735910904144 -138.5860175387806 -7.586134875685085
-0.03949876298708277 -138.52366227061387 -7.596578723647658
1.2287446263045427 -132.82140766229045 -7.5867234216498005
-1.2404365391391476 -143.2409744694614 -7.549764611104892
-1.240292851228207 -143.17815094395075 -7.544914150172861
-1.0385861180831046 -142.3378140162316 -7.569120874358881
-1.0288234442640543 -142.2799158762816 -7.562633826340574
-0.3012615841724575 -139.24712116390046 -7.583413598287782
-0.3307935792962329 -139.19965563512864 -7.597943874714618
-0.21855944589846155 -138.73353028647688 -7.5847101877835374
-0.17068711644761692 -138.6754170416741 -7.582598157890502
-0.11146731908139229 -138.5412974403151 -7.577503146469871
-1.2739603467721188 -143.16387844017757 -7.545336942098963
-1.2043053892983073 -142.84112496331605 -7.6324200649488585
-1.2289330493921726 -142.78671186890637 -7.628486217766349
-1.2100770998667578 -142.57167582498016 -7.605252218740969
-1.1270733839426221 -142.30873980190145 -7.572918858986731
-1.0806705474384748 -142.22477487279258 -7.561124799285687
-1.094249352757309 -142.20466715796792 -7.5602276711996055
-0.35917137923717646 -138.79659571038434 -7.558555010023339
-0.3141157646365367 -138.74097781412212 -7.594061085315431
-0.2856028489951935 -138.65940595178685 -7.57306644030732
-1.520689792044168 -143.80070400013315 -7.605758142654571
-1.5165090587791497 -143.72380045262116 -7.599590445555445
-1.4537146397881662 -143.40211765132455 -7.571909026454595
-1.288076806511369 -142.51565982773062 -7.605485388917647
-1.2640022555377568 -142.31516282246332 -7.584234150961643
-1.1620949362472057 -142.23866589528657 -7.568826609654888
-0.3710890569855736 -138.79083910607503 -7.560830130342293
-0.36371288537822233 -138.78032567228198 -7.56165357338532
-0.3595456151366574 -138.68034705617126 -7.577248696180976
-0.2983457929459181 -138.49672413434067 -7.601717903297484
-1.5951777831023022 -143.46507569798112 -7.583332267849751
-1.568659205977652 -143.39128179552836 -7.576464984740483
-1.5037512344407 -143.19535698133896 -7.558586004590031
-1.5137217745112328 -143.12132725488289 -7.553605833590518
-1.3481840453073657 -142.38472817670902 -7.597554567760097
-1.3417498473657852 -142.31538475284424 -7.590509932955894
-1.3051567281258958 -142.22035358606428 -7.5786491797128885
-1.264846238938419 -142.13065804374918 -7.567002743304847
-1.1936202070725437 -141.85971218173302 -7.536658414795296
-0.5421090972578759 -138.82214344838334 -7.576659454089165
0.8856485179361742 -132.63698200485393 -7.590854669496583
-1.4263185064530886 -142.29329657160548 -7.595401576479338
-1.3842746808781992 -142.19336138915708 -7.5827540945243745
-1.3454451329803123 -142.08760296605308 -7.569976310396777
-1.3649587315419485 -142.0119760758606 -7.565021038406493
-0.8068569474766603 -139.46810170295123 -7.599573077602355
-0.6035547844066933 -138.8727434928977 -7.57735367127082
-0.5778704246612021 -138.75791960002812 -7.590652564686129
-1.871095704849659 -143.65238504336168 -7.610776872390229
-1.544929427152789 -142.37619215969454 -7.612959376121842
-1.488740390223953 -142.25183485408337 -7.596919457740647
-1.4466543888339718 -142.16245174113666 -7.5853382094357915
-1.493486794292234 -142.10198592536184 -7.584169626640665
-0.8818388163598638 -139.51122092876938 -7.6109191720161755
-0.845584586858793 -139.4620293564957 -7.546915309386072
-1.823073345937329 -143.21528131998238 -7.5763671978241405
-1.612422110905043 -142.137643289874 -7.597853479917001
-1.6030146343073461 -142.01362987032365 -7.586676087630845
-1.5255706271763527 -141.88261649448876 -7.568889214977956
-1.4481550291568035 -141.48067869610148 -7.619900012675721
0.5880045134465864 -132.6965258951025 -7.6332448006821885
-1.9598074139766015 -143.35885708178685 -7.593862546150011
-1.67619888571627 -142.20655694516716 -7.609392461837771
-1.6625846490750895 -142.0215969520036 -7.592863767157648
-1.6469411891626295 -141.9311002157126 -7.584197680835485
-1.601817232577421 -141.82348763715154 -7.571514535465487
-1.6276742708035465 -141.75201286932264 -7.568635180325308
-1.541226312896014 -141.53768855516523 -7.590496018625595
-1.504498484528539 -141.4944482390409 -7.62855259382949
-2.1019819534752044 -143.61506633521046 -7.619785588257293
-1.808039227403908 -142.2751694746156 -7.627092685735645
-1.7519397509981856 -142.0112883450221 -7.60045533537694
-1.7435225967223098 -141.7932293421531 -7.5831359589877
-1.6785878749408085 -141.7617576705375 -7.574376260028364
-1.850666556419637 -141.891029488119 -7.600873340012935
-1.8327003662722317 -141.82751887331426 -7.594481285012702
-1.948302519872199 -142.02473922386855 -7.6203634946107535
-0.8672297500138366 -137.31398856150972 -7.625542397486425
-1.9251242122582086 -141.5790609603097 -7.587131658906924
-1.461054267773199 -139.20089278220237 -7.59072137718129
0.04239937246521641 -132.69744228368222 -7.6335520700229
-2.217564127401448 -142.244130301818 -7.537726773662099
-1.9260542241539893 -140.8148047704873 -7.549860780717092
-1.9134910735923318 -140.75472222855296 -7.546460360315421
-1.6914003305915508 -139.69471565955908 -7.59986828646434
-1.5539574066641055 -139.2426023929481 -7.601139033171635
-1.5041500841906648 -139.19638239034933 -7.597110492967407
-1.5149262763602662 -139.11567269322825 -7.604167443900016
-1.5020538732029092 -138.96730593837395 -7.613567161045783
-1.4753634223903274 -138.93293539239863 -7.612736729624033
-0.08863025728044316 -132.71390246734478 -7.633039118923698
-2.0649815633887383 -140.88534855366464 -7.568452333651654
-1.9865271000638884 -140.7077552644097 -7.553642949846334
-1.772931634996766 -139.92716615826313 -7.607631436499661
-1.8030795793902263 -139.8758337235343 -7.6130272866174495
-1.7665873065131041 -139.7190351708301 -7.61069552928381
-1.7172099416700188 -139.66525777945245 -7.604687076742186
-1.593920502310421 -139.24444425469108 -7.606718126838557
-1.5689553507302705 -139.00166149741506 -7.619991919445533
-1.517391743585505 -138.8931205631334 -7.62159029542969
-2.148978676778872 -140.97055477366544 -7.581250201230501
-2.1373260684981847 -140.93031604003943 -7.578427549374452
-2.1033887754490337 -140.6706842389712 -7.566413462308933
-2.0406619372454524 -140.60074779612336 -7.557313775760657
-2.070394008932743 -140.54695116660713 -7.559654132129246
-1.8410059712140305 -139.84019016551414 -7.619486013761069
-1.825265150375928 -139.58991085174185 -7.62358560339885
-2.092627638682373 -140.5301848075338 -7.561988326976567
-1.8217160751558783 -138.61901391077183 -7.580209844610909
-2.170174686269183 -139.16211241337137 -7.587316587351969
-2.3421176419691077 -139.07109371516742 -7.610551810349826
-2.14727272839579 -138.34762746628596 -7.631320343663755
-1.0498159410533912 -133.35646191211586 -7.605183294722352
-6.4358988088637865 -156.7534447769417 -7.583963205580702
-2.377725469748687 -139.07025385758567 -7.614548625998959
0.49395404843566715 -124.48294336917134 -7.5352862183730736
0.38006808948643406 -124.1007460633027 -7.542693332218227
0.43429539563418723 -123.97779586353971 -7.545247772806383
-3.1173762300536003 -138.90488380222374 -7.563625833998141
0.21587268377329288 -124.28871326728279 -7.538729709873656
0.058956089778965604 -124.47825256783996 -7.534733127846908
0.1579358577839075 -124.20252333797758 -7.540341819267807
-0.3339770821332544 -124.28642738879797 -7.538154971767774
-0.10319332934361902 -123.32442672004542 -7.557465113148608
-0.2682716549547949 -123.51519005914213 -7.553524209622795
0.027886292497087073 -122.10216712921817 -7.58193072006076
-5.073607607911379 -143.728601180649 -7.579306859478679
-0.4379320651732317 -123.57188865536895 -7.552231567521376
-5.134902922769152 -143.96756214436948 -7.58953432495875
-5.137799077357535 -143.25438741560876 -7.567506669868192
-5.085194526773629 -143.16667651323735 -7.562725202552077
-0.8605094280951364 -124.07184942324322 -7.542093302177723
-3.2533916400761513 -134.18045273953857 -7.602890492651912
-1.004163239704169 -124.29337482704479 -7.537700625501221
-0.9700898255114383 -124.09280436099135 -7.541653061725999
-0.721801777796053 -122.93738198569457 -7.564630235798115
-0.6826395095093223 -122.65941928005107 -7.570187602432526
-0.6618420940396625 -122.13243468338548 -7.580629681953951
-1.302096524031234 -124.15058590339915 -7.540511021268813
-1.2546779573482765 -124.0641928451117 -7.542230722752288
-1.137997630248551 -123.57978610797788 -7.551784934632396
-1.0199636879398581 -123.02055976661578 -7.562889976893996
-1.4039780040941023 -124.24422124462681 -7.538685695968975
-1.3648341436853721 -124.10404312444817 -7.541464247349309
-1.5510837364043741 -123.98961866407596 -7.543761671905241
-1.0022920609755264 -121.15512215144447 -7.599824509893676
-1.3293538020767643 -122.39188881078732 -7.575295294084885
-1.445312399723048 -121.93828490284703 -7.584243042920535
-2.0420029538981184 -123.08022231797652 -7.561965048651124
-2.502546275230095 -123.85636859377607 -7.547225223071353
-2.518993569392353 -123.16318214711562 -7.560818612757673
-2.1113857391234845 -120.92251368150671 -7.60449036078459
-2.7586392301677383 -123.16926905328194 -7.561023323404481
-2.8961889634806037 -123.10575157851613 -7.562473593936825
-3.0595250746114377 -123.47882077154033 -7.555481527876906
-2.4527499769322545 -120.92249044196964 -7.604748368612537
-2.8777889796161538 -122.25703387857311 -7.579050699861972
-3.427648127498118 -122.70168092336866 -7.571324052312681
-3.7728682662281448 -123.80207591399486 -7.550811894653111
-4.252870003266029 -123.62716240377213 -7.555487654430246
-6.000420462534416 -125.0169380179644 -7.535814106778517
-6.232144031012664 -124.63842611037686 -7.543960051329499
-6.214245040801776 -124.08070780808353 -7.554678102368989
-6.548931477686654 -124.65973570459055 -7.544314277902039
-6.603052411452481 -124.68507346846053 -7.54416678367735
-6.839106757898971 -124.59825705548239 -7.546411001638023
-14.069485841216197 -155.79251434284907 -7.627141922861871
-14.15275436841265 -155.7189971549531 -7.626559636444159
-14.382905904714578 -155.8530006255908 -7.631208534549415
-14.33575288726216 -155.64268827098792 -7.627114429598049
-7.166216278653064 -123.10007133363652 -7.5763021106070525
-14.50539855627643 -154.30919746494683 -7.6068302099736185
-14.290990866224623 -153.07392618669607 -7.584579574119372
-14.574900411793042 -154.27538231607025 -7.6067197969755105
-14.637227973472108 -154.13646726846605 -7.605077052433767
-14.300995167928058 -152.9916957685703 -7.583614325821248
-14.26342236225835 -152.77950372748325 -7.579897971302928
-14.136935041792091 -152.22679081862083 -7.569802506418646
-7.450420377999746 -123.03750181978982 -7.578295041170565
-14.792950652504917 -154.67804344408415 -7.615437843289121
-14.675602405875276 -154.26937893863456 -7.607868100968466
-14.693290619695992 -154.08962092471407 -7.605125546579857
-14.394575128982748 -152.98049757846542 -7.584191768854912
-14.792749118393125 -154.08081911416366 -7.605726701657866
-14.754397234709987 -153.94680747377313 -7.6034334707493105
-14.861171798107952 -153.94401609991866 -7.6042334913227885
-14.852521273423303 -153.74492864811435 -7.600980897966489
-14.915157195616299 -153.8949676262131 -7.604242332348653
-14.767888171566868 -152.92391626480125 -7.587264669349659
-14.596967192656264 -152.1667182902471 -7.574066417322077
-14.575978014706445 -152.0636693834877 -7.57206558338639
-8.082404781015837 -123.80662177404736 -7.565924257534917
-14.835070848374171 -152.8862955765266 -7.587631517276931
-14.610521188505533 -152.0028869770647 -7.571751902013182
-15.01261315241521 -153.22099463102415 -7.594684329730832
-14.92563138319411 -152.77809616581 -7.586940976243826
-14.78344547119136 -152.48547173687865 -7.580940144226364
-15.014934521364626 -152.75956471567363 -7.587393343120524
-14.910576381681242 -152.4989187676593 -7.582295222220683
-14.748588315435283 -151.51406510143843 -7.565806673693146
-14.862026993249499 -151.5182318133009 -7.567351254293486
-14.885095922853235 -151.40974878415386 -7.565920063494343
-14.898969534774551 -151.29268824216408 -7.564276926380371
-14.943550808792267 -151.24033712631422 -7.564249394658471
-15.350935905671827 -149.76981120340565 -7.548644698597751
-9.01869181864056 -122.3555370582527 -7.5968888998988895
-15.306892318732702 -149.13970045060407 -7.539880169553533
-15.27862860736916 -148.9058430697643 -7.536337490703361
