ply
format ascii 1.0
element vertex 847
property float x
property float y
property float z
end_header
109.98206958496775 -173.43619981434446 1.474804595164167
113.39278705056944 -160.5176396080666 1.4335471955700274
109.86392524072033 -173.43152376885547 1.4674346725226841
109.68617751363008 -173.66028469891063 1.4634083065718504
109.7058433740218 -173.58496691117531 1.4627392204189187
109.77253624789897 -173.49849124555337 1.4640742182618407
107.51784441822961 -177.20621764557495 1.4458403053484983
107.39691978694968 -177.16986314688995 1.438440723424811
107.24806428192213 -177.16135295383373 1.4298249992708927
107.02711701478135 -177.56673255160814 1.430323135379728
107.03838366236005 -177.45062487661403 1.4276550103307348
107.0663208189301 -177.3615082212617 1.4259902723283089
107.12020207355036 -177.24446154536105 1.4254334550570242
102.378142022008 -185.58995745271517 1.4593029147106316
102.27472529837546 -185.57611955795295 1.4532828478539797
102.1200079581527 -185.71116246007412 1.4502611839337405
102.19117919939359 -185.6269068042733 1.4513119671433794
110.20154542017198 -152.91573743180422 1.4818499315439149
109.31594365301301 -153.841197929077 1.4272375281733505
109.31103732954395 -153.75466896921287 1.4237655453163383
109.40683858347849 -153.5029535628606 1.4244656462741077
109.51347656406976 -153.08696308558896 1.420692868362538
109.22017975938438 -153.70123090686832 1.4130569428353519
107.2765433269022 -158.39278774976012 1.47268308362816
107.2212850327333 -158.33091523524917 1.4669865146265464
107.17954502659593 -158.26732472937897 1.4626651240626867
107.23782093238803 -158.12737658442776 1.4682513390657546
107.32321444206309 -158.07105824353067 1.476766043405022
107.1785757488006 -158.22175939174386 1.4624588066934152
101.93637886353025 -160.27609535172004 1.4937709364382845
106.14140251042988 -140.37915086711212 1.5000618178092644
90.14831967354642 -179.74411455475428 1.4029182725389224
89.97440291911492 -180.05367176167678 1.4177689635661823
89.5588764502327 -180.25891072111813 1.4171241286947325
88.0257053188289 -181.88131216870397 1.475045426600981
87.51028942539736 -182.21424602146988 1.4803757497939913
98.2015041645105 -140.00414162129798 1.4350348044665002
89.14685881838054 -162.30635306903946 1.491564291362432
89.14416862163051 -162.21910777608977 1.4795366193657982
88.85600221363727 -163.03680674994752 1.4207883189922605
88.83421152763631 -162.99785441577697 1.4182276125433242
89.08556455129187 -162.1810459063538 1.4849559201885487
89.09231488379427 -162.05384839840303 1.4663227780687227
89.05242866696472 -161.97856780713587 1.463740871138234
89.07579402638868 -161.9250165459075 1.4523998819041812
88.74805681927135 -162.98460036483328 1.4285431038833711
89.05314726877901 -161.95606699072428 1.4607428711417698
89.05209661612827 -161.8394882716891 1.446032388219812
89.0702183035471 -161.7373605874182 1.4299697287980688
89.04265327050027 -161.65493823355527 1.4254082908283163
88.65882797992016 -162.8168103100509 1.4182066300016658
88.70407512298844 -162.72913872548838 1.3998943148979772
88.89615088452267 -161.9469855948291 1.4891207540504476
88.96431402543548 -161.71515233688822 1.447571964534223
89.00784214912626 -161.62619528997234 1.4287676485126277
88.48829360176681 -163.05345273601 1.4750819577010583
88.52680158565227 -162.9687193390696 1.4578651313407214
88.59211516323894 -162.904974891352 1.4398354848127164
88.62764920597422 -162.65719985907805 1.4016484527034623
88.85239195946558 -161.88782943726457 1.489955697981374
88.79439584458464 -161.80080430740472 1.4904974277663223
88.84807202578659 -161.64159300121307 1.4614697120724618
88.5209314756499 -162.76456727657478 1.4313220811891296
88.55996055849481 -162.64106823758698 1.4095121368016439
88.8325826368845 -161.6043912366391 1.4602589530131378
88.3650239192561 -162.46076542825938 1.4163328221451417
88.63768967668102 -161.50832672167186 1.4879106912059035
88.64994842148117 -161.48282570113693 1.4827287931508297
88.51704965985545 -161.1036433700029 1.4725875768651546
88.45081303727245 -161.05508658687643 1.4817071815709126
88.43276281055955 -160.99480386707984 1.4802452059604632
88.46720411457197 -160.90150892825704 1.4655817278978749
88.45729369009057 -160.78877503033604 1.4587160655844413
88.338172760686 -160.87489687425588 1.4897472287645621
88.40345132035364 -160.76377223601523 1.4679030196539113
86.15461826444738 -162.42417327242114 1.4499734368599184
86.13188982824269 -162.4002124772709 1.450935032269232
86.11489942100137 -162.37428986783047 1.4507991640754812
86.87957563389503 -159.53081543782204 1.452603996591392
86.0207644908773 -162.37319940956823 1.4628527694374875
85.97746089905255 -162.35526354876626 1.4667892335761616
86.73867960138007 -159.60667722894112 1.4788238155401412
86.80260982855837 -159.2947599189742 1.4597940197403019
86.88255876286398 -159.1454171830999 1.4431535995989155
85.95302276122787 -162.33110088345933 1.4680346662793746
86.66795207814317 -159.57941379582908 1.4903906274666257
86.7467700390044 -159.2668533277322 1.469001667929936
86.6074590457054 -159.2713364885194 1.4929305799129697
86.62109715489068 -159.05845862571599 1.4866568764574233
86.74142319960472 -158.6301973035861 1.4620225313553337
86.75816009486164 -158.52743531193977 1.4588912691565157
86.62657624577898 -158.93756564205822 1.4841494583972694
86.67574134181473 -158.6754771975195 1.473243048241163
86.6919389399408 -158.54360180765397 1.4698994723711043
86.6989269235827 -158.40916177611905 1.468951897764056
86.58474694646219 -158.55431944251202 1.48838749740086
86.61609032829367 -158.46486198628807 1.4827966826413737
86.56019791947527 -158.41417541841338 1.492146229965595
85.61171357772429 -161.47079465549348 1.4496859144770053
85.42322984682421 -161.33474920722966 1.466117071243847
84.84428696327068 -159.33467254503103 1.457422881152474
84.88740527965747 -159.2040844441705 1.4483688772178371
84.8988609062851 -159.17356403673426 1.4463714495623836
84.89073209644613 -159.07281086375116 1.4450102807491643
85.14468727731546 -157.46341675240072 1.400200977498221
85.13545229364925 -157.25624078013973 1.4033839695790027
85.01007559998517 -157.4982251003862 1.417678304554658
85.0276655115109 -157.36571278887607 1.4163897532826712
85.03550812916052 -157.33431932563266 1.416003450625921
84.81831200136651 -157.8479732341924 1.442128261080602
84.86436010293575 -157.7377009120958 1.4359384556694368
84.87339838521325 -157.6891685404503 1.435028742256645
84.89450227285664 -157.36733799858823 1.434213632973632
84.91467495417228 -156.8820372285214 1.437570671618589
84.85875718230726 -156.812906673531 1.445738566607616
84.8970375390551 -156.75218536481654 1.4418912007601778
84.84742364944745 -156.681445771015 1.4493904352514326
84.4073987285699 -157.83882271614314 1.4968982785614373
91.01473994685902 -129.79876141892154 1.4168586101816287
76.11657657105059 -185.77066702590656 1.3971869573934794
89.46921193179699 -127.96701238169535 1.4238696159493143
89.57594639484721 -127.92678519094065 1.4301003491990252
87.79461326451029 -124.39168272090441 1.5101823256740128
74.17535163741208 -173.11223710724303 1.479152765758802
74.1813562694089 -173.0096559974665 1.4715800860705532
87.15445838843314 -123.73654620024938 1.5115183798134204
74.15558050936745 -172.82912779485358 1.4593931281856578
87.0102176411376 -123.66346133416954 1.5096504455756308
74.09911516402525 -172.76082019187177 1.4559175067351355
86.8443846884365 -123.49320914000202 1.5090173694416622
86.70952998538966 -123.46399422279923 1.505694846315476
86.49738078234655 -123.68068289693922 1.486645156081213
86.57499388180874 -123.43511395533577 1.5000373818484634
86.28737249527788 -123.32547577779927 1.4927574049707157
73.20167069651394 -172.13223811257066 1.4303733185053837
73.146228439529 -172.0657036265022 1.4268050903079341
73.0097885933501 -172.04606727020266 1.428538594058252
74.40309367386735 -159.05454278064008 1.4642578983933228
74.37337555886259 -158.98520920964222 1.4636701975031985
74.33795363746945 -158.91438485354672 1.4645890768141547
73.99500137358233 -154.1120471561597 1.4071316564193537
74.0130564396948 -153.96470477556394 1.4052141304379346
73.95678439199153 -154.02519363194193 1.4081983442352695
69.17864466079172 -171.8024587950645 1.497355639983976
73.86914813974825 -153.77018979842134 1.4132158902780936
73.90081043772494 -153.66517104702686 1.4103898356613578
73.88288744914117 -153.5465279374461 1.410612162885631
72.99233637901602 -156.47256189584482 1.4978459693724564
72.9853355120575 -156.24397414808405 1.4937636130657799
73.2688693558095 -155.45779585101857 1.4651258755735084
73.72420412090435 -153.42267958345673 1.4207904510397753
72.94055045837354 -156.15853468569685 1.496047531928271
73.70023329122866 -153.3370424571273 1.4211426637771991
72.82038513845833 -155.7522689990621 1.4969546213461666
73.52907369704113 -153.20117974734086 1.4321837885566162
73.17200965116307 -152.9687895536249 1.4530610677996794
72.8772686845409 -153.56400630040469 1.4727512200226502
73.12222269931739 -148.84821145644418 1.4806763914939516
72.92469439710031 -148.93771503461087 1.4902575414546415
112.49239812686866 -169.25189450894192 1.5215366445145961
112.58578939856976 -168.98418006727778 1.5213886968219172
112.46739812956324 -169.12289092981075 1.516972464498376
112.52473227580501 -169.03351155262303 1.5184578196679612
105.83397377889524 -167.44525581090474 1.556688304392087
105.6557390112072 -167.73550154986611 1.5540109882910125
105.67828957141943 -167.57124311846658 1.5483801366965804
105.7262784683344 -167.4607149395508 1.5477804602940264
105.59071918535503 -167.80618484457753 1.551482500688488
105.62171367290802 -167.76963079994442 1.552374727373719
105.644986705289 -167.6365531127955 1.5484556175654667
105.6805764864692 -167.51536241891733 1.5462274837522527
95.37972584165851 -197.5911006959922 1.541004732650508
95.24175565948111 -197.49099702967206 1.5316490761943151
95.11663355632213 -197.5060408902468 1.5259264485696467
94.99186175604612 -197.58265710354863 1.5233741634683402
93.34669575089448 -200.19211954404247 1.5388303918418236
93.20635631607728 -200.1507450851705 1.5304810643565443
93.06344423916133 -200.19279387050508 1.5259624743461575
91.76898378105285 -203.0295970073895 1.565957201947698
91.62144737766518 -202.96082283918705 1.5563647390286361
91.46859915533695 -202.97730708946693 1.5505829357851206
102.23171572497142 -160.0780723939499 1.5409254473634217
102.04875986267221 -160.4760515110557 1.5173141587415557
101.99694375776312 -160.42980778387283 1.5073871471686362
102.09962199840032 -160.11197366103 1.518806052891386
101.9570676502264 -160.35885720345297 1.499016793011162
101.94815666671616 -160.27706931354427 1.4958302292451249
101.99667844621631 -160.18725667423755 1.5024507344704434
103.06715198082867 -155.45941389805577 1.5597975888859799
103.01159523143328 -155.44888520772975 1.5507978729027645
102.97741148724563 -155.4281655586052 1.545276367105052
102.92515760542446 -155.3600902691476 1.53673644820291
102.91276103093642 -155.25376563032052 1.534602124813457
102.93025114820259 -155.1686301819089 1.5373390048755422
106.18290024838144 -140.6071030742961 1.5038712955619875
88.17349609583033 -182.27395235795396 1.5065983644879755
87.98641106697771 -182.64323207456886 1.5256726686093032
87.96241551093877 -182.4129811666022 1.508926567691333
87.80364023817886 -182.36222927705032 1.5001325492209212
87.64834810668145 -182.6023373815494 1.5115256230223761
87.56977010383362 -182.4484413920872 1.4983584514187047
94.78171860832919 -147.98965217284854 1.5941886496736646
94.67637043115826 -148.13936845358933 1.5685658186764089
94.73935983892264 -148.07325852113723 1.5808834714405309
94.55590436839071 -148.21109522502388 1.5514390948042946
94.61545789264459 -148.1641168723077 1.5613704480790291
94.41823962823221 -148.239111145547 1.5384193813024063
94.4765597930523 -148.23313857045594 1.5432768376843677
94.33784650989743 -148.24560570120772 1.5323868765894646
94.2380355124538 -148.2380579303346 1.5266114827517092
94.13858744962845 -148.22944623200013 1.5211568830717548
94.04024585271128 -148.18552888617444 1.5202238254139548
93.97907362863306 -148.12823121063664 1.5233905722515844
93.93502004120937 -148.07573341174148 1.5266207331803783
93.89299489036455 -148.01936548689685 1.5310715117130949
93.8512917835204 -147.94521255184546 1.5370871111884
89.13178183483693 -162.33657511036364 1.4986067571290602
88.89482963216486 -162.62500488530856 1.5838655341234007
88.91966869955387 -162.55254124502682 1.5685323065375663
88.92937022934176 -162.47552154164504 1.5554066736831376
88.5322519624053 -163.68846108117185 1.5620267847446208
88.87182599940728 -162.637705812125 1.589812083044327
88.8061423560782 -162.57614586473267 1.592383693244432
88.9091951657482 -162.4028768183019 1.548465181389707
88.92587568789124 -162.11091568476658 1.5049109407622898
88.45588907477958 -163.6531611759518 1.566781068769971
88.5025922495322 -163.5486308118028 1.5446827174949782
88.85589111950782 -161.99679123065076 1.503110054636273
88.29356807675423 -163.5242750777111 1.5696035883304746
88.29124767004144 -163.46625746064143 1.561487637477893
88.20333104966042 -163.49259600747058 1.5774357827004295
88.56644660399998 -161.63032144693494 1.5150329536476415
88.4575861294753 -161.61066091088782 1.534225825700949
85.58411505049818 -163.05838646099403 1.5788016104160365
85.46157943764052 -163.07073068756088 1.5951005186853746
86.28874715707734 -160.22816358105396 1.5798399302232107
86.48412723489696 -159.19616977818416 1.5126757441788128
85.46210071961167 -162.96666900630467 1.58556441077713
86.17474615471573 -160.19324000130726 1.5979229698629005
86.17351341027465 -160.10817592110737 1.5942369161244037
86.48600442078778 -158.99274838856667 1.5088117001358274
86.47090895998416 -158.95046993070883 1.5106926655854827
86.1156642987142 -159.91163253051292 1.5965151533860964
86.49534025005774 -158.34673042621898 1.5032263864117044
86.11303339574819 -159.65762688726215 1.5881379092936625
86.24520018599988 -158.53237824131378 1.5457405317787798
86.4028654201505 -158.1478973438604 1.5198406072168487
86.07535212865241 -158.8079350927547 1.5767176699304823
86.0837295695958 -158.74158116504168 1.5745348582612089
86.2929900651179 -158.25468774000663 1.537675400697958
86.02553386352902 -158.8226797403851 1.5855477640226252
86.05918956795307 -158.69588773286975 1.5784650578879003
86.1936656217188 -157.97642117945873 1.5565271639011655
86.0724250263238 -158.17125077346938 1.5753741818831768
86.04813156998777 -158.12324826826168 1.5798534966480962
86.12382497519519 -157.901585950982 1.5687242591442925
86.13534318125568 -157.84411275695822 1.5677904621588952
86.02778798774263 -158.03017004064043 1.5835978177570043
86.04700116944909 -157.9894465186437 1.580862053049494
86.05922160767524 -157.88741294270565 1.5799919456822364
85.04222473863484 -161.28734661912864 1.5141051133242271
84.52146501646371 -160.85617274000373 1.560430601975059
83.67842109546325 -157.79735013476903 1.5939686522215912
89.05672603660892 -123.6240072262166 1.6078350721829417
87.73007980741862 -123.3593167757678 1.556285966054924
87.47300152353718 -123.37398472923029 1.5437952133768906
87.3579965511235 -123.47300650169126 1.5327895190536753
87.26484094870283 -123.6537895806703 1.521411499077363
75.00876492571325 -161.9020753883693 1.5248548185986583
74.57682025161716 -162.0210925466084 1.5575649892812171
74.35891325541289 -161.62496420800193 1.5553181357800958
72.63642375595448 -156.3429403360495 1.5178699894793357
72.52979282661863 -156.24889625041007 1.5239335259152802
72.60075609697648 -156.0232695311656 1.5150546703092638
72.59279992035925 -155.78826596098722 1.5128363332403099
72.51322018236107 -155.93048676330073 1.5200311468252796
72.69232452357915 -148.72438221222708 1.50695721000285
71.62351271996272 -147.98521248952667 1.5754595622423284
71.62288369210891 -147.886404821923 1.5757122158462058
71.72718173581606 -146.821349661439 1.588559023602252
71.40533796150568 -147.57007077461898 1.5921120377215752
71.29963439598156 -147.61663638432742 1.5983374805383985
71.42345353030896 -146.96634882513538 1.6007425890602935
71.44862300979908 -146.87612346059464 1.6021928207101452
71.24666155560682 -147.38343032049616 1.6046981314386033
107.12100178135017 -152.66824751489852 1.688320070190503
107.03573217690352 -152.62833554652616 1.676823109392123
107.0785689940118 -152.3422874839391 1.677838367810995
107.00237314113758 -152.55970506890625 1.6715181278181128
107.0092169889581 -152.4985576899863 1.6713908295671862
107.01938134800224 -152.43547843877522 1.6717706247471507
102.29679873738145 -162.75634029388186 1.6524237657446137
102.38311288439688 -162.5644439226278 1.6557776274036586
102.2874671531719 -162.71989602401626 1.648750647093987
102.29738996740205 -162.6426929437528 1.6460534697273257
92.04107162375799 -182.65925818691105 1.678837744197544
98.74646376710538 -135.41933041615655 1.6968299043937072
98.60041477242352 -135.50827883000375 1.679470984916572
98.47071984494947 -135.50748316573043 1.667813907666708
98.39702453479606 -135.44199731038276 1.6642072993938406
98.32739273651438 -135.35121221725578 1.6622385871083507
94.8240326152975 -147.93001281187554 1.6041452034204136
94.87146686900935 -147.7773539186394 1.6260791569432083
88.7733944906599 -164.4073344956227 1.648804796320221
88.80823025785458 -164.30139719376942 1.6264964588748843
88.7374057020598 -164.33825188135495 1.641260606454837
88.69149552483282 -164.29582619219107 1.6396886980984409
88.63117505020136 -163.0131945612089 1.6902340611755835
88.64280133838486 -162.902175969721 1.6707670295632058
88.59311604911545 -162.86441055389054 1.6736270816204504
88.6026126390608 -162.53159760057778 1.622647102425791
88.2446046290069 -163.67494799951146 1.5986693237334508
88.56420739480355 -162.3557767492803 1.6051096222325674
88.44457418897534 -162.4358427262485 1.6380877797939593
86.92264619631783 -162.9175988051494 1.6910832919679428
87.44115108272094 -160.50270466081747 1.6482039303615674
87.4563954440744 -160.3689611955616 1.6371917935044185
87.28153594281467 -160.55819593369108 1.6846259883264962
87.3179499033835 -160.44397530652336 1.6701947806223492
87.35158654364457 -160.36300133162592 1.6586808723111401
87.28434772050632 -160.28763898757725 1.6685963070120402
87.2693907991518 -160.17829493714905 1.6660574888281563
87.28255562662062 -160.06721681841282 1.658169516847887
87.20906537087289 -160.04012274467877 1.6721308300407058
87.22805890880849 -159.95928056150527 1.6647367344094708
87.14884429868893 -160.12423432712313 1.6885886702530732
87.1682856009253 -159.89947310082454 1.6747847545204086
87.16059253315265 -159.8106387850021 1.6729432982091261
87.20730793051179 -159.73988137132818 1.660732664777228
87.21955755348864 -159.6288166655125 1.6546884482427244
86.46314749195666 -162.23170684922053 1.6913831771158099
87.12959635027967 -159.82790640009904 1.680136724055113
86.36349094410494 -162.09746225791736 1.6950219078550803
86.45090287273827 -161.83643000454038 1.657664500161914
86.44761846286222 -161.74968493207243 1.6510260698794124
86.33429092854753 -162.07612358897612 1.6979612669893176
86.29537418601711 -161.99856537697406 1.697380728922311
86.35039721021606 -161.89348265209352 1.6792162385185432
86.33367544251935 -161.74993998694555 1.669814440363513
87.03829414157902 -159.16540644546046 1.681744737203257
87.0713937952038 -159.07514565138 1.673463517734017
86.25331794796972 -161.8453251780548 1.6910931819808142
86.15890273258003 -161.7346731030883 1.6975639379855898
86.19275698348444 -160.76172782614893 1.6241097706600263
86.09903316953285 -160.74457985679268 1.6389166195643659
86.1031513239395 -160.69993374164991 1.6357512309431879
86.11404920627038 -160.62745577243365 1.6297514492432805
86.17287831470333 -160.47786699789467 1.6119092439613711
85.99562234772108 -160.81701551751746 1.6607581073247695
86.0744115906171 -160.66072025466914 1.6385329811825726
86.11485795798475 -160.35435701599695 1.6155876125041966
85.87918421456797 -161.02734627640675 1.693533350218668
85.87352452666786 -160.9375760639004 1.6888945339567822
85.86117438967236 -160.8648256763003 1.6866488366647292
86.02999262498734 -160.43363513378816 1.6341193581696511
86.01375666766364 -160.28996039905712 1.6297632183449022
86.05612322742225 -160.07114436379732 1.6129491024879306
86.09514445751445 -159.99781644495377 1.6031675820519506
85.84059981546183 -160.53958662290935 1.671767667473211
85.94385370486114 -160.1636919280604 1.6361627504313851
86.06000119117849 -159.9561251199625 1.6076799420831376
86.03504090094364 -159.84403261400485 1.6077884113775858
86.05866832803466 -159.71423993659525 1.5991520190404283
85.73604333801777 -160.62533379468422 1.6942856018460242
85.76234595971229 -160.4276006675704 1.679467784667323
85.98044824951566 -159.77298475139818 1.6145642280017225
85.96825953038022 -159.743476093059 1.615889463343754
85.68203736103038 -160.3440824524454 1.6893828827304354
85.98033771660613 -159.32458943799492 1.6018121773951184
85.68574774583287 -158.17725560911973 1.6407610763527316
86.22394650636613 -155.91827696234537 1.6196455378048542
86.21380791363802 -155.87920293582573 1.6229364818860221
86.1987753603564 -155.83697323233045 1.6279950040576945
86.00025903655269 -155.70719071887143 1.6650402433814964
84.24077681408826 -161.03232155019577 1.6075556410495286
84.16724006720614 -161.00573417816662 1.6158509627099755
83.96843698331571 -160.8858555073775 1.6364694358636016
83.79666644544214 -160.83164299132235 1.6569720253077498
90.68502961281789 -123.37218674721925 1.7043987905229279
90.55246729266865 -123.3412823597302 1.6996121355798754
90.41478734173023 -123.27921023356483 1.6940076461738645
89.58324780737955 -123.72119864018651 1.6300445068188152
89.4634879496795 -123.75309246300586 1.6213322381338677
89.31913462593333 -123.64357837140778 1.6201918337548167
89.17992068851639 -123.58623713406766 1.6147327947171226
82.1538966922106 -148.66740798674022 1.6287356421920267
82.19109038975388 -148.5439260613142 1.634157409448413
82.16672420933503 -148.40450246416964 1.6448831747928734
82.2292092663073 -148.34487408534972 1.6452329391450349
82.11217029025474 -148.5504783090615 1.6394560719764824
84.6557391822241 -138.00000119638085 1.6374613566177492
84.43726973748664 -138.12022019885717 1.6283182575599304
71.44319529636833 -145.9148421596461 1.6192089655300135
70.80974329916491 -147.97894254920146 1.620104367479021
71.37506986902511 -145.76501037909915 1.6270081037039812
70.74055615124982 -148.04658999347376 1.621869460696056
69.9157870810657 -150.75619481209392 1.6504931963649196
71.15378799832037 -145.95941434198565 1.6331288417674155
69.8451668902456 -150.82187508601325 1.6535355773570781
69.84660472344632 -150.63749471420627 1.6537587006707302
70.9625029953063 -146.17169903622357 1.6402775251634423
71.0226417027269 -146.09986354523576 1.6372104559495537
71.08893374192132 -146.03011103785417 1.6363976779296046
71.2021304795304 -145.54976164018325 1.6389112533933712
71.23993266866637 -145.3512939289144 1.641178674454558
71.24586986020918 -145.24363664720556 1.644521763973105
69.56764482793301 -151.3010107247992 1.669784687414119
69.81339215519732 -150.42942825902486 1.6563542327813507
71.03528982759074 -145.77970478326822 1.6440379101900093
71.12216052413174 -145.38991807420214 1.6476114882173414
71.19152636218807 -145.09730480838158 1.649128802004813
71.19937263753472 -144.87639435180725 1.6536628842845158
71.14796559331309 -144.95704887780522 1.6557429999516844
70.02820335869234 -148.62208504440264 1.6566598859203527
70.08288713984986 -148.54560635907202 1.6530990593735575
70.05009650846779 -148.43078189680259 1.6572617692745821
69.21222648911075 -150.9888285650197 1.6912425853463626
69.75197853916346 -149.01261438151224 1.6677748321361259
69.15790120970277 -151.06708088926104 1.6955969614724438
69.62767011596085 -149.26273776175128 1.674271662041072
69.63834074274008 -148.8585894024738 1.6767337217537774
69.51329514833331 -149.3133684075779 1.679408969098749
69.52196280150253 -149.11799272047068 1.6801874303271986
69.54780553024024 -149.02713061127506 1.6805475792014632
69.60560271089892 -148.73959844686647 1.6784190740258351
69.6419494399629 -148.65294105585815 1.6782972897567332
70.03887942795984 -146.63097447815178 1.679934429869229
70.07560761152058 -146.5419093000044 1.6806677334359585
70.13884504332984 -146.03127700280154 1.6845369341749192
70.12176790753622 -145.7947505953794 1.6897001780530252
117.82068912903699 -155.78780068981092 1.692851899941338
117.83592885949261 -155.613644296897 1.6935780588902336
105.61925393585749 -162.80522247826025 1.7844699191439086
105.49147772128526 -163.04470394221633 1.7763048232605798
105.48537354728916 -162.95723841591635 1.7722327594462386
105.53168638773552 -162.86551439745566 1.774988298151309
107.50800324432718 -155.14407637429525 1.78713983557396
107.42659601771346 -155.12096958656753 1.775895040585487
107.32510404084341 -155.07998599099128 1.7616608682163741
107.30200653618458 -155.01140345947496 1.7570751226038541
107.28791387660236 -154.8413509756396 1.7513729667087257
107.18365038710441 -152.69210412867105 1.6967608482935101
101.98976692729661 -160.4031499718174 1.7848484478602242
101.95827583899975 -160.29224154609355 1.7756425198098638
101.9964550430696 -160.18788810495198 1.7812992581412608
92.35412104425151 -182.6911545798468 1.6940969913937851
102.1075257098855 -141.01949514607296 1.7914056002522043
102.04533151657243 -140.8961230246805 1.789468841409709
101.78070419346065 -140.00085126834952 1.796783870809074
88.59861533008588 -163.09710179764937 1.7092731289124952
88.04362543433807 -164.45668889788112 1.7470772822225478
88.03943128414586 -164.42553877771417 1.7424988041110934
86.99544514390156 -163.3145054546458 1.7280595087822552
86.87188572186288 -163.34428721261799 1.7503853578308204
87.19436788210515 -161.56948525837345 1.780706077529335
86.99134332092163 -160.6465967170687 1.7500245943493495
86.22898038601254 -162.51008719022042 1.7562534556468183
86.14282347935908 -162.50834633449958 1.770011452354764
86.31094894861823 -162.05330434482474 1.6996207051993533
86.8907293496527 -159.7032938711162 1.7253167506461744
86.91055249095464 -159.57458090957067 1.717419195052226
86.25401809035716 -161.95019462627218 1.6998686375772434
86.88737134810633 -159.54838936299754 1.7212894976194313
86.93574443790553 -159.3322245453482 1.7060359086357453
86.93844503536799 -159.25678455728413 1.7039675058055275
86.93832046695911 -159.19147315144428 1.702748733185856
86.15226854523998 -161.73635377379028 1.6989278101970162
86.78231061653749 -159.50725600334783 1.7421363101672072
86.74726285329261 -159.36331064639003 1.7459983761154523
86.86368459374883 -159.16185602059795 1.7179824672677548
86.88024092449392 -159.03324417368287 1.7128160849006306
86.09237324116685 -161.63029310563408 1.7003324571114296
86.64312436500006 -159.398626945995 1.7683607546911198
86.82128214410834 -158.9758343189194 1.7241714003586177
86.59004971945618 -159.4359815672287 1.7801971497297975
86.60889719623083 -158.71313225222113 1.766699890746543
86.61559921848263 -158.6601168938208 1.7649819167809944
86.82450050469185 -158.10303252334518 1.7270046336698468
86.48254219394248 -158.91563287188174 1.7939903260246393
86.66501896231898 -158.10984693097467 1.7591470794417583
86.69772582163704 -158.04842502195285 1.753401752101404
86.70651596489616 -157.9528917435137 1.7536316900874018
85.85244956033405 -161.0767511634651 1.7011479058622674
86.56729222159868 -158.15936913905276 1.7784233663717983
85.64304303958578 -161.1717860870871 1.7428097997528635
86.46277026482507 -158.30622377740156 1.7980808607998282
86.53216847690467 -158.12435511415225 1.785790454260567
86.55425513959216 -157.96030015725512 1.7841290718265597
85.66347456241606 -160.58773134285772 1.7047693980442413
85.55609505005418 -160.50666311239522 1.718743044072691
84.86364890353936 -159.38965682577685 1.7951949760337267
84.86413664079309 -159.34147554587642 1.7940232204673867
84.97336994590826 -158.9733687862363 1.7677683845225787
85.64362371144435 -155.72003663396376 1.719109994431255
83.91505936122336 -162.0637048040471 1.714044372985874
83.77795102074423 -162.03722605555978 1.7302945834012717
83.81612849466504 -161.99052934973005 1.7222640721055682
84.97492808834284 -157.41498213792465 1.7668818274366314
84.9561477796326 -157.3752341195341 1.7710267333544796
85.33317189153694 -155.74729581571546 1.7652336346624184
84.79356339928285 -157.42298306389168 1.797108070595898
84.82246304146405 -157.3072980360056 1.7940013255355978
85.23809706502864 -155.610697580703 1.787118762321251
85.16454341798084 -155.6156812210365 1.7977343625174143
83.45574039033015 -161.75612187751685 1.754991082326309
92.84696617500953 -123.84050660705564 1.8089295078107532
92.72152828823167 -123.89559434379863 1.7976238910461178
92.59802184267988 -123.88109032256565 1.791713271343525
92.47467571404479 -123.84896063794397 1.7848694736726636
92.35209378766956 -123.83322592049436 1.7792032488732987
92.22631580130808 -123.76804307976698 1.773884783163547
91.9542500622623 -123.6042085304181 1.7655456485995482
91.8304920592044 -123.61830929052871 1.7585641871234705
91.71101815290675 -123.66456842206918 1.7484275252814514
91.57400994012093 -123.47816371825368 1.7504403145381058
91.43849793686785 -123.32808442277212 1.7488727883108957
91.30418124045603 -123.23448807768136 1.7466644853302802
91.17348417154257 -123.19915919905216 1.7399277590107707
91.04725494154702 -123.21605854520607 1.7330098894947719
90.92423474872128 -123.26719886735236 1.722655658245276
90.79825751102719 -123.2588775338441 1.717066703422274
85.3505226854414 -137.094299879059 1.710010201278295
81.82160047888715 -147.7583791656149 1.7075722296208473
81.85818648928189 -147.67135163749833 1.7114595393095116
81.66855230064243 -147.7371788028557 1.7178106362339134
81.69039398508316 -147.42648472527213 1.7367694553535546
81.61619372744404 -147.09548754829112 1.7641045559779174
81.6782539933429 -147.069821562857 1.7613978788825708
80.96328166382682 -147.83770381619263 1.756510615509672
80.84295389510038 -147.8143322853209 1.7648340987885456
80.87800106312693 -147.63855148155352 1.7737152947429669
80.6363763347091 -148.00845443354905 1.7672659795432075
80.74001907669461 -147.8865628959195 1.767242544808881
80.74102303036848 -147.80666034804662 1.772794236155474
80.4009897072926 -147.6785748650689 1.802699030811352
80.27718845267049 -147.9908553037319 1.7919488327010522
80.24863524537888 -147.88218709732777 1.8009918060960846
80.27730420596288 -147.8233545337869 1.8015626566426537
80.15099110368482 -147.96826840091245 1.802671964497237
79.41339549597996 -149.73284366443914 1.7682275359565565
79.40539604853595 -149.61603191564114 1.77443693225026
79.20923640141169 -149.89109705414953 1.7774298486881424
79.28311815613807 -149.79064188873278 1.7759175772819455
79.11313906160655 -149.94089916888686 1.7824653723156518
73.36872411108752 -164.6455749334274 1.7610058411970688
73.32810625463051 -164.5779417338379 1.759681162918133
73.29940585881678 -164.50762752338537 1.7581377770658622
69.97885044776072 -176.5178455658909 1.793992307050897
73.19501901594238 -164.4540634317635 1.7616320857031582
69.95111272213914 -176.4181390557569 1.7876016192736737
73.01678750053861 -164.41645348784508 1.7713272033644996
69.86670493086788 -176.3552693153631 1.7842760484341837
73.0009488882056 -164.10798013788283 1.756614003542115
69.74925569614729 -176.30716801434764 1.7831912663334968
72.88768216354427 -164.2467270215171 1.7706776614786763
72.93106230141025 -164.04608569673735 1.7575931007823715
72.52075882448983 -164.05071328007875 1.7843800704691184
79.18332260181418 -135.60786477216664 1.8054088386248512
79.06975196554318 -135.61326747074497 1.8049500394713822
68.45278579837722 -175.78492031379076 1.7702356928369265
78.56137280209501 -136.09563856413132 1.7826599975508943
78.4569519665 -136.11260971379534 1.7817788016049587
62.39271313244559 -196.79919702208207 1.787778626460634
78.27718868452627 -136.19806368262726 1.7791183903706973
78.2344367225574 -135.9592064541799 1.7950562287441914
78.08806769214826 -136.0976362441068 1.7889230730837018
75.7984457803853 -137.6739338416032 1.7471280216939367
75.85017911918843 -137.57848538340178 1.7494497079304285
75.64863975831412 -137.8111981553136 1.7438801542574411
75.72270685730531 -137.74299836986677 1.7441469630214321
75.82906052185375 -137.08578773864815 1.7766028633759332
75.86356001990178 -136.9675317777727 1.7806412897753976
75.91444555534424 -136.70601835971917 1.7932652426447397
75.78619328874056 -137.19320500243623 1.7707029502811562
75.83725484626093 -136.77313348968298 1.7927553919309238
75.6687354695223 -137.20736252705163 1.7741062209581346
71.54475190545911 -140.4463817142102 1.7653232575496072
71.13815038487715 -139.97171830876388 1.799732975774901
69.37632677722037 -146.05117881767282 1.7245418876595098
115.61057099347423 -175.9098016931424 1.8754534185971514
115.61816773071462 -175.8005498331964 1.8726837169678332
115.66339686822107 -175.72052044114787 1.8736471392155765
115.738562896363 -175.6598388877529 1.8762341528119237
112.56362249171397 -182.07066635232468 1.8757192532925153
112.41166709370667 -182.20434075418353 1.8713555419321326
112.46269866713571 -182.10653096697976 1.8707198803177454
109.3524647776884 -187.67371692155984 1.8817995611882878
109.18761433775123 -187.8321318648193 1.8785021409112885
109.2557875200543 -187.72340323774083 1.87902474403822
102.15039020056894 -160.1018567674329 1.8115973759493162
102.04985804255811 -160.4771949643347 1.7992282147018444
102.08236386459231 -160.12490923563408 1.7978843341429338
102.98192675942508 -155.43937692323126 1.8912087941383182
102.91795473521033 -155.43362614421918 1.878954711417911
102.8971143823867 -155.36876518374746 1.8758051953358181
102.8759049053086 -155.30398923245528 1.8726681093496804
102.89363249487302 -155.23874112175275 1.8770427790661726
102.89862579683168 -155.1793583324384 1.878908485870046
103.26772403456705 -142.41417441867912 1.8726667467861102
103.23402045591867 -142.3313783784674 1.8718387992531695
103.23835693612517 -142.1787412796552 1.8777775112662225
103.14232164362873 -142.07138407252725 1.8703066363589604
103.09371779981218 -142.01112506394668 1.866967204060692
103.03772283868601 -141.97189626087956 1.8616277633761102
102.92729445414155 -142.0461228069375 1.8459815871979695
103.00843592296279 -141.72398626660222 1.867497394030449
102.78039829833001 -142.04510952638768 1.8287462664300747
102.7069649190837 -141.95214668689889 1.8236208247730332
102.62580131060832 -141.88475413100835 1.816660794341078
102.72272657176171 -141.5184758464045 1.8421539273382639
102.57059055811484 -141.51154205100343 1.824844934146222
102.6575016331773 -141.49240998945504 1.835449440651192
102.52846053625585 -141.44177969154634 1.8225409695897847
102.40606498147145 -141.55478870017998 1.804232509455099
102.4139277257116 -141.3637701947572 1.8124625768019624
102.36537851119364 -141.29632711565105 1.8097351386208795
102.39559227589486 -141.05252129972263 1.8226382511493038
102.34812390495767 -140.9882777877104 1.8199484687252403
102.33874079225336 -140.82994007012445 1.8250278282800372
102.21705139046378 -140.9361083457047 1.8072175635831467
102.11342937842433 -140.24495235013507 1.823333210651902
102.06952565405271 -140.16269824961375 1.82195742981218
88.84334752829956 -164.29558394483124 1.8839892063292818
88.77700556319374 -164.06396519900886 1.8495688022787797
88.79436439064466 -164.0047425040198 1.8357309013556458
88.67043361995749 -164.02377362281632 1.8584413256167382
88.67521899008116 -163.9745056075692 1.8485349740641115
88.42002153278928 -163.60121405434705 1.8231017452274927
88.4001391944592 -163.64471444859868 1.8337798799597775
88.3982500529122 -163.5863593099604 1.8241027928072353
88.38004863503666 -163.45263096265185 1.8046774456442103
88.24205815342148 -163.61059336747914 1.8542973419571323
88.3534021857185 -163.44006649023214 1.807011064229406
88.16723389445174 -163.67886375693223 1.8782548362771043
88.17341229171042 -163.49481387536426 1.8465392218087944
88.24235343478584 -163.41041660654653 1.8210173360738144
88.2495776927761 -163.363008624189 1.8121044586602366
86.84025647318144 -163.68714011906155 1.799191147233897
87.14874507942898 -161.82091446924477 1.8142938020047912
87.06825346230016 -161.81795053448312 1.8298682541284788
87.09910094449094 -161.6212922746336 1.804731204740969
86.43204886203458 -161.05405449822146 1.8927961069184591
86.44305476267584 -160.96898710472234 1.884280158820127
86.54730680005547 -160.67656257799436 1.8433573896507085
86.59111365267053 -160.34633845812135 1.8152680877988687
86.62134432606767 -160.26330735878196 1.80490022841232
86.42112767378721 -160.94453448198365 1.8872132017571415
86.39964372195715 -160.58431968203902 1.868238454827401
86.36033169183818 -159.45569040519126 1.8287153652505839
86.18470282597666 -159.66290707933487 1.8711002017671083
86.43050904315662 -158.88343834008373 1.8042236738715052
86.37853587717372 -158.62896659069665 1.8140518506121395
86.43616678120675 -158.35800372064674 1.8030995652878468
86.44786414936273 -158.28948182506622 1.801172277562141
86.16758905020701 -158.81532699570914 1.8582090616986815
86.1894746149327 -158.74610828468218 1.853323815497774
86.26751832396245 -158.52814213297955 1.8366813742087023
86.3314749270164 -158.50989277255874 1.8238349327433403
86.39350647920982 -158.1816073474139 1.8133658900017273
86.39323086975449 -157.95362897686624 1.8171579903904944
86.17189081319326 -158.68716354506495 1.8565189378738287
86.0609144845339 -158.38389008455889 1.8795750846649577
86.0344111826145 -158.35038013994088 1.8854785371995253
86.1214589688241 -157.77587139279072 1.8757461816032155
86.19458389346593 -157.70487333510638 1.8626656303778661
86.20682428004946 -157.61806463820056 1.8621182203100897
86.22866701932453 -157.5485122501463 1.8598453107955986
86.05917000777964 -157.73187280909505 1.8889781871904798
86.10876857362564 -157.68406068096778 1.880108726706984
86.14487631897028 -157.60300135182567 1.875261239061032
86.45666091284522 -156.28489914691926 1.8744707254502606
86.44503896201243 -156.23028932019716 1.8799896927818411
86.35662129459199 -156.27423942691897 1.8935921817009427
84.82007265613429 -159.437355756309 1.804078146940705
84.5655910271414 -159.04158180636742 1.8386371264296006
84.47324344513729 -159.00294238994786 1.8540474358864842
84.67805102656615 -157.09239877793817 1.822392688322407
85.0509676647014 -155.73885911722178 1.8093671115781484
85.01707063862824 -155.66740270536712 1.818337816716033
84.88478180466343 -155.76259227062363 1.8343554163885978
84.35086036542319 -157.40654471560939 1.8709291467747458
81.35167001018948 -146.38448755356512 1.827004828864627
81.24291851107502 -146.45483492910694 1.8283199065531093
81.28498799279664 -146.4079048684766 1.8300226906124808
81.20600973019341 -146.50826452158844 1.8276433053525445
80.95162152285604 -146.5293675094306 1.840071012328575
80.87331251445764 -146.54377576007562 1.844584597660541
80.06982802939066 -147.98211196230054 1.8065617845534045
79.38047073216082 -148.09857122609313 1.8487355483793244
79.27002406826912 -148.13420553181186 1.8553374515060024
79.28672103179372 -147.94015092998094 1.8647175269442657
79.16028121045673 -148.21744788928248 1.8590092224274408
79.28265558022709 -147.59566703177185 1.883410174310561
79.33559241527024 -147.55219954974507 1.8810757874301356
79.01964176813368 -148.23704367534552 1.8687211148888148
79.16000054787274 -147.6694937513759 1.8880519972835066
79.23299672734328 -147.6416547773174 1.8834188118978137
78.84205184600997 -148.51234094749563 1.867411016435578
78.89387241481832 -148.34480819997404 1.8721975869573728
78.95958639217103 -148.2708748740864 1.8705061191467192
78.8341737919547 -148.42478546845032 1.8731947732085326
73.55174739219345 -167.11645262668 1.894656261195366
76.59071542857467 -155.85426899890402 1.896458251149102
76.6392209119156 -155.6079151824663 1.8910147088596232
73.31693270750581 -166.70956913945793 1.8828779340665407
80.79405843305678 -134.45719271570053 1.870475789258471
80.67791569877924 -134.45151247564098 1.8698423794009782
80.47149448336826 -134.69151224607364 1.8556883986235209
80.55779284290081 -134.6462864192854 1.8572112997295123
80.40051019542861 -134.76280357322088 1.850082992926661
64.17157616106846 -196.5203767754956 1.8057597829510517
72.55776234225145 -164.43809001348845 1.8012398726765437
80.42290245568591 -134.19226330296203 1.8886665743299524
79.9442409008645 -134.76407288466174 1.8518986438369853
79.91279960718337 -134.50829932421124 1.869777576433203
68.70124017972043 -176.50798754447558 1.8159738539397747
79.53222565613422 -134.43979311834997 1.875050312636116
79.4468958980749 -134.49912558395602 1.8729660904477756
79.11043691200818 -135.30493629164215 1.8235998609816524
79.1816077774826 -135.23031658093646 1.82883744359597
79.14706204601423 -134.88724170807123 1.8499361594427564
79.20643027414766 -134.50255737375045 1.8742968231465755
79.28858396202331 -134.44191994370877 1.8763211937820516
79.09840035530219 -134.5161805768315 1.8730029226554508
78.75935830595598 -135.48897437699637 1.8157752609790971
62.56984598002483 -196.86115184402988 1.794638476747998
78.66950640065616 -135.5326229721312 1.8153507707564016
78.74895616475534 -135.29185725237215 1.8291488365034823
78.55503535528936 -135.54021809558407 1.8149285816487464
62.20246685053698 -197.8148009966029 1.8449836255147667
62.06125825525914 -197.71935454965026 1.8367400880112406
78.3928884832956 -135.4792839566498 1.8217087684454165
67.62861686306545 -176.04006274524247 1.803516360974442
78.2603409899211 -135.46616056100052 1.8228007850904944
61.97279213060335 -197.01800395088654 1.7925344746730913
61.533110481635994 -197.26649951881598 1.7993094947321515
77.58805417536597 -135.7296994770991 1.8177078947770913
77.64174580921525 -135.62916435451493 1.8214813019261615
76.32923351876637 -134.47680781562946 1.9083280776186586
75.52222968637889 -135.8801723187814 1.8456083005152504
74.35213006051248 -136.45778543525023 1.8431394485544081
74.74681868700853 -135.0753646785565 1.9065222768017267
66.5741453214799 -148.9764153985774 1.8530226983737197
65.98200671668482 -148.86437413596835 1.889653549244437
65.70239315909747 -149.65903337999114 1.904529527414339
65.6740271072386 -149.5349317059326 1.9051446515113384
58.58215071683331 -174.23696256296304 1.8988074231500962
58.36990794974026 -173.31845626057847 1.8531272696748853
58.17992083496502 -173.10324960621145 1.8465051197356939
58.13512336323339 -172.9767194658 1.8413844808747675
57.36082703601578 -172.67949395654747 1.8463021540869589
56.98172482316845 -172.52115002614477 1.8482648987575498
57.010848360109684 -172.36595129613005 1.838968699863669
56.9762277922668 -172.23285424651962 1.833562786308765
56.52095708504426 -172.8267709667334 1.8760689374592756
55.880008909840306 -172.4520324505447 1.8741341362584596
55.85080695173365 -172.31319258461608 1.8683825390664592
55.81828003308162 -172.17540762492743 1.8617901991282717
55.486110212944695 -171.98477690903587 1.8613844402792101
54.941746175187056 -172.00640036195244 1.8780565987476157
54.961898819786754 -171.84967731621887 1.8692119113303372
54.80622113360887 -172.35163924100112 1.8990241051960615
51.616763788823945 -170.48316521833377 1.900257012065021
51.68391305723233 -170.30805137529586 1.889739686593792
51.62955317030056 -170.16386485549114 1.8854251410750449
51.521208478842595 -170.03223698180662 1.881992821904591
51.508614788672766 -169.87765987792247 1.8760756011183608
51.4906735542989 -169.72413133133176 1.8690772625619023
50.971205683125795 -169.52753108450662 1.8755067426241445
49.79658694231329 -168.34034685571737 1.859347874239394
118.66460455200595 -172.61607043418695 1.9813449815450437
118.27036208091056 -173.8278444584383 1.985179042935895
118.12690973048018 -173.63060368444332 1.971377055313607
117.91078960570184 -173.83919819194116 1.9632938228308683
117.49676410885473 -175.0510052125867 1.967074800513374
117.66325938618402 -174.35019708658615 1.9603967629465116
117.6827814438249 -174.25104970250754 1.9588694728049767
117.80921948127461 -173.99213311615708 1.9607172084682405
117.93053882260878 -173.40468582794927 1.9542584847427098
118.0015523722013 -173.12011994650973 1.9517010879769723
118.10198762199397 -172.95755948123434 1.9541737737175318
117.59666158486735 -174.4222579882984 1.9577432353732562
117.71142679997176 -174.0450689626138 1.9556602926520317
117.72018703135888 -173.8308533205912 1.9510678843930565
117.81951494850655 -173.6726794422648 1.9534104429997803
117.56261402631608 -174.06612665385157 1.9473485937857251
116.34933289310248 -177.98048516008626 1.9747290353937992
116.57907841712719 -177.02755790697694 1.9624435148953625
117.15929561784353 -174.71802967720163 1.938584132706899
117.23791838788955 -174.53520924517022 1.9388954365150253
117.24956210361135 -174.42860858977033 1.9366663126556463
117.6831992978248 -172.83146884093247 1.92560301700949
116.15171279038195 -178.2010144202905 1.9686613578253842
116.35613820490195 -177.34590740573225 1.9576475238530757
116.5383821183766 -176.8649652311009 1.9561103208603743
117.2067696727642 -174.28806078727678 1.9309379061809444
117.6070574452434 -172.5744264843061 1.9149686233993615
116.1046671764656 -177.90321491670366 1.957768201151598
116.20224922537304 -177.72904898735047 1.958813364758744
116.18488277474141 -177.58650676285237 1.954326580003622
116.29283515958674 -177.17231746908112 1.9496153492410233
116.40553366997267 -177.02289977933725 1.9523164829727182
116.49405388499446 -176.7064067456566 1.9489088952937528
117.53486822664304 -172.428172584874 1.906855280335481
117.66133018125483 -172.1903726211239 1.9095717898020392
115.99036114450527 -177.93408301061834 1.9522496358762613
116.14987885671385 -177.43024429841762 1.9476530370959413
116.30086505986228 -177.05917255240715 1.9466790368347637
116.97737290342086 -174.4820184544336 1.9213482168444764
117.54941522985116 -172.23001135999678 1.9032426030131042
116.14499430521246 -177.29974084725447 1.9442428546441208
117.4425958694639 -172.27231490293207 1.897852365991442
115.8128227739929 -178.17407202537163 1.9479415587864224
115.83482083199752 -178.06235551418524 1.946574680436419
115.20683694554808 -179.7746756244505 1.9573861173617821
115.32587855698344 -179.61495341107963 1.9597308300788374
115.69679041357871 -178.20486720383514 1.942352920355544
114.84272917252385 -180.41015421141825 1.9550948096103336
115.03873585978239 -179.89128276374706 1.9509996528407585
115.0134704166907 -179.72230741085838 1.9451473908243024
115.24459162429402 -178.98804246501874 1.937293523533757
115.31234088716921 -178.90823901676418 1.9394412420939444
114.26343251739277 -182.18975061577632 1.9745913690238874
114.30144895946503 -182.07018070740165 1.9727025154172741
114.34412062819786 -181.95669257896265 1.9722215472214328
114.39960305995363 -181.868761592751 1.972244984986412
114.41934847376046 -181.74275793904275 1.9700712655855128
114.44501772761541 -181.6162288169522 1.967308868314989
114.69240643420052 -180.82854845400638 1.9586854104116855
114.76223493002823 -180.61294945191466 1.9563769465485492
114.81534040909486 -180.2344803651345 1.9480009889926126
114.85203596709694 -180.1241142060653 1.9473812873898932
114.85911664986455 -179.99485514017283 1.9436128204314171
114.92073573598294 -179.92078259544604 1.945455845823011
115.06417338013503 -179.22907821187428 1.9340110448439995
114.07448517199515 -182.59975040219487 1.9763145282915566
114.11152447051347 -182.48827559700732 1.9745249752891036
114.14507401292909 -182.37414612060073 1.9734458299139064
114.21105263191946 -182.2894865339692 1.9741376580872945
114.4253359773619 -181.4414590446434 1.9614859050868574
114.59353131596019 -180.58235916845052 1.9453722230018131
114.65442670595718 -180.36057574742625 1.9424016629761922
114.96748010778037 -179.4126388439352 1.9336049982049357
114.5181265172699 -180.791278998652 1.947180062681919
114.37153105063867 -180.78236691641234 1.9389969866320678
114.19228091837758 -181.0420262029808 1.9359486688923853
114.24378829836775 -180.7990674341281 1.93172845065251
