ply
format ascii 1.0
element vertex 824
property float x
property float y
property float z
end_header
-34.81363341490952 -36.91684194661123 -2.2823949526026497
-35.588772482691006 -36.67100853874663 -2.3084851780774147
-35.49301045796383 -35.48363640647119 -2.252385114234228
-35.61983356253193 -35.528129365754445 -2.2604070688263858
-35.56710732431514 -35.424598160175194 -2.2531502512952235
-34.935787006039604 -32.03600385095641 -2.2994690749370497
-35.84167380052456 -36.03446442529981 -2.293427640851281
-35.8356352462249 -35.95006370839618 -2.28959617398508
-35.76452608986666 -35.83201471178543 -2.2810279441851073
-35.732560495249786 -35.74434918108288 -2.275636871205224
-35.73076261042755 -35.61215698378079 -2.2695343940426733
-35.70035110012135 -35.5632932629538 -2.2659806091447448
-35.65044169621805 -35.4585325175855 -2.2586057162947775
-35.654500775644635 -35.338928832979086 -2.253562724880299
-34.99116376495271 -31.983215809305417 -2.2978963624956497
-34.95753442370672 -31.91249570837333 -2.293988709086191
-35.889768387665356 -35.97766635240738 -2.293362916338592
-35.82101423624039 -35.77437255588578 -2.2810678516237273
-35.24004993316758 -32.72287958686793 -2.3373902519347407
-35.02678450668182 -31.750868381356018 -2.287266441629192
-35.033173145570245 -31.72617599973462 -2.2864688604369956
-34.81341911567611 -30.877967002907155 -2.244002944585222
-35.972691866938256 -35.87254717562146 -2.2925021518845305
-35.96846143857589 -35.80332947138023 -2.2892626416859376
-35.363881016093075 -32.78390976130151 -2.342202470744446
-35.13737563557481 -31.904239170277553 -2.296403765759256
-35.08640097498156 -31.27348090883527 -2.2663199109341314
-34.96140979313179 -31.01512660364552 -2.252717468952826
-36.014227009109334 -35.78599388891785 -2.2909033119140148
-35.44991957086303 -32.770609989884626 -2.343015010618311
-35.276949843537196 -31.72679396496522 -2.2899900524314822
-36.37946370508239 -36.24219453997569 -2.3276734000488224
-35.661095997766736 -32.70699323934683 -2.342866323950616
-35.407606987962524 -31.615651690172037 -2.2867536100511576
-36.42010004659104 -36.174651501487006 -2.3267551109579085
-35.7135618083349 -32.66145467769731 -2.341296498148382
-35.72769759432282 -32.603851716799944 -2.338510013438079
-35.666812256333756 -32.493923313105775 -2.332368099433371
-36.57571638745635 -36.298975968346696 -2.339047056858654
-35.77838932444848 -32.58936064649531 -2.3387607113181854
-35.830921120929204 -32.48778943427178 -2.3343184229072045
-35.883230605996985 -32.420744157895896 -2.3319286212773385
-36.023743243185244 -32.499095163578986 -2.3378795999987956
-36.85156735983846 -35.507061657995216 -2.318549174196693
-36.128040246963195 -31.98822469274408 -2.3147450323596495
-36.86525622931078 -35.319840339898704 -2.3107590121260317
-36.314601670749646 -31.84769663422526 -2.3111908392141003
-36.36920570404274 -31.61946151486022 -2.3014485962197457
-36.30815537124414 -31.421254098294938 -2.2915890600660633
-36.42259462152003 -31.572038144464102 -2.3001315143430956
-36.40545283632377 -31.38118204674732 -2.2911952293690603
-36.483716376957794 -31.389522168082124 -2.292997779565518
-36.429480341175534 -31.17762957980325 -2.2827177726254044
-38.26921269089071 -39.60085658765267 -2.2714558775009874
-36.75971143146333 -32.2134272321117 -2.33486670006102
-36.73430164200945 -32.08938408060524 -2.3286843254235796
-36.54229515812851 -31.28095640183131 -2.2891336637607753
-36.5185086670652 -31.15937203325214 -2.283377788403005
-36.53754070635652 -31.11179020249528 -2.2815800473293533
-36.49710553045454 -30.83936025968041 -2.2692572905485937
-38.34378239916652 -39.59675320583615 -2.274978088632071
-36.8691466109708 -32.28747055771208 -2.3398803379032533
-36.86189344816867 -32.25797773927012 -2.33828037007116
-36.84984642731082 -32.084138553228826 -2.3301442553737224
-36.82008931232017 -32.075464732700524 -2.329106768097803
-36.64071302427675 -31.06799929746691 -2.2813639555183856
-36.594639942823335 -30.952205674125885 -2.2756903691738772
-36.53254822454292 -30.726554938503686 -2.2651984770930227
-36.57867923315205 -30.702770358576476 -2.264974522823251
-38.60084224438616 -40.00748663084538 -2.283974312393974
-38.27738281089623 -38.56873598962335 -2.27287919414828
-37.98706849243274 -37.22174280219078 -2.2472311899899284
-36.9403989138105 -31.90099418967599 -2.3228603677118733
-36.84772537245542 -31.830482020085412 -2.3182458888033364
-36.65338324266604 -30.881815207363847 -2.2737368206639466
-38.63559808340957 -39.752378751245004 -2.2872681138310966
-38.58035745877948 -39.47768909374417 -2.286550251792002
-38.31697568404487 -38.13423350664912 -2.2740395821811883
-38.07701223407427 -37.267450133389964 -2.253688010751485
-38.0779733561745 -37.21442775248356 -2.2531445859200145
-36.98994537235522 -31.991623913093434 -2.3278553141034446
-36.995817457971576 -31.937864212678836 -2.325578467457315
-36.95950717109684 -31.849210249767864 -2.320982370899605
-38.70262207629404 -39.70423387269589 -2.290540266022466
-37.03521336702984 -31.68267000816193 -2.3146276369123675
-38.75647750676809 -39.6534521762108 -2.2932905233967977
-38.418837585526475 -37.84671130382125 -2.2792595168524885
-37.137034506880774 -31.77654703492845 -2.3202392968569927
-38.91015173830334 -39.66897644412098 -2.299853664529935
-38.51807896757026 -37.91102663302753 -2.2854192458827534
-38.44312265680066 -37.40443538295904 -2.2784337798441068
-38.219716751210896 -36.24017455847904 -2.2502770553252636
-38.16515337487621 -36.102099980759036 -2.2438247648070107
-38.77289623178754 -38.49304035795447 -2.30037399904365
-38.74405367571381 -38.40869635488322 -2.2989162294840115
-38.72734928207742 -38.25293070105546 -2.297891929140729
-38.4831444583502 -37.293389752316294 -2.28018993257307
-38.319831652938866 -36.21519864864266 -2.257130925962758
-38.245509111327 -36.01941553777686 -2.248283190498513
-38.81485505888331 -38.263746684016304 -2.3027251342267565
-38.73258093729864 -37.848751637853475 -2.2977268273496865
-38.03849250943732 -34.532341664036224 -2.331625109849514
-38.898476564756166 -38.244560927256835 -2.3073958424975345
-38.83538455869872 -37.817723301559326 -2.303653742879379
-38.814411716439984 -37.67849836136567 -2.302194760168057
-38.71431137872885 -37.2599469838242 -2.294598932222212
-38.69101376812399 -37.19238448374688 -2.2927254634299583
-38.14504889154958 -34.63331668529713 -2.341313406293211
-38.948722976636745 -38.026259506561544 -2.310230652309968
-38.965631327591296 -37.96774537173552 -2.311056846675258
-38.904744930336726 -37.737247248366586 -2.307460930849466
-38.884483662131025 -37.51357822792496 -2.3058713192093805
-38.84127711033233 -37.38391254410193 -2.302952637532473
-38.84195288476123 -37.27588375194097 -2.3025599006552993
-39.1677358307603 -38.36035143242524 -2.3200192731727527
-39.08726422525231 -38.160767935084486 -2.3173230161287717
-39.07817296194302 -38.08430054135526 -2.3171546626934774
-39.032629562430365 -38.002674237414595 -2.3147171518530354
-38.89518486566331 -37.31691778791736 -2.305834906129193
-38.857087762238564 -37.115649964111626 -2.3026700702541203
-39.22494656085921 -38.20398559516768 -2.3235376962959635
-39.349161629403405 -38.17492687216643 -2.329391114267612
-39.42728539062228 -38.534898831260115 -2.330451391786455
-39.756789963011485 -38.65575266168656 -2.3432602233056006
-39.74810077128046 -38.62807527523489 -2.343123129859901
-38.5516740104265 -33.09054981598455 -2.2839085990573453
-39.77042449316856 -38.672491762911505 -2.34363765862852
-38.69610926569709 -33.050460617151174 -2.2889469755829994
-38.767762936453245 -32.89069024594238 -2.2835839566152245
-38.91911732108411 -31.638505441192173 -2.3434241514550784
-40.72576185806542 -36.60682713969798 -2.2843273169418232
-40.84824710878438 -36.63839034570024 -2.2892070724406253
-40.071214186885435 -32.29256136224019 -2.3124267152515117
-40.95253801529449 -36.423236996192244 -2.303519166254624
-40.14290700168564 -32.26193949073404 -2.314021391677553
-40.16930378082664 -32.20542716046888 -2.3119216547329424
-40.21850623480637 -32.15145998944618 -2.3110884529595017
-40.25075915882011 -32.08343492298006 -2.308902006660966
-40.21778561626318 -31.92723314723195 -2.298981413243953
-40.25568215123486 -32.03646674972819 -2.3067016312771162
-40.23880746272254 -31.968477405055538 -2.302246143065814
-40.41776898355182 -31.924496690272427 -2.3092899651755996
-40.453797090756616 -31.912020133218757 -2.3105008383573558
-40.50362407189366 -31.824735038437936 -2.3084448875448365
-40.5655182727807 -31.83779722156301 -2.3123452832785136
-40.57306045489678 -31.825541307817872 -2.3120813244019653
-40.64488583346711 -31.776198914272577 -2.3131384297949293
-40.77558807537267 -31.789354675255787 -2.3205340376738786
-40.764152258341035 -31.770561016604866 -2.291368133271446
-40.82754479840474 -31.734298038493872 -2.2907026606215966
-40.84457064180825 -31.664701456307487 -2.3173311325802746
-41.31938546973718 -31.861606024393986 -2.2903196479674457
-41.253808440115506 -31.74906193901447 -2.276395281127678
-41.39106402653884 -31.895050283795662 -2.297626176555973
-41.45914582036184 -31.875954478565085 -2.2999981816477586
-41.492969480654494 -31.79236023184098 -2.2945230746093603
-41.517098711759395 -31.74701200512424 -2.2918417811555085
-41.54263761409911 -31.699491489476916 -2.28902892620875
-41.569544888088465 -31.59804405070176 -2.2814173373899984
-40.66890086864259 -25.15345570499913 -2.2458529926148083
-40.90044185234957 -25.353213903209667 -2.2596482456739806
-41.02520533010401 -25.68030475487314 -2.2717996371968177
-40.94422991041176 -25.355782086731217 -2.2616108000723325
-41.067610870133464 -25.56079826616991 -2.271151473707558
-41.110027713282506 -25.429678642516777 -2.2702120682190388
-40.9780234814917 -25.003531476976995 -2.2557354327049373
-41.269342740885264 -25.647609248787546 -2.2815491036564723
-41.20561472614251 -25.547555819087208 -2.276793925475065
-41.3351043323 -25.41964145559283 -2.2798367657507215
-41.4110272309003 -25.716905293102403 -2.2892574910073513
-41.44124778466819 -25.538648941546317 -2.286880174791632
-41.36439811776541 -25.433593335952242 -2.2813026197707353
-41.51263875904247 -25.57060729102351 -2.290633226003535
-41.506549940778314 -25.454696295354033 -2.288090987865952
-41.59581341006858 -25.57653376575719 -2.2944407154219326
-41.617640179421926 -25.41947799129192 -2.2922989760569688
-41.67367695869728 -25.407442555201612 -2.294553901843126
-41.69964045233085 -25.320670040851198 -2.2938330442666763
-41.87243993635779 -25.631398921947536 -2.3079714859021734
-41.7888063880539 -25.5484908973994 -2.3026049152989208
-41.726029725964395 -25.229881314797346 -2.2932646753526806
-41.941222493550654 -25.561131069769182 -2.3097095258935716
-41.89945375027907 -25.455206108734046 -2.305697934965882
-42.07817162695171 -25.62638194640065 -2.317301010363904
-41.98299307501263 -25.527281241653004 -2.310864805497424
-42.02493437802705 -25.50662300470122 -2.3124096724549243
-41.836015278823616 -24.639880090664867 -2.2861486126688275
-43.02389863040011 -29.67762162271792 -2.3043162561401465
-42.1749956859527 -25.594670276300114 -2.3211627201047977
-42.13457446304152 -25.572593077734098 -2.318790620765991
-43.154001429437976 -29.911056379179243 -2.3216251848469334
-43.10874773669064 -29.789590319498686 -2.3134585851213627
-43.08066244039066 -29.74578783966548 -2.310081595246581
-42.2427199734316 -25.612104366389573 -2.324602165601218
-43.31809287251718 -30.178613020796764 -2.341593163214343
-43.27913199296111 -30.085749560850573 -2.335330630761646
-43.19285510129237 -29.91821149906082 -2.3233767464458177
-43.150858209126376 -29.775096658678827 -2.31418826813754
-43.1689282400546 -29.762154435824854 -2.3141254240026474
-42.42087859195045 -26.024725082698552 -2.3412927826205583
-42.37773416916273 -25.648511032789898 -2.3316288855772194
-42.32336591403537 -25.642636997316842 -2.3289786795033725
-43.482094841394996 -30.493501882058062 -2.2449207472532375
-43.331871262840295 -30.08044435163304 -2.33683210014347
-43.313162929724065 -29.787582223894695 -2.320548872685123
-43.242016208306275 -29.7194515822473 -2.314407539891734
-42.41728951858218 -25.67389531631858 -2.3339371398127198
-43.63009280623033 -30.752108897395225 -2.2681219459813695
-43.389882575748395 -29.68411463676428 -2.317652499211277
-43.801803766377525 -31.34249907781021 -2.315440641094718
-43.7104791978663 -30.843444574291166 -2.276258975722047
-43.680840371813275 -30.72530620220748 -2.2664992229100145
-43.888311065411635 -31.106905203779455 -2.2979712506549133
-44.010495782722664 -31.21180787723652 -2.30620377600237
-43.910057906674396 -30.58301873084453 -2.2573532988868905
-44.19547282446395 -31.61152941994137 -2.3342594480674643
-44.177400103304265 -31.51906641436676 -2.3280206106967625
-44.18689023078207 -31.46128788313297 -2.32400633556008
-44.296817805912326 -31.602487732058773 -2.3331832304907056
-44.26825829564367 -31.53775477072299 -2.3289548072150383
-44.25028110314577 -31.477178823893432 -2.3249047914581746
-44.240213955590264 -31.35612092189386 -2.316545596059258
-44.41310094136584 -31.674524275565496 -2.3372274923972416
-44.39834799398399 -31.56476225423123 -2.3301529060953174
-44.33352969040075 -31.477518090467704 -2.324620832316538
-44.332691752754585 -31.464035001099003 -2.323735301204401
-44.28377386558948 -31.27025114178472 -2.310450368170368
-44.520803197909615 -31.756324007340716 -2.3416633357686476
-44.49475962231414 -31.5741160125938 -2.330211761896597
-44.462537224118726 -31.52210438613625 -2.3270020070898534
-44.02400555798001 -29.193343683571136 -2.3126394907895227
-44.701737837365954 -32.25883609389463 -2.2603128857139843
-44.736603969290776 -32.052380506747525 -2.244860120406626
-44.65502280281332 -31.694959135572983 -2.3367618884652983
-44.57207300940274 -31.601366835464997 -2.3314636587700894
-44.81600390264066 -32.30391220147804 -2.2578005115550988
-44.85011919380772 -32.2424120173633 -2.2523338067054537
-44.78672677303972 -32.1290533832318 -2.247886243732245
-44.75280815878136 -32.06263596894668 -2.2448732388591917
-44.77737326167181 -31.812263683763028 -2.342393232411151
-44.743202157717484 -31.749946938959823 -2.3391934296678505
-44.229020841693945 -29.12594487224916 -2.3156029397753946
-45.071228214875525 -32.73204450862209 -2.2689543386160933
-44.97812403340135 -32.40234937766013 -2.255935746976375
-44.92759469906966 -32.31941507626044 -2.2534472456674988
-44.91171316266201 -32.25316279644147 -2.250153464802498
-44.86248391361434 -31.825533309986277 -2.3420841214891372
-44.787195758703064 -31.716075751292006 -2.3367735878976363
-44.76456157075724 -31.66571720375334 -2.334005277454364
-44.27501336427728 -29.11299738302682 -2.316358756745713
-45.2012544128049 -33.1510213420203 -2.2802882414330448
-45.16953940006969 -32.977343315751405 -2.275096401328319
-45.12932205698045 -32.5917424039945 -2.258874956811021
-45.082014957428065 -32.48371106086181 -2.255410231043054
-45.0946853728669 -32.42305122133917 -2.251393297868433
-44.857381517181096 -31.51190114832583 -2.323716585530115
-45.33376356188076 -33.215648739970206 -2.275534022248454
-45.31239983392148 -33.05727417010993 -2.2707241099408155
-45.27039853025755 -32.96919914950462 -2.2693509803552194
-45.27642173713967 -32.82962404466885 -2.2629427445793198
-45.22845002595315 -32.769738227196946 -2.2626153153875945
-45.24070630547195 -32.661598889999155 -2.2567465489049146
-45.210502278246246 -32.58546009350515 -2.254423052016212
-44.963982954900196 -31.35624781579029 -2.3130799240051054
-45.43396930576054 -33.21399005192695 -2.270093940336308
-45.41573758305565 -33.143857021348715 -2.268505001084516
-45.37780039001613 -33.03846729108041 -2.266491713814612
-45.33959575569393 -32.91529653368272 -2.26336196478575
-45.3959128359228 -32.83126887311001 -2.2566851705253836
-45.32437767052976 -32.743622659569965 -2.2564311311170973
-45.03878499925435 -31.35206018709121 -2.3123030194620795
-44.99901012151135 -31.315686094095135 -2.31028334661786
-45.609043741984905 -33.374792614133554 -2.266106673221479
-45.51430938414409 -33.24599409072538 -2.2669069126738544
-45.44410243987591 -32.88612077164996 -2.2566691115274877
-45.44170357444626 -32.85279239313067 -2.2552668354983556
-45.18629774177926 -31.614541381347625 -2.326413868884827
-45.649315898967195 -33.36448916574388 -2.263542360565436
-45.820175163246006 -33.66853299522349 -2.262913740157145
-45.85580477865725 -33.59942544281756 -2.2591854574001538
-46.12385756590135 -34.48867142368061 -2.2606812027856336
-46.10581846749641 -34.33170658232529 -2.2599294927320734
-45.913655761805785 -33.72690439339091 -2.2593672664102935
-46.15830770197694 -34.419508643901665 -2.2581630253698113
-46.16125012948473 -34.30076754088575 -2.256556076553649
-46.172503764531506 -34.23904370840576 -2.2551233998836264
-46.14413320517545 -34.15022529582854 -2.255336386965978
-46.275364655659764 -34.44568653648552 -2.2523190355684113
-46.30774083151376 -34.34097405693138 -2.2495047864377167
-46.23665378892076 -34.26612346082142 -2.252240995336003
-46.22406558588965 -34.18976463419123 -2.251748071539114
-46.42623346319226 -34.511906581669216 -2.245199397426243
-46.3379290146868 -34.36289029018041 -2.2480984927656156
-46.30889812838358 -34.13723180172879 -2.246364076027523
-46.30331566815079 -34.121030676276376 -2.2464994598508103
-43.8580427715018 -20.432497502232053 -2.291872712152597
-44.003888824829296 -20.678961063796827 -2.3035652540616365
-43.92979068177571 -20.415950249424615 -2.294818221249409
-44.231575910876096 -20.68795635664387 -2.314117820685253
-44.29617901799263 -20.581822037849143 -2.314831919436366
-44.25269849559461 -20.31598486100768 -2.307406246497519
-44.20024253108119 -20.214543456597855 -2.3029724075782534
-44.352416036153 -20.52913041013716 -2.3163701493135824
-44.574493233622164 -21.024037560530314 -2.3366025549717797
-44.459211567413625 -20.463348039740644 -2.319853886120514
-44.67300901400811 -20.983907879214275 -2.340288620231287
-44.58763474793197 -20.5242951253424 -2.3270019986258976
-44.752472006287 -20.833476430032455 -2.34088515790779
-44.618146812391686 -20.381477146000268 -2.325413666076307
-44.90249118129601 -20.586536919099515 -2.3426886660677124
-51.34322740414417 -50.21128304400328 -2.34377057930538
-55.05437733533678 -55.95818408823737 -2.3032682170855985
-55.083933681234925 -55.829598164485844 -2.304713951732777
-55.103599618557595 -55.68545268259231 -2.3059942807177403
-55.12702074952481 -55.55046573916353 -2.307453610492717
-55.148430706659056 -55.42088093680145 -2.308582953602348
-55.17398511310116 -55.297940712008625 -2.3099130931640826
-55.20700131749739 -55.17699522459888 -2.310960687426503
-55.227232395273376 -55.03782730769008 -2.3123890431157785
-55.24235797121736 -54.89897767701635 -2.3135231639592266
-55.27046708455799 -54.78244609709393 -2.314750898533251
-55.296918437356 -54.66412687190617 -2.315705522205551
-55.319925197363624 -54.54068342372929 -2.3169497198902906
-55.35195694368323 -54.42521379576603 -2.31785710229158
-55.67433227174149 -52.79280864054066 -2.3309646984842183
-55.70532838208486 -52.55642994056324 -2.332636572558974
-55.730585189055375 -52.45170601631169 -2.333494352945384
-58.905876900225934 -49.441272119687085 -2.334076681023694
-31.635642222856866 -31.46819122027472 -2.2242855475481518
-31.96950089703331 -31.481255096039078 -2.2295722621077516
-34.264576552433795 -35.312902333563606 -2.184700901944777
-33.188384894812174 -29.997567669718386 -2.1795048373147567
-33.04863210342046 -29.482990281235 -2.155032877339589
-33.13790641677657 -29.39188642378439 -2.1524126492169606
-34.470197586692294 -34.37971068760495 -2.1498824553966935
-34.68805919128376 -34.84452472869701 -2.1830328652317523
-34.56378942389043 -34.2378373024269 -2.1471330221278606
-34.7364296034533 -34.80844765925723 -2.1839387789413203
-34.99273143738655 -35.50389343973187 -2.2289201584971923
-34.915901581862066 -34.87792410450286 -2.1960448151122756
-34.9485104965712 -34.24983110904733 -2.16661841060103
-35.300730013699976 -35.365929667454566 -2.2374648954059944
-35.239814392140666 -35.332491742870566 -2.232969740275066
-35.19938605626771 -35.0705427225068 -2.218994630893104
-35.0696917103857 -34.418304230012566 -2.1810604934438347
-35.03163490655845 -34.36342120125365 -2.1763404911019557
-34.189854726778165 -30.273944204922927 -2.2074905186466753
-35.345688949555964 -35.37834859174557 -2.240459760512865
-35.33292912454891 -35.33218745264908 -2.2377115023937972
-35.293239760564454 -35.133567718223496 -2.2264089163841776
-35.25932592918244 -34.800718545813965 -2.2089509878976603
-35.250066251336435 -34.62268272158803 -2.2000119851215603
-35.145553464586236 -34.3138389078546 -2.1795907271565658
-35.09508981836854 -34.209794819046465 -2.1720784779153632
-35.419776681153884 -35.15027118128778 -2.2333417549632633
-35.416618490862 -34.9237174147166 -2.222626803644244
-35.26967677028798 -34.643363897132645 -2.2017252197697625
-35.321079876421166 -34.4216477901907 -2.1936585150815997
-35.50769508451106 -35.16394635812294 -2.238127438912227
-35.43951638417495 -34.990849560981395 -2.226673641186851
-35.43845564966165 -34.87202662207538 -2.220982690192291
-35.39196992952956 -34.45763730268447 -2.19874205361697
-35.27759666663442 -34.145502354490205 -2.1778020285835344
-35.35106731453973 -34.1153505455718 -2.1796505204006653
-34.58299695269973 -30.706946675572038 -2.233053601291982
-35.552051363356554 -34.84907880085486 -2.2256614679628997
-35.52573066315189 -34.623342442079554 -2.2135188949530766
-35.450196728765576 -34.519316124797236 -2.2045263851401136
-35.498090156484174 -34.488376269307224 -2.205607895020017
-35.43074566905265 -34.06228960814647 -2.180895099874563
-36.453680174469184 -38.65386309978059 -2.158776224798246
-36.43056170648146 -38.49818287907006 -2.155744859423029
-36.39197439540435 -38.397311979109816 -2.1519340058758725
-35.58646094163424 -34.634594445798434 -2.216804948636099
-35.57026378749566 -34.524243512886905 -2.210880361305373
-34.80834304887689 -30.692657488715824 -2.2358059960386107
-35.747566366981616 -34.875174739388925 -2.2362004825950716
-35.70269799741848 -34.70434894817314 -2.2258463698514115
-35.90127204878732 -34.493687777822906 -2.2253520550799966
-35.75702139933175 -33.43050644219994 -2.1646011805605276
-35.71785811777602 -33.114961859874505 -2.146213591791042
-36.72516451270999 -36.981362488870836 -2.1539060660504283
-36.64312560775426 -36.82695197647396 -2.14472721828339
-36.013959662898 -33.37203190243078 -2.174405191620457
-36.00252047411039 -33.35140067977065 -2.1725390910555835
-35.954084673090506 -33.25622046138398 -2.1652743480972183
-36.87165619725151 -37.500642797305424 -2.1735036095443556
-36.76320140171642 -36.86578132203007 -2.1545880838968894
-36.75161470451023 -36.69824035331615 -2.1502879096139256
-36.73513092319437 -36.63391942325641 -2.1476703137527373
-36.76070806633992 -36.50926116136629 -2.1467659677213113
-36.858376543059684 -36.74180559651432 -2.1591245376394586
-36.80025685589679 -36.631997640859396 -2.152458343099693
-36.82196726091538 -36.451419287648584 -2.150309121585801
-36.891489170027164 -36.503966116300695 -2.1567854544587055
-37.512718290708136 -37.91673160388242 -2.2222714389182556
-37.33438266904252 -36.80051342323108 -2.1954972388075875
-37.60969045332736 -37.8810948977826 -2.2283264814258597
-37.53077619795323 -37.26376137638761 -2.216364380493495
-37.77915232202364 -38.02791663880959 -2.240476317471843
-37.7240790248983 -37.992584782810965 -2.236553782601542
-37.707895530977254 -37.88825014364331 -2.234707312655703
-37.658485609617905 -37.69991599245101 -2.229844446011407
-37.54631045056908 -37.30368142173474 -2.217945374043109
-37.57254259752151 -37.15165090243605 -2.2179642753974167
-37.77272648296886 -37.85094861823662 -2.2387711857130226
-37.81793378625478 -37.716184228952564 -2.2404754829030327
-37.77618060392929 -37.31101645270164 -2.2337918881137115
-37.76482548059445 -37.21720865356937 -2.2319461809118835
-37.88436818662573 -37.251827311262886 -2.2405537096555292
-37.81729785092975 -36.84050991184205 -2.2307817089681046
-37.79633098697748 -36.637789881261746 -2.2263126696033138
-37.17458723356039 -33.517990938036384 -2.2388442587482738
-37.915348008977574 -36.9139395857423 -2.2387288531870952
-36.97464240156875 -32.07684519210073 -2.151141107325872
-36.97360014480892 -31.962764873002396 -2.144679784356757
-37.09594046597147 -32.01962346215081 -2.1536287685696784
-38.04563215465098 -34.97219129433693 -2.2063175326533355
-37.92134685525475 -32.694308571379615 -2.2314229911348575
-39.01207836685718 -37.15883530810832 -2.1488634333007073
-39.05621741914377 -37.168840257324426 -2.152301623133522
-38.54122411038473 -33.124440944441446 -2.165370038104551
-39.755004131501046 -38.633210492056 -2.1492237868437494
-38.70337803405953 -33.10339863010808 -2.177804389079977
-38.72639300486532 -33.08874297032093 -2.1788157326882285
-38.96756425568602 -31.61892320248051 -2.220660039389316
-39.43526316930103 -31.10259042971595 -2.2146004556380197
-39.46838818995794 -31.18434069374085 -2.2206370642057824
-40.8790279030626 -36.669800494256215 -2.1731037123087313
-40.85281017393064 -36.63941497046351 -2.173844343512555
-40.0569182525363 -32.27238398047916 -2.1818258213609223
-41.00222884593142 -36.370938106311755 -2.203240723524994
-40.131851921650984 -32.25489198779908 -2.1990891289851167
-40.163719959055804 -32.21244945786601 -2.235027604811647
-40.19815031259712 -32.22537590257464 -2.1750238183874493
-40.23187087489052 -32.164544993105146 -2.1952319332795365
-40.250526633067665 -32.07583214483373 -2.152646954450166
-40.263280279158565 -32.11040186474262 -2.234472583369017
-40.26086622289918 -32.04312241780233 -2.185445477307676
-40.24119542685323 -31.966566086866425 -2.2218715613199658
-40.39243244664882 -31.902950531636797 -2.173385670983076
-40.4000831496255 -31.83874907513576 -2.1440662360282627
-40.45780305522578 -31.893997922387733 -2.1968473602584817
-40.555749020419235 -31.859316503738032 -2.2043835595488983
-40.55385231361882 -31.82264342765623 -2.1812908013527617
-40.6379701497629 -31.819787612217134 -2.240459827739254
-40.66284778704222 -31.791583777699273 -2.1895013531678114
-40.73938744160252 -31.740922388988135 -2.1896985934965256
-40.81312177897986 -31.683392157097554 -2.2037789770852627
-40.80216988008804 -31.642493336325362 -2.1859829928715495
-41.32946273284378 -31.89237570401405 -2.1714965878012418
-41.28881604431192 -31.844190698782487 -2.190042412462331
-41.231010672118096 -31.76200362317767 -2.187601037728474
-41.3908187062592 -31.894044102536196 -2.2064882411653026
-41.382208283706895 -31.86148892443488 -2.2020594412155927
-41.44954725805021 -31.859586648571653 -2.2374920574388626
-41.480374880880575 -31.81644375100852 -2.196439358776916
-41.55458963856555 -31.765680539183943 -2.186291914814277
-41.56428315465241 -31.69434483275574 -2.213801838398974
-41.604512312432135 -31.661847787409233 -2.1564129138169235
-41.60428483287773 -31.600714361375992 -2.146643238887719
-40.64488835505468 -24.3386320055993 -2.2278662186583276
-41.45775886731061 -23.066781806951838 -2.2370270634987968
-40.875565285245905 -20.32142133891078 -2.1551715632257373
-40.882880842228026 -19.80542918900124 -2.1447278995299386
-43.15730093549296 -29.937077931163856 -2.191021617744816
-43.12544047491566 -29.78563831285328 -2.177037668400769
-43.08699412090865 -29.749287005239623 -2.1728685396391985
-43.30603005350733 -30.09036430977197 -2.207593111079904
-43.16187907999051 -29.76045345415511 -2.1757380693651847
-43.36288934111655 -30.215889379621466 -2.2194611000287736
-43.27103135775258 -29.613326623035203 -2.1655720844315804
-43.741300227267864 -31.41026160342203 -2.2229639498859517
-43.38860070186146 -29.50261102612913 -2.158693446054062
-43.71029193541604 -30.843019443139443 -2.1636328629270447
-43.48829284645977 -29.448261128081466 -2.1562231629603037
-43.90621542451029 -31.134521407773036 -2.1916504610786043
-44.01369361792063 -31.207521961756896 -2.1968584547235768
-41.63079678911388 -18.869899394135423 -2.15868140490966
-44.29850124399165 -31.640051805780367 -2.2296328079724375
-44.29408721008208 -31.529592803420563 -2.2199659862065424
-44.260292849691396 -31.431904382239537 -2.212082495287559
-44.25262445352779 -31.359197720988572 -2.2055571538901466
-41.73256467324223 -18.846079629424395 -2.1627773977137883
-44.41286389586849 -31.64030262733476 -2.2258199606870486
-44.5824190651736 -31.83852206447393 -2.2358401368941125
-44.528823261845794 -31.76093295430911 -2.231765604229955
-44.48229421070601 -31.68385907780013 -2.227068898995489
-44.45104046445814 -31.639489068635033 -2.224414524943876
-44.70713499492432 -32.168163559852964 -2.145051991274104
-44.66291486233647 -31.946635798971556 -2.2405645365961293
-44.61168025072121 -31.884498258876434 -2.23812629824928
-44.076385513736355 -29.17958137614236 -2.1444972129768773
-44.82687248989339 -32.31598721153236 -2.147303386189275
-44.82833914716836 -32.279928537947406 -2.144381178755345
-44.794043776103294 -31.99817692624734 -2.2385344236775633
-44.79017503298173 -31.939576751611323 -2.2345676657716282
-44.7211418076767 -31.8846948603062 -2.233542464302183
-44.95624554038252 -32.432138215582086 -2.1451780789075956
-44.90709632814752 -32.131340234819 -2.2425395170365197
-44.82071296867977 -31.933083375682564 -2.2328409543670906
-44.85898239262372 -31.68281704324744 -2.212794048310433
-44.76792196567795 -31.4550212053405 -2.1976839180234133
-45.19872694072627 -32.94230680652943 -2.154584652478416
-44.9682726029114 -32.11663351121698 -2.238669322565605
-45.34261324317031 -33.16757826737233 -2.1518920837383724
-45.29434590370202 -33.04195756045232 -2.1508347487364583
-45.268348313024255 -32.981002643128846 -2.1502935372777
-45.413051406437276 -33.22964304170482 -2.148031014156196
-45.38068629245102 -33.13102482347209 -2.146975905399547
-45.377668519757734 -33.08345610580967 -2.145252603809276
-42.90087877991687 -19.649588243085397 -2.2328139602644965
-43.00023631689543 -19.62074896903915 -2.236672158506218
-52.695090302366225 -66.58175301634009 -2.1570604173479997
-52.82987267335102 -66.61130497789878 -2.1584764793830105
-52.9587358838254 -66.61277489915014 -2.1599742833925486
-46.51501992858067 -34.874673048355625 -2.2433662419192015
-46.587826043150116 -34.83470578531791 -2.2395333277419995
-46.605505073352305 -34.74366627845549 -2.2380467902503636
-46.55455547111024 -34.65219379067034 -2.239955340983822
-46.794133628403145 -35.165449698991075 -2.2305315046923324
-46.756597869375035 -35.01261254444892 -2.231910703525437
-46.69156080920353 -34.94649168444394 -2.234952919650285
-46.632518613767544 -34.81180759508879 -2.237145403457683
-46.63029469604734 -34.70635647550147 -2.2365207177898485
-46.67901839932244 -34.65713707862862 -2.2336677670858327
-53.639587580826856 -68.24707729055957 -2.1466380796405677
-53.326766361480175 -66.93607834327749 -2.1601901686617695
-53.2956265825116 -66.47108888705125 -2.166097902088537
-46.96928070696963 -35.65871380252635 -2.2219275198540367
-46.94595785244046 -35.434620640603335 -2.223088015006999
-46.93327131558787 -35.38988665197848 -2.2237415392437936
-46.85333053401937 -35.310423658607874 -2.2276965899351437
-46.835351878893064 -35.1925714495411 -2.2284663893564898
-46.810143886745664 -35.10436849698219 -2.229539857647994
-47.07318554616145 -35.745250931551 -2.216821682047252
-47.076537165917664 -35.651850078510236 -2.216782482722688
-47.03839565550611 -35.56262059845937 -2.2185996982967215
-47.0278050371593 -35.4967301360967 -2.2191286821749237
-53.376571867408764 -66.35193503026736 -2.168542764467912
-47.28973708557546 -36.0787974002849 -2.2056263736647255
-47.20599450523283 -35.914601017980296 -2.2101141616031583
-47.177405100307816 -35.823109649652224 -2.21166696823667
-47.11246910762061 -35.66688784169875 -2.2149778196761383
-53.490106562870714 -66.32488404351973 -2.170352652808929
-53.36052386229668 -65.60052948825773 -2.1782498045605485
-47.42753822265265 -36.556961646909414 -2.1961432382893475
-47.403162935440065 -36.49388457138932 -2.197804218093748
-47.41654726684733 -36.41475992582858 -2.1978044851685032
-47.437928842217076 -36.29212849215187 -2.197679019139237
-47.4253139313295 -36.2374497805348 -2.198565891483194
-47.32583858742672 -36.118612863599175 -2.2037005012241115
-47.296215506978804 -36.036014831479655 -2.2054546978876877
-53.453104253804796 -65.50792240924682 -2.1806336780216022
-47.594816253595134 -36.727934048564705 -2.1872805427251354
-47.52677675489779 -36.63742649367929 -2.1911083899956663
-47.48440073640376 -36.376241836102004 -2.1949973764734865
-47.46199076618458 -36.30410405445248 -2.1964340219408807
-47.45754324158258 -36.21750550112898 -2.1971459474450743
-53.59972789578564 -65.57173778557089 -2.181361316847009
-47.77281011564352 -37.13050872193043 -2.1751803172606587
-53.66622619510542 -65.41540105615745 -2.184249273318693
-47.99152952717363 -37.535601790161124 -2.16079376324543
-47.898282450079655 -37.32562721351737 -2.167497450715528
-47.8193648053672 -36.88246199842841 -2.175890901073736
-53.778299865584415 -65.37600062646251 -2.1858870667923562
-48.1535086096959 -37.833219633144786 -2.1497806311551955
-48.021368558672116 -37.46506031895744 -2.1604839120325474
-48.009455232525525 -37.13455782183293 -2.1651178248723797
-48.257394450217 -37.872764816850776 -2.144938277143605
-48.23781297054779 -37.7315078122635 -2.1478538690781988
-48.22026552856712 -37.65709993730993 -2.1496360698297923
-48.196171325890035 -37.6103464529296 -2.1513547909901996
-48.08325642045888 -37.38375688110287 -2.1589708720817486
-48.09839906060325 -37.27534110895857 -2.1596960271281596
-48.03589313920634 -37.17959587031044 -2.1634144689731176
-53.918729185227264 -65.41321977586914 -2.1870529016047
-48.26937314131434 -37.848527009248436 -2.1449050668611354
-45.85062407672665 -25.07868131878608 -2.155054773478713
-53.714651543030264 -63.29902599543664 -2.2116472720488662
-45.942185774371076 -25.18286956301816 -2.1634983550872624
-53.86988227809397 -63.38584450810059 -2.2122266907539023
-46.02265071349341 -25.237755533371473 -2.168956212627046
-46.17092560886549 -25.335358774516628 -2.178748940408683
-46.35122607854881 -25.567516678517492 -2.196420589216551
-46.30444347997185 -25.52222220395853 -2.1926338367849705
-46.511052518558174 -25.759661257399202 -2.21117949422639
-46.461552606302064 -25.66010804545912 -2.2045601376212245
-46.40487204070506 -25.60111893066587 -2.1998002883458523
-46.54109710694399 -25.77057862296321 -2.212661516399549
-46.75845594970427 -26.01147198694089 -2.2313998858145823
-46.735240428231876 -25.932488894239125 -2.2267003014954616
-46.84743149098737 -25.93331908035644 -2.22999123265044
-47.1112042484947 -25.649635839150157 -2.223228464029472
-55.93187854177362 -68.1826857102339 -2.1726745958551335
-47.23564003201295 -25.521066760746947 -2.2203294689854114
-47.39063714958496 -25.350510167082184 -2.216122170359533
-47.49536547840124 -25.257144425576083 -2.2144348709393817
-48.17570642158445 -24.592018163241526 -2.2002176856719386
-57.00849438673651 -67.43064326759284 -2.191516894586501
-56.51848942291515 -65.1277415112795 -2.214456764158372
-48.21944790574786 -24.595959916856316 -2.20168820738526
-56.58752375821378 -64.98999895773903 -2.216708448853632
-48.41201685384172 -24.391811598357656 -2.1968162428680906
-58.12559122820744 -70.64492152324048 -2.162820896879535
-57.00942885157484 -65.61614790045047 -2.2125733748661283
-57.020124855039946 -65.36348694077242 -2.2156754797735507
-58.11992037718643 -70.28062596755882 -2.1672556426029175
-57.96481433767103 -68.90419462215263 -2.182011852536379
-57.22178342900776 -65.50667047743426 -2.2153672151609287
-57.122585461130456 -65.0219242556679 -2.2202558961800123
-58.3396137652236 -70.06913316355241 -2.1715669205566495
-57.342196900319415 -65.1866019247021 -2.219784604241745
-57.497092898939485 -65.2177927529063 -2.2206328839216236
-58.49455846926415 -69.73543319028252 -2.176692216566674
-57.57835147611669 -65.11077090904625 -2.222201188552305
-57.87435145188524 -65.43268778572909 -2.220748174449501
-58.1741455761956 -65.74314027818778 -2.219109823534021
-58.40841861289566 -65.92050019893597 -2.2187969941922017
-58.47851973657383 -65.7858454904395 -2.220506262678297
-58.65021920113538 -65.848224249385 -2.221018315431243
-58.93340148383879 -66.11576616755394 -2.219651028744167
-59.315093731655566 -66.56612550672217 -2.217226530654795
-59.420998703405814 -66.49430756284599 -2.218386795975788
-59.55426370873437 -66.47326544043337 -2.219486977109669
-59.76144172385615 -66.58216269760379 -2.2192659146538665
-60.01443817795138 -66.7727406374344 -2.218767964625268
-60.15936820937088 -66.7619167061734 -2.2194069332815696
-60.843693021035065 -67.72537317555106 -2.213161482308738
-60.85882619597355 -67.47216963249994 -2.2155668716908568
-38.07754988916015 -57.30183103820646 -2.076427692475223
-32.49815787425714 -27.86487107516836 -2.0785336277801214
-32.799923444172315 -28.758457776733138 -2.1200399043962044
-38.95152609905754 -58.421898639015495 -2.085938995263408
-34.07110356100485 -34.36993568873556 -2.1298323252155242
-33.92880725304519 -33.93563176993052 -2.100979818066282
-33.89748667831314 -33.83854449302218 -2.0943496359285123
-32.92347771033505 -28.922533707878614 -2.1291529185335136
-32.87400892062185 -28.716218613795746 -2.119525778143055
-32.87730738427885 -28.656946769327337 -2.1172943645401157
-32.820962397229195 -28.523724909662285 -2.110651325158733
-32.82174743306155 -28.355297240107326 -2.103992746264036
-34.01875048034009 -33.79213637892455 -2.0977875299785063
-33.99793717145978 -33.76510694668722 -2.0956772307957774
-32.996852856940784 -29.018733191349384 -2.1342444368462434
-32.94783059540666 -28.531678542205864 -2.1133257294317236
-34.14037837694441 -34.061476237306486 -2.1174497107584944
-34.16765377360421 -34.01872208207893 -2.1167733987186823
-33.034145890217665 -28.392912171090163 -2.1089698339715555
-34.27781856292736 -34.078877122231 -2.1253705323379832
-35.2444010397023 -38.33906017873406 -2.0699247313910805
-34.42945808801132 -34.17221222772419 -2.1375265989092394
-34.431128584838916 -34.093379655775806 -2.133352654554574
-34.39852561461154 -33.96415739128112 -2.1254920163953472
-34.31735063709358 -33.86202112988125 -2.116316001983492
-33.22497903679845 -28.46219844600914 -2.1154406120885954
-33.1838259504072 -28.39772238582153 -2.1117699884420866
-33.186406477241505 -28.318465484932723 -2.108587925209156
-34.468958371683996 -34.11618616382296 -2.1366458247311306
-33.28396201320005 -28.41669761844257 -2.1146123335249154
-33.50440236163901 -28.936383285922435 -2.1396748323063517
-35.76686317124335 -38.331956482629664 -2.107141094019801
-36.01208878853022 -38.69427924959541 -2.129184729722019
-35.9304150564153 -38.17111131566725 -2.1165895334707447
-36.06637962585013 -38.53970709432165 -2.13124574237055
-35.99563744960432 -37.31700505232486 -2.1064060663613726
-35.83341579104594 -35.96488572155477 -2.059802987171353
-35.766928766127336 -35.79580190884884 -2.0491343203265746
-35.777661009927435 -35.76683316240381 -2.0488395081224686
-36.09353629727821 -37.14192657779485 -2.110163721853708
-35.83554799051604 -35.70940950147503 -2.0517663471985195
-35.945772743881406 -35.80157968024798 -2.063650921063822
-35.86852058804392 -35.521366446469465 -2.0482530385338378
-35.9848494662407 -35.5737277319433 -2.0594911541964724
-36.22235754594779 -35.9970182916068 -2.0917796782972884
-36.41588581367356 -36.28716127221253 -2.1149790347959163
-36.56688552964106 -36.64496171487736 -2.1352561255787745
-36.52903955933354 -36.37293221840318 -2.1259443175862303
-36.408697237252966 -36.229464976172004 -2.1128221226710133
-36.61049994083172 -36.644544154087136 -2.1383649056382303
-36.62251248704833 -36.44339539945417 -2.1347864949477007
-36.53442926626187 -36.274182382064645 -2.1238862139834036
-36.68913331965246 -36.46572424623225 -2.1403975244958806
-36.68816518723412 -36.230678970468716 -2.134628225026276
-36.457213384701646 -31.21650348002007 -2.0771692966391395
-38.00993588635034 -38.10149221035831 -2.044061126149786
-36.48506660559631 -30.942078645756 -2.0627569174689278
-38.210370667226684 -38.75572414070629 -2.0443901913283735
-38.233073952144814 -38.6859307389174 -2.0479106524670927
-37.91717868733426 -37.54487853570896 -2.04629735764534
-37.9093076515576 -37.33536434601552 -2.0486822511288514
-37.84045754109028 -36.87057164699646 -2.047100325572395
-36.80764359894874 -31.8523996788525 -2.13021116665228
-36.61177672059673 -30.89968958607087 -2.066477686413753
-38.253561025570015 -38.547561326053604 -2.0533273245873023
-38.139282802627854 -38.1575041502421 -2.053620030561751
-38.05901586730806 -37.800461630865684 -2.0543926328197095
-38.01273870174558 -37.476932078662436 -2.0558940378332813
-37.86083085292614 -36.806757580278386 -2.0495994243864986
-38.40127113654851 -38.52427281823095 -2.06533313595855
-38.29979365187552 -38.2240453646993 -2.065191312540574
-38.2342678689062 -37.72230406804451 -2.0711100063727206
-38.07472374049442 -37.23177074951804 -2.065420786231026
-38.36891627374668 -38.2019647594638 -2.071303668062456
-38.35730271256601 -37.84707842369784 -2.0787424873756297
-38.30221467415536 -37.70254847141433 -2.0773463024111702
-38.83007938306563 -39.63925852906641 -2.0567581991610124
-38.531476172530546 -38.10261045171116 -2.086864340249817
-38.41607947394218 -37.353695939826856 -2.0941112223731695
-38.228923497907864 -36.2641491445284 -2.089404260129471
-38.12573644348754 -36.1204953469772 -2.079415364671198
-38.96809774420054 -39.549144849040765 -2.0683632359911184
-38.552922070873215 -37.296563832289166 -2.107071501401359
-38.47809962465035 -37.23415096714586 -2.1017845603319607
-38.78205393699769 -38.12128234257258 -2.1056969597241246
-38.80251294060114 -38.05773704461486 -2.109155500895175
-38.757612978287995 -37.83070912437489 -2.111690245536133
-38.74244681995711 -37.789314272841175 -2.111557882582764
-38.58155922411944 -37.355726060705145 -2.108296629462004
-38.88984130606675 -38.030776119847026 -2.116502214453146
-38.75094589239723 -37.34661339982799 -2.1229750470360207
-38.97736944172483 -38.034456586518566 -2.1228754094632456
-38.98143106878478 -37.96031756436934 -2.125346036716045
-38.92507417445903 -37.83283530701415 -2.1247371353558533
-38.862890948620056 -37.60018167949354 -2.1260924748439334
-38.76958505390765 -37.29703374645195 -2.125522115680007
-38.74668646691081 -37.11810544620894 -2.12732415500368
-39.123093547938105 -38.10088354193958 -2.1313898818089028
-39.07409597020785 -37.97977263586452 -2.1317058582701707
-39.020941679630674 -37.93400961878582 -2.1291688478661976
-39.21104660593882 -38.42090510402449 -2.125618448609113
-36.22204083000143 -23.424522768622353 -2.0431463446187546
-36.28444764233456 -23.37100227275822 -2.044023264218346
-36.51849823759129 -23.627431750360437 -2.0578025540397036
-36.841136234061466 -23.984317073417643 -2.07709054712108
-36.80991600052079 -23.84470912741026 -2.0726905465832663
-36.944807425465974 -24.330446078805924 -2.088703913953834
-36.92115914983319 -24.211442906282883 -2.0850405564289805
-36.896899456568704 -23.927473147208822 -2.077639671917333
-36.88243681984471 -23.773759903320787 -2.073519979303933
-36.90418748774943 -23.68938869620489 -2.072252395107974
-36.987776958952615 -23.77002152403032 -2.077055278314145
-37.09814804868783 -23.906831931956482 -2.083922272928872
-37.11063351412612 -23.849004888777984 -2.083091608280247
-37.17624658769698 -23.89674871464938 -2.086367900362565
-37.19865066933349 -23.816568199477814 -2.0853303502251523
-37.212458216065706 -23.716408207634338 -2.0835456334959086
-38.86952047348804 -31.61243335231626 -2.0888672456311026
-37.258696629923826 -23.723043327304786 -2.08521672368647
-38.947568266904064 -31.602102608623273 -2.0941042778549974
-37.34592154600982 -23.818655658706582 -2.0905173075199195
-37.36493639075315 -23.72904767809306 -2.0890929118176502
-37.53037424102817 -23.7748731015624 -2.095889778917321
-37.44410326462757 -23.718706056715064 -2.0916234747296114
-37.56823985565229 -23.768648892916097 -2.097168728788393
-37.60347475312858 -23.706989326883285 -2.096973070631052
-37.719790712530596 -23.78795901870472 -2.102927829643524
-37.69145008378763 -23.585734437741106 -2.097325239640823
-37.75829729380678 -23.597425338696098 -2.100020569952626
-37.75092936262537 -23.428123559737443 -2.0960038882125147
-37.662459410385146 -23.114334983007048 -2.0857137409373783
-39.46299595565897 -31.21417252759831 -2.1034282107167903
-37.90112895661114 -23.599664740954523 -2.105250980604018
-37.749441642934244 -23.121975806475483 -2.089024746212832
-39.48637352666915 -31.170558608693685 -2.1019075385864556
-39.45305091768661 -31.071596121430037 -2.091682727140694
-38.024643430624096 -23.709246668104647 -2.1121648574927185
-37.794925580881625 -22.807218250878762 -2.0836885618557357
-37.750861965174984 -22.807190383805796 -2.0821828823330497
-38.02301508412259 -23.19063819549042 -2.1005234705916673
-37.88047692289396 -22.9198035629198 -2.089408216319794
-38.06330010309203 -23.07294849201756 -2.0994031642457243
-37.99286793468335 -23.001073629520576 -2.0953312516534264
-40.895715963768694 -36.70624985534157 -2.0532896018487388
-40.044177156981675 -32.2634159705737 -2.08269860514761
-40.13795255622439 -32.2596314523881 -2.081162248244519
-40.20499443265284 -32.229038508617904 -2.086418636438607
-40.24119306520958 -32.1774361586999 -2.084824372517671
-40.27626982070866 -32.11797625622458 -2.0821768876360784
-40.27837416280245 -32.051789662907424 -2.0744194894095522
-40.24998084326755 -31.96042567704913 -2.090115286792483
-40.37959943118899 -31.875836929205132 -2.0653257094851663
-40.381031839192474 -31.858371390385162 -2.0632156908983585
-40.47520943826119 -31.887676101335472 -2.078806590165444
-40.56504297959725 -31.869626606763596 -2.0873392709278726
-40.66112084648022 -31.823432512142347 -2.0924258930804074
-40.700112236531105 -31.78901379996516 -2.092148505185728
-40.73632746494086 -31.74923709552631 -2.0906242691823707
-40.766007990096384 -31.66357984916601 -2.081699284792542
-40.80445024696341 -31.596882017058505 -2.076159338012829
-40.828199043722826 -31.56324513117624 -2.0737359315384967
-40.811547885967016 -31.389426650710543 -2.0464582405766576
-40.86333546213666 -31.521845467024942 -2.0712836180196024
-41.298319721075835 -31.8586643635291 -2.099890979621327
-41.22198125940179 -31.758545788806096 -2.0733108661426076
-41.39140139179423 -31.88983554267319 -2.0826764114882157
-41.361521103881216 -31.86508274881036 -2.091479321462133
-41.4368776703504 -31.87617940935006 -2.054354629947994
-41.47245164857314 -31.813599769051244 -2.085657872370395
-41.560287646741294 -31.77905610901734 -2.089348023800796
-41.59584195396455 -31.69677226663339 -2.095186533642605
-41.6004610622156 -31.647093314344467 -2.085802018567106
-39.56483705037912 -20.938668077433192 -2.112442404981735
-39.67538737200138 -20.92322821756543 -2.1167320840857955
-39.73410463530012 -21.000119271973006 -2.120608630846557
-39.764539545779826 -20.915567465670225 -2.1202525463470936
-39.787681079084685 -20.783861647180522 -2.1183234902850376
-39.838045233454835 -20.679150360515656 -2.118315528426437
-39.945661194563606 -20.783330692424045 -2.124959851635513
-40.04099633906194 -20.650452192709263 -2.1261133709852613
-40.082977108112175 -20.6240372178068 -2.1274806045033614
-40.19714346800905 -20.62119447075258 -2.132155387809724
-42.102174786555985 -25.732911281641293 -2.0487367300195367
-42.06203689291248 -25.70627410869583 -2.0453879498318592
-42.22075251291192 -25.788122820516243 -2.057101704188857
-42.16865596607292 -25.765155330653677 -2.053546074608108
-43.15860597106535 -29.870435545478365 -2.050205618327502
-42.37521983054237 -26.121189411632766 -2.082554758056192
-42.298272532604614 -25.867176367635476 -2.0650788188876747
-42.28334403930532 -25.805972624799068 -2.0609422291030053
-52.15873918662154 -73.74423472518686 -2.0492807614688155
-43.300185777723044 -30.085339918353412 -2.0774130373368824
-43.24141143314608 -30.026469196089383 -2.0698730738709274
-42.412506452537976 -26.143473091734045 -2.085396756719578
