ply
format ascii 1.0
element vertex 825
property float x
property float y
property float z
end_header
-37.22757574093993 -103.65326907847765 -6.448591776267948
-37.4764728727308 -104.08443358594515 -6.5076896208405
-37.42054375077246 -104.05175866439296 -6.506633789442967
-36.99951715341445 -101.8899743611626 -6.530776956606749
-37.722778009108396 -104.78551692835102 -6.48862996265789
-37.71714504363595 -104.73440181012961 -6.479253069347144
-37.62902875536525 -104.30103090353178 -6.532087791968673
-37.539758431674485 -104.07428081010656 -6.500207680565032
-37.502125617563614 -104.07604189494518 -6.503903752907529
-38.382586142967014 -107.71888218741073 -6.530738973095391
-38.3955307508243 -107.62881587615398 -6.526145569300399
-38.34452745281825 -107.41399074041722 -6.535527978357839
-38.14803605933666 -106.26007487938529 -6.475588270291441
-37.76451088472611 -104.79425448392598 -6.484816150677785
-37.772027967839314 -104.58050986675433 -6.441523261912496
-37.627652469365 -104.03215627739249 -6.484637209512651
-38.52067248287723 -107.48002380073879 -6.48656408255966
-38.43778789277182 -107.37507912106409 -6.506967636080631
-38.13929605185363 -105.68229097787082 -6.479678891711246
-38.11837988599731 -105.66494694591424 -6.480821190790235
-38.0680038184499 -105.43970839317724 -6.448700587171501
-38.02827692207472 -105.39318765271493 -6.447215322723406
-37.90046859391725 -104.68724616712633 -6.445613100207413
-38.55814617873841 -107.28612568108512 -6.468058183725596
-38.26410875607022 -106.11284059389199 -6.523432779812199
-38.27087664175527 -105.93852323603288 -6.4951642570542205
-38.222302202377314 -105.69557246093794 -6.4648990849922665
-38.17955141369376 -105.63913441222068 -6.463695416220839
-38.16594200136571 -105.49220193289173 -6.439548133707019
-38.155921421819045 -105.33091679274212 -6.524792103360344
-38.123820043339975 -105.19718881124909 -6.507012095652286
-38.085305403706265 -105.10975382098285 -6.497635977612701
-37.944383867792766 -104.68874540994891 -6.4399114365949615
-38.6050820584405 -107.26583611927241 -6.4534318739130025
-38.62586143515178 -107.19279548296939 -6.4434230619446105
-38.36107999122525 -105.96569842722383 -6.479596660838548
-38.3449068327014 -105.88686956387346 -6.4707669325297354
-38.30218060882002 -105.81280227685029 -6.467987525308732
-38.297697397240135 -105.72033409745681 -6.45341293776025
-38.21552702512162 -105.54535398787897 -6.439471594636635
-38.228034127086595 -105.4039163029602 -6.524949947985397
-38.20476448267662 -105.3183104552951 -6.514605180783418
-38.172420564431725 -105.21944573318198 -6.503089522801584
-38.13618613408585 -105.12128772263515 -6.4917439266334505
-38.11929111353633 -105.04105236427709 -6.480110541914049
-35.78861711109289 -93.73502784098497 -6.516295807712925
-38.762332842271654 -107.19484205912782 -6.512099012096481
-38.45548650974042 -105.9114847903561 -6.4503948570210685
-38.40352213592875 -105.64598344637376 -6.532240343005291
-38.369023142855916 -105.60056130920641 -6.531589868107057
-38.205583695639255 -104.88906165720809 -6.4394974574966515
-37.10961018349038 -99.46086886794468 -6.512992842404742
-37.07449281430531 -99.407222945407 -6.509253288489232
-38.79157225726947 -107.1180196720217 -6.500365502577373
-38.79481017772516 -107.03356916329908 -6.494240917733417
-38.51748846452734 -105.56194622438584 -6.4991884661544335
-38.29515274898789 -104.74563859395715 -6.53095761121395
-37.138976653834 -99.45539747856972 -6.511722114652055
-38.90065894121222 -107.12513438045247 -6.473315677278874
-38.841903084177126 -106.96034309413145 -6.477412707237799
-38.33780687557533 -104.56131209081676 -6.496853862101658
-38.92663828481744 -106.87174691584184 -6.449660813748464
-38.93827507332014 -106.83704702810783 -6.444062952439083
-38.4951906398202 -104.93698404794931 -6.533541072740212
-39.05409014788434 -106.84676301877259 -6.534550709050166
-39.068537874354746 -106.69407054981296 -6.52007910188292
-39.1384251339337 -106.60090065757895 -6.4977917466924255
-39.1454980009942 -106.58135169804923 -6.494674352512724
-38.587600081452116 -104.01785389731239 -6.536080062802301
-39.24012659172566 -106.65640411124558 -6.48087190955235
-38.97909621355893 -105.43831373756952 -6.5304204970597715
-38.69498956076249 -103.98262654377037 -6.520976274967813
-39.024608763973596 -105.48832586721439 -6.529404348823154
-38.74203475331983 -103.98555573738831 -6.516727634088689
-39.34064604543729 -106.46174960149844 -6.443469528057813
-39.3278466994529 -106.40725136402538 -6.441225173540677
-38.85267536544144 -103.91596120950922 -6.496648500789743
-39.4956800829063 -106.21862125011843 -6.526891241059391
-39.53037330099113 -106.11474755461067 -6.511852345428189
-39.53687873141486 -106.08378111401399 -6.50796359577851
-39.00440744186653 -103.8389594819682 -6.471439160298794
-39.03247625279235 -103.74373304821097 -6.456274232411098
-39.68703335749328 -105.98705727408714 -6.473650572362558
-39.695898352994625 -105.92814044704609 -6.4666933872353605
-39.66837347675182 -105.7945043095469 -6.458457285448765
-39.639897172415395 -105.76514648126614 -6.460282427002105
-39.74024876280574 -105.95745313331925 -6.461923737278478
-40.17803312256872 -105.72216424165214 -6.531574822430381
-40.22701715688504 -105.48004929717517 -6.504800102411532
-40.32126680834192 -105.3747852387207 -6.483184757070323
-40.34832198575716 -105.35068537583147 -6.477466179697078
-40.3395630073785 -105.26120719663818 -6.470727165420393
-40.43830617825757 -105.24305602706072 -6.4561280364355405
-41.432165676045614 -103.98986747366415 -6.4408552277486635
-43.21942578633721 -103.45093784829362 -6.519505634856068
-43.6933525269759 -103.4228102842029 -6.486116123324374
4.866384663364798 -127.50716694137407 -6.360726366759396
4.716384067410054 -127.79067688142312 -6.369228399709794
4.622676301857503 -127.5667594468205 -6.368778606309342
-8.949018566204014 -86.65988469454113 -6.436495884629943
-9.004243013629335 -86.55270939086229 -6.430978744701992
-9.093065379912133 -86.47143526527366 -6.426743397711647
-10.14107586851356 -84.87604699337945 -6.344194528811884
-11.412792993531237 -87.02724207479564 -6.438067194125143
-30.78128077405485 -117.07479896769915 -6.363822311426542
-31.017529941359175 -116.70576053549145 -6.3990320291464755
-31.481440011713936 -117.64898049377211 -6.345075777802062
-31.506738371273194 -117.68592176791836 -6.343009938006453
-31.64155531130214 -117.56979324276956 -6.355599928551745
-31.779542373166073 -117.43495093370524 -6.369629654419925
-32.07308216906869 -116.80974776189602 -6.425231923328653
-32.73655590578119 -114.14626355619296 -6.381571367157298
-32.838142898463914 -114.02260019440452 -6.399448713497764
-33.6066910449911 -112.87216877730351 -6.344856797065066
-33.71131147080495 -112.72505398900488 -6.371364849288007
-33.761398169359765 -112.65363375068904 -6.384174521457481
-33.85693445969135 -112.51946786080661 -6.408282759971014
-33.927229411258885 -112.41760221994205 -6.426439540912283
-33.971339203913786 -112.40613371192696 -6.430296798879192
-34.27689436797863 -111.91228539367397 -6.342735401574094
-34.379308842565244 -111.76718755173248 -6.374522999442895
-34.72494267510127 -112.71868228310237 -6.410671059586899
-34.43742238822569 -111.69780467576619 -6.3901717143751675
-34.78932468257063 -112.68601535957093 -6.416935345945945
-34.90339909237032 -112.6342352286351 -6.426828316160246
-34.86444221321463 -112.59445498926048 -6.432279376989953
-34.94987983198923 -112.63883034999772 -6.426808082869632
-34.7787862891849 -111.20273157552396 -6.351517026875836
-33.43414417360948 -103.38035824334693 -6.398564243262001
-33.40471915776348 -103.29932010049822 -6.382741749729799
-33.558318646724764 -103.22966094165872 -6.379719724648627
-33.580177279610886 -103.05725260680482 -6.350532162116075
-35.5422398028077 -111.8760968134907 -6.385148053247582
-35.534669974758124 -111.77691186450586 -6.404208555936565
-35.51413170592615 -111.66668924438301 -6.425377159664943
-33.584041773485204 -102.99100099077003 -6.33898896272094
-35.60340932604784 -111.67178248593937 -6.424126307955378
-33.79963713857045 -103.43994967612481 -6.4301833587078505
-33.85532701311565 -103.33911806470786 -6.415130744843395
-33.838191643173204 -103.26863919631971 -6.401638747581053
-33.7397049314065 -103.14604441934691 -6.374722223860754
-33.797533251950014 -103.07427762092735 -6.364757426179025
-35.67576873007218 -111.6958438479925 -6.418948142416619
-35.614626282204156 -111.20808630663137 -6.372935171360278
-33.858081101187025 -103.27431328997676 -6.4036580684142885
-33.83805547110855 -103.19658777235855 -6.388711724857839
-33.80544972021356 -103.05093643390973 -6.360928880760419
-35.692258663581136 -111.22571579643336 -6.368556267927252
-35.63625246924697 -111.17931234466495 -6.379460839171692
-34.050457977177814 -103.08740093328981 -6.378609542259663
-34.066936951582726 -103.0645548495625 -6.375111974161779
-34.01839127240835 -102.90381910650179 -6.343668027735863
-34.041292543578095 -102.86911503584544 -6.338217853921659
-35.87072806367997 -111.14910637760224 -6.383699922080236
-34.12338573167965 -102.98253486160996 -6.362296776005463
-34.09647316230159 -102.91493301823002 -6.348813084378499
-34.280776890359505 -103.02416097244358 -6.375783582434577
-34.20304493510283 -102.86200020406878 -6.342946417244951
-34.30211169484845 -103.03528390396441 -6.378574714011007
-36.0719313706513 -101.83407670417026 -6.352987014996108
-36.01521441187707 -101.79589020146899 -6.348212435708497
-36.13114716556371 -101.82561299444077 -6.350178269492863
-36.18207002912202 -101.7944785883779 -6.343901050768395
-36.21301107768799 -101.77549371483985 -6.340058448462816
-36.986662747143775 -103.8553614990733 -6.3674768040419
-36.927952557260504 -103.38851869485033 -6.418541836369964
-36.911976116950825 -103.36515672413476 -6.415032214282059
-36.98377214537253 -103.48851536268654 -6.434148299153371
-36.96132396361742 -103.40646251672895 -6.4199445460754605
-37.34658058252049 -103.95773788160547 -6.358795867748249
-37.30394320100904 -103.88730164687571 -6.347482627940276
-37.62114493083904 -104.72468625664763 -6.370952573614381
-37.41997337014428 -104.01876216850118 -6.364756895313351
-37.36919360034553 -103.98849752173828 -6.3632749952016034
-37.64568652590447 -104.72832825287318 -6.368207105949125
-37.63984561327282 -104.38003066482601 -6.417033846195279
-37.63482898768913 -104.32639636181811 -6.4065413092357915
-37.49637173259723 -104.08508897600726 -6.371134830378237
-37.516273037438665 -104.03868317196074 -6.359143832294858
-37.06624327070018 -101.97602398009843 -6.3407065861812075
-37.75449664911109 -104.541986008856 -6.43603728704876
-37.72117929571313 -104.49267517029543 -6.4302353390770035
-37.67616718783345 -104.4147029698414 -6.41984425787672
-37.5888696060811 -104.03303958934035 -6.3502547812396415
-38.14525405863158 -105.84785456308033 -6.4036989003351845
-38.119413413951044 -105.71721222230299 -6.3842681620010175
-37.99409274767487 -105.1351458814763 -6.401252712682757
-37.97755300158663 -105.0968081128748 -6.396153803323811
-38.29569183340536 -106.10536957992005 -6.4120793788471335
-38.26095930160255 -105.90967308127212 -6.3867809364752555
-38.20541904397627 -105.85435328360735 -6.390283837300609
-38.209429147210756 -105.70481007315449 -6.36043587997813
-38.16877800937316 -105.60963978836833 -6.350892898221482
-38.13502871682369 -105.54552798948896 -6.345323108642239
-38.14407796772034 -105.42377502251803 -6.393900386350633
-38.105525218373394 -105.30650279252707 -6.415555839701785
-38.086896903722305 -105.08708708466203 -6.374709326507313
-38.090553319323035 -105.07199734300144 -6.370950987542919
-37.970913453050805 -104.68321679687857 -6.435186826649232
-38.381062130564786 -106.03705392198177 -6.378719808668992
-38.33260418901578 -105.90045561759652 -6.367281724905326
-38.332931260426406 -105.82495038612919 -6.353496719809568
-38.27443538536664 -105.69095704687064 -6.342253871953187
-38.22280892584723 -105.50619323668433 -6.430826632359231
-38.203896002383935 -105.39387930553032 -6.413565949856075
-38.180821673176354 -105.28976466102618 -6.397983430143683
-38.22055274935794 -105.24269450531311 -6.381231744252302
-38.18090142152559 -105.09342350297854 -6.358908715474737
-38.14522913330339 -104.8208517342355 -6.436133659525929
-38.09109193626227 -104.55829698413142 -6.3945125531138896
-38.72590780021847 -107.12057949031505 -6.410068215581665
-38.42236101364812 -105.93240702014263 -6.350338511876694
-38.4216861050298 -105.90880271418929 -6.346394447850261
-38.40932794570315 -105.66494414955963 -6.420461678110818
-38.299574296604995 -105.10735330902082 -6.339673602261852
-38.23271493904537 -104.851736971032 -6.4286397742545835
-38.22572411076985 -104.7944133396285 -6.419267328022095
-38.177824670423426 -104.60157657501632 -6.390479423443162
-38.13650310309003 -104.54175085088983 -6.38499582921682
-38.81452854584988 -107.01336484699249 -6.377122079346431
-38.79735364908705 -106.94846626505094 -6.377131647941534
-38.447545019228286 -105.63875509678516 -6.407963444480076
-38.2714343406298 -104.84498420990724 -6.421524119047796
-38.27260907850121 -104.68837793933896 -6.3928158260662835
-38.27415974081036 -104.59574379411502 -6.37544075306609
-38.23313624907758 -104.46173751664145 -6.356150993686491
-38.85281824383107 -107.0346880726769 -6.36762536386915
-38.8412321932833 -106.93168550952137 -6.363190076711316
-38.67028769951844 -105.80039843396084 -6.3857786886906815
-38.99197851616306 -106.89428766226628 -6.4350764122404
-38.984769031090906 -106.78328899623638 -6.428150474424933
-38.99540047285131 -106.75863415697438 -6.423442445845776
-39.036996003199285 -106.62258533255242 -6.401121783299901
-39.034239321686826 -106.61194779628077 -6.400819755278018
-38.493267847458704 -104.13571069881192 -6.410179902747068
-39.12061557027041 -106.73330341883671 -6.3902772598005635
-39.11446762942533 -106.65794216362643 -6.3852570818072465
-38.613912689638305 -104.26335969302477 -6.415844047810935
-38.571985061812725 -104.12030190939937 -6.398283276378593
-39.22536333947131 -106.49578692658761 -6.342805777213096
-38.671932042050116 -104.18533314683579 -6.396373517649928
-38.67268813834392 -104.08014451883523 -6.379684424734508
-39.342283236337465 -106.31781725513916 -6.429950130452111
-39.462907225194414 -106.14824736846066 -6.388457967259348
-39.4939137574599 -106.17031601104507 -6.384268180361823
-39.49963185317884 -106.02094766322024 -6.367714285452346
-39.46714742237939 -106.00496021083825 -6.3726094044455674
-39.58914253251292 -106.09000994403338 -6.356676613654658
-39.56894339549015 -106.06046707823633 -6.357774227450622
-39.11297681052012 -103.14935947813215 -6.369693849945932
-39.18817270698776 -103.15967680006871 -6.3639635242107975
-39.880197779589146 -105.72680174250506 -6.416433740419937
-39.87061618101109 -105.71445503650632 -6.416843983267808
-39.936160453984314 -105.7536486005006 -6.409673774331741
-39.918979692693426 -105.58612724548114 -6.395960030190153
-40.00477743506798 -105.77626225100676 -6.40029229227525
-39.98806305424339 -105.54060269935454 -6.379886249455244
-40.028195577505734 -105.46707750086459 -6.3657157362581085
-40.17240853432761 -105.69305335504225 -6.36419675092368
-38.59206886099816 -92.34719308931227 -6.382560646342918
-44.178586339507355 -102.84216319464221 -6.418730803261433
-44.11451194259813 -102.76450482833843 -6.418284597550001
-45.05559124448772 -102.52392361816108 -6.341042467618387
-10.213542013056479 -83.98035771016114 -6.300739463994553
-11.275134402646945 -84.48128310563777 -6.31715329154235
-11.384578945952711 -84.42299253891899 -6.31369007704755
-11.313362515852038 -83.85956460037512 -6.286857747103452
-11.37569545624541 -83.75461341199915 -6.281456072979644
-11.668471905179047 -84.36171840379836 -6.308676774724766
-11.480335526901843 -83.3616283414961 -6.261483973965472
-11.61773415754336 -83.3252805648769 -6.258824751913095
-11.734752906691607 -83.28162961126074 -6.255672242680005
-11.8178380898751 -83.20461247379568 -6.251423666678271
-11.91072066040093 -83.12967436087085 -6.246931751559164
-25.138698211331302 -126.14515043573512 -6.2612813665903
-30.027586195722968 -118.23142370125255 -6.252827738901684
-30.25354924498441 -117.90037595182538 -6.285017406152326
-30.437280420113254 -117.64143522136827 -6.31043153588847
-30.741767884603206 -118.30990975162811 -6.272904233352771
-30.71335162510801 -118.2765996612221 -6.274422654349518
-31.08626571231088 -118.05856063263492 -6.3025286687063415
-31.270339533555155 -117.84390591182913 -6.324190661866345
-32.17053997008966 -114.9474531136432 -6.269676102449286
-32.34074834587598 -114.66582180457598 -6.307634380307096
-33.30982550920904 -115.02320539366289 -6.307957368710049
-33.267381227544405 -114.80655330200892 -6.330900262299767
-33.38328770394564 -113.18095455508521 -6.288825061055562
-33.5567078882183 -112.93688118920868 -6.332951830626515
-33.921913660080975 -113.71695153708549 -6.237087187686409
-33.956098022569236 -113.72135740621572 -6.2377015136014275
-34.03054951812455 -113.67363550166517 -6.247443392786538
-34.16129236180008 -113.53865660343935 -6.271933544360426
-33.94508080353574 -112.39865463757268 -6.236191181289081
-34.22864177475539 -113.41997659114772 -6.291803211435742
-34.317400404610574 -113.29867223545178 -6.312679853967432
-34.08252781185127 -112.19255365574098 -6.281258150623942
-34.237469050413445 -111.97332208153533 -6.3295480380936215
-34.85251789386616 -112.55565690953767 -6.247887354799541
-34.97246718637318 -112.40678074667716 -6.278687505832961
-34.943566301866255 -112.37127273864189 -6.284751450447025
-35.02314282655456 -112.42823584153913 -6.27561554046564
-35.04225605383285 -112.31941769323583 -6.296572200396437
-35.126197650028104 -112.56784684286855 -6.250770380248302
-35.10922362604091 -112.50264159067146 -6.262929814879103
-35.08660352191041 -112.42050394585587 -6.278181215246235
-35.28480875715517 -111.54915591244725 -6.2926245357435455
-33.455915351920076 -103.00980336867268 -6.335301315581638
-33.415670469831255 -102.98554152677562 -6.328734761388
-35.35003437159574 -111.65857558114585 -6.268829095640317
-35.36124867541361 -111.53593642368686 -6.296753563003245
-35.34742876341939 -111.4568651946077 -6.314533000688017
-33.470860887548 -102.96371606423932 -6.3280238057802665
-35.4069777318079 -111.55351755969416 -6.293337067995445
-33.782732696946134 -103.69394150703243 -6.318943828510542
-33.7777060476076 -103.54416793622296 -6.287487038873128
-33.791359013865225 -103.53686613426953 -6.2869427397544
-33.58266723636365 -102.91227841866387 -6.3249201785299345
-35.64610869174797 -111.54342011558963 -6.296193015197873
-35.62573627967288 -111.53044604015037 -6.299251830760183
-33.898375049895996 -103.44117837579113 -6.274278424351958
-33.91598197311833 -103.35380433777557 -6.25691081624894
-33.92367877779037 -103.27671644398583 -6.241006133093655
-34.00528182417426 -103.32599360630121 -6.256586199434293
-34.01076263538247 -103.27468045708395 -6.245905550790821
-34.07709319765187 -103.38297239037627 -6.273160259900783
-34.07883313575734 -103.29166283836264 -6.253599160171757
-34.08091508872921 -102.733324052417 -6.314697584678178
-34.46586924593719 -102.64543742202947 -6.310354023554044
-34.557122430898275 -102.61815302826858 -6.307376062225743
-34.701133596184185 -99.78855527197433 -6.317368331745284
-34.76253672421214 -99.8345798724982 -6.322626223784732
-35.10103588125916 -99.85861849044801 -6.322636935979801
-36.25562364905991 -101.7425617688885 -6.3336448584192
-37.2814700450438 -104.0584854924012 -6.252097675184688
-37.14174257392545 -103.549487805595 -6.286996344459026
-37.33694658403671 -104.0906486342248 -6.253975625434989
-37.27664893664768 -103.79118781027644 -6.328958640650028
-37.242596216614466 -103.51974484334959 -6.272085260191023
-37.202526290389564 -103.5118530835378 -6.2736653406502025
-37.41872036039786 -104.08056284034328 -6.242093485066264
-37.03639135555286 -101.92854741894892 -6.334612320048917
-37.741210991845804 -104.57587739309001 -6.318790671145695
-37.74573661976273 -104.45240610636047 -6.2893961652096735
-37.72394243227581 -104.41744577434575 -6.284282182975771
-37.997622973100036 -105.31548944990232 -6.325157149766625
-38.00712795181007 -105.24576971658566 -6.3071802525188145
-37.84829933425945 -104.55355502109228 -6.297696641093045
-38.154434131659684 -105.50958095536545 -6.3333884286931585
-38.14193934978594 -105.45234894001558 -6.323991736719963
-38.12393833741612 -105.30443505261091 -6.2955591477726545
-38.08750911166604 -105.27999066645383 -6.297992975495866
-38.06196216288832 -105.11910752607035 -6.266405667687501
-37.93579462730481 -104.62880740075607 -6.301274592356148
-37.918933307907764 -104.57954543198261 -6.292800759657547
-38.20833681335946 -105.29429441755968 -6.2749601548355125
-38.186980706057625 -105.22282962574634 -6.263782306359871
-38.089239271286026 -104.68074486615511 -6.2879892843241
-38.08469056214912 -104.66719768752768 -6.285776583266068
-38.19911756333962 -104.75968635501505 -6.286393916000446
-38.60477705526638 -105.97586532108141 -6.310878519553119
-38.56795664349565 -105.88591542012597 -6.30530192821996
-38.32211078097245 -105.06962937905352 -6.327975267561285
-38.36937210513813 -104.99923754985511 -6.305134821269385
-38.63141102129214 -105.91890823029767 -6.294573416897954
-38.613158759655384 -105.85210910838411 -6.28799535674163
-38.36379069030095 -104.67089044359516 -6.2389657138869135
-38.93986945485196 -106.90559735138005 -6.3328026823892305
-39.05682818764511 -106.76648740725165 -6.287399815256702
-39.102786932319546 -106.73388491205152 -6.271315723965836
-39.12703303965065 -106.65216883869975 -6.256626688639856
-39.13351058213722 -106.50584443348718 -6.239568981605213
-39.186277186942775 -106.69846564233121 -6.244270356634722
-39.26169272831581 -106.46770004279334 -6.331154774655111
-39.28140541130752 -106.39777369709142 -6.319291868394063
-39.33157101863975 -106.36339074782026 -6.303531655164318
-39.38269177083857 -106.29141783944051 -6.283502422489047
-39.40950427524086 -106.27494506852516 -6.275248301914074
-39.44824311173229 -106.19796474678155 -6.257480926769592
-39.48838689387152 -106.16341393396911 -6.243945747698814
-39.72564161874254 -105.98115400365744 -6.317567162030373
-39.877801229086145 -105.87694823217878 -6.27565002375233
-39.27135893946251 -102.9722605334641 -6.3309224224244325
-40.22521843787651 -105.32835126546844 -6.318876502491105
-40.37011066468889 -105.24022601694861 -6.285892593118474
-40.516629603778505 -105.2093687291603 -6.258636692352431
-38.18680541469755 -89.90411488753966 -6.261348387209217
-38.27547770323076 -89.97246073673875 -6.263074847965939
-38.87316184746024 -91.12573677054151 -6.311031895604072
-43.085428344156675 -103.44740231857662 -6.238394826433118
-45.02136282411078 -102.29582244879695 -6.329483723382571
-45.926428166532574 -102.24071303578675 -6.265764302706054
-51.85839481833447 -98.89790297820547 -6.303117194723362
-52.16841800422746 -99.02424988450515 -6.297465837880945
-52.4208078006442 -98.96922877874104 -6.286097779171672
-52.69410532286143 -98.97372105077628 -6.276427327880663
-11.839018213889691 -82.8863413445314 -6.235761381427521
-11.935912574196582 -82.81422130030408 -6.231356546136884
-12.069262746790468 -82.77976936635503 -6.228773846758603
-12.12286518260127 -82.66723641014231 -6.222721349174686
-12.276307839980273 -82.65895422813242 -6.221244310716435
-12.313271393564293 -82.52472949529809 -6.214247573910996
-12.177199949424057 -82.20531094950472 -6.199821334382902
-12.33763518181205 -82.2003603172944 -6.198160206630734
-12.402792412451774 -82.09351411894579 -6.1925333780344305
-12.495376772317737 -82.01631004785858 -6.187862349252395
-12.457490826275752 -81.79624927636782 -6.177493417961627
-12.506254404211116 -81.31054266791884 -6.15305309761401
-14.018207144568663 -81.41333297459072 -6.145479255795813
-16.03714240344974 -83.47787096328501 -6.230416426262824
-17.837964884726805 -82.27769902385134 -6.153811690519398
-29.391183919394535 -119.21031012250239 -6.15885366089091
-29.79126260570956 -118.57492015230548 -6.219358029064827
-31.540449503507993 -115.85548264564989 -6.142913074761457
-31.721467793898704 -115.57328944669095 -6.181583852636765
-31.775980340499444 -115.53634981726424 -6.188244328515707
-32.482836309474855 -115.64090656655118 -6.209925043502016
-32.81471400347537 -115.99069333450268 -6.183668610900069
-32.79176942914101 -115.69237431867103 -6.216053012419286
-32.839082447975414 -113.93091286259718 -6.151829872266601
-32.86548921607236 -113.93663782080019 -6.1526737125602144
-32.93718463414963 -113.8412917643155 -6.170286093909068
-33.63518094423561 -114.14150709286645 -6.163324003455751
-33.60956214272362 -114.06249855011767 -6.173786153252681
-33.61142195719594 -113.90754613317105 -6.196450140749708
-33.733320804578966 -114.0781681824576 -6.176589881042438
-33.728828316354154 -113.93726616321399 -6.197095915743123
-33.777466336951775 -113.8658197030385 -6.209549056278527
-33.602000573227656 -112.83196274164426 -6.137349078809562
-33.89155920452999 -113.73645790954704 -6.233056212720862
-33.75102632560798 -112.630065818188 -6.182803560125351
-34.049280815738 -113.76776852386828 -6.234094651929656
-33.91192273408585 -112.4496614519569 -6.225060174789844
-34.70931430582971 -112.78651705952838 -6.200747302481646
-34.41863053979717 -111.70415710482128 -6.221250522217696
-34.774819812241866 -112.66398714684675 -6.225534497508545
-34.80355277534082 -112.61377760725384 -6.235725431568653
-35.12662499408624 -112.69100269113677 -6.227365135280405
-35.00304526771868 -112.20679813963942 -6.137931338481381
-35.04585415882624 -112.19413284637903 -6.141928050091154
-35.15266956630876 -112.21375816396807 -6.139917051776536
-35.1386028570623 -112.14441331750297 -6.155294228635653
-33.44629601002338 -103.00800739725477 -6.151670519490136
-33.55181588547691 -103.16416933355616 -6.191883115238398
-33.514564615648645 -102.93077216356204 -6.140474917257116
-33.78915907929498 -103.65733310612863 -6.153344935899232
-33.58646534509226 -102.93595946588324 -6.146576775069444
-33.94423131665479 -103.2456975123377 -6.235668333266356
-33.99843138748084 -102.93979345157223 -6.172985669366911
-34.221690379674186 -103.02708460851082 -6.203673678419609
-34.20084370794098 -102.92449031555874 -6.180158131681482
-35.9794014840414 -101.85728153269532 -6.1588658469831845
-35.920613225609756 -101.82240059368932 -6.153322407805507
-36.03754619246858 -101.85877554817014 -6.157790027412053
-36.09685308154157 -101.80576014935284 -6.145935032107159
-35.876192777639936 -100.59529841043307 -6.159597963171692
-37.05102758399681 -103.59299399887375 -6.155641969602863
-37.02733337196308 -103.52344032234019 -6.139648128328634
-37.124734040178765 -103.59436889672891 -6.149382441673611
-37.29322830868841 -103.99660864455744 -6.2352374842679685
-37.178426627982944 -103.56692532802859 -6.137329150638948
-37.145244335364254 -102.05730571727482 -6.151623511531228
-37.758274412917444 -104.5455184479082 -6.179822409589357
-37.7035843686768 -104.5070319105078 -6.178612591080175
-37.18671347592056 -102.04706344531888 -6.1472907311287734
-37.81408300960951 -104.51629577411825 -6.162729931236784
-38.114926643692584 -105.01392546960291 -6.230903214399285
-38.14218153674711 -104.77046540531404 -6.167198626798767
-38.203079336308505 -104.8939367024273 -6.1846773476579875
-38.18004711400908 -104.80980860627581 -6.169216960728476
-38.16527770025736 -104.68512406105701 -6.141893884632597
-38.27138710870212 -104.79213830990713 -6.146752575008747
-38.28530139816592 -104.54190999683844 -6.2250578644594095
-38.257787331836134 -104.49354367176967 -6.21914273686911
-38.255950239224546 -104.41163489174214 -6.201578134368711
-38.295335339542575 -104.31760169382034 -6.174441536772395
-38.34318770463144 -104.27910976712788 -6.15816506915864
-38.431372336710865 -104.57598858435603 -6.207176236470225
-38.45982170004844 -104.40646124987373 -6.166297663090377
-38.403090667891426 -104.37412213329006 -6.168959281274256
-38.49851229577273 -104.3759893398899 -6.15316654346992
-39.16244619945536 -106.50967821996501 -6.2318753253768016
-39.40484827890487 -106.61371465092036 -6.174087687339171
-39.4127219928349 -106.36234630920138 -6.145383686350448
-39.547617323078576 -106.10770663724705 -6.223418294429362
-39.570921823077136 -106.07021680326791 -6.213524202960416
-40.08613633521033 -105.73063117819065 -6.21770962337267
-40.10534699604449 -105.68836769617732 -6.209184001579579
-40.132774511062486 -105.62446192004101 -6.196577822585025
-40.13881155808435 -105.53420108171784 -6.185097608295913
-40.09230677356047 -105.42222171077705 -6.181133834611649
-40.11174520846024 -105.34977148574735 -6.168546415014557
-40.168863015120394 -105.58005850293134 -6.184321816070877
-40.15525822088618 -105.47447522856692 -6.174889706107614
-38.95016469744288 -88.9115242697073 -6.191399505016111
-43.897036566817555 -103.35917738444402 -6.152039747750204
-18.0271789806746 -125.4573338316999 -6.036626466553731
-17.98106644000035 -125.37494084013638 -6.036693960258022
-18.134437550466572 -125.4762572643234 -6.040858086907461
-18.971874613600527 -126.9162179598387 -6.036957888901382
-18.961892048447417 -126.6554212205738 -6.043920148844891
-18.903314380648492 -126.51947353705569 -6.045355527873092
-19.047117301182734 -126.15895871399943 -6.060967770258121
-18.888408979853974 -125.19177785689953 -6.0800379933598805
-19.06918328142497 -124.8806271096926 -6.095474068668753
-20.394721664985447 -128.5901172056449 -6.036440835918258
-12.578369372607721 -80.84124111129478 -6.129436755923755
-12.605614241009533 -80.68486756348902 -6.121344331255862
-12.842982762874392 -80.77022771222474 -6.123695709033591
-13.017779647829222 -80.78078117060521 -6.122598143133518
-13.070556606088584 -80.64904010082421 -6.1157637027319645
-13.131278000103649 -80.53991692079657 -6.109693007325149
-13.340257051610898 -80.41682860060845 -6.101772556834639
-13.409136862876021 -79.32391266325268 -6.046783448692744
-14.297335347992895 -81.00609186417499 -6.122807900543257
-14.38051693528029 -80.91533016695175 -6.11742578665019
-14.454279507275704 -80.81220726950772 -6.111767203769947
-17.609458559256137 -80.81019786423047 -6.081954732118508
-18.005140431497683 -81.19105256229365 -6.097172172602359
-18.12377446083072 -81.16864480424522 -6.094969247333937
-18.272434677356216 -80.38937958134383 -6.053813398593844
-19.019112475629683 -82.11332635535985 -6.1338264368714395
-18.93779370312532 -81.80278229744097 -6.118785657256304
-19.096345026476815 -81.45120553442388 -6.099422450411902
-31.141001478138968 -116.47627118362047 -6.0577328480486425
-31.304280096270805 -116.23884944899493 -6.090888810121194
-31.827867601052283 -116.8479167203708 -6.051833287143624
-32.15468506903158 -116.612181206564 -6.090897436399202
-32.46298534869954 -116.47504990741658 -6.117646203753617
-32.50979638225675 -114.20428628155658 -6.093097589981575
-33.301282617215705 -114.71235380581982 -6.065675592814414
-33.29777822643616 -113.27004336975264 -6.039692950179365
-33.55721323771615 -112.88345674172591 -6.125263684248422
-34.12294472075321 -113.51269242599781 -6.044783992124771
-33.96192305228665 -112.40777344079945 -6.039140480627024
-34.284674940121526 -113.17757063114895 -6.11319899040659
-34.03292982752732 -112.27403637447158 -6.072709672376512
-34.3671023758446 -113.19087619327745 -6.11402901152318
-34.44414584294225 -113.1376858611749 -6.126723661760947
-34.776014663261165 -112.56843094661386 -6.049823048901841
-34.754799022455096 -112.49184491844117 -6.066103862621399
-34.880375057247676 -112.41487455245051 -6.087644276284239
-34.93204318196688 -112.24619952429995 -6.127018841955524
-35.046148580167866 -112.291182111304 -6.120100885593214
-35.10035815980789 -112.27462232367263 -6.125092533598589
-35.078754783662745 -112.25026361870783 -6.130096086139966
-33.504574214304064 -103.31788994200437 -6.045598844248463
-33.500038585414856 -102.90302778786652 -6.13364870755508
-33.97865311592089 -103.48110064990435 -6.1268613102422425
-34.02179677985593 -103.42685000585995 -6.116856253489324
-34.00129227931418 -103.3466672233868 -6.095450001268922
-34.07036354507854 -103.38366644606828 -6.109859399430112
-34.20247121640098 -103.10734072194685 -6.049607689088246
-34.23452636631294 -103.12416239853144 -6.055901140151557
-34.48754135007918 -102.52209731525916 -6.102454822981456
-34.52073424679589 -102.54227230625064 -6.108083994123565
-35.046984416082125 -99.9192412303187 -6.062445576215971
-35.07492284697074 -99.93607619084048 -6.064920830902042
-36.224973193991794 -101.65900071948222 -6.113721194714359
-36.29498455724198 -101.67842319184155 -6.115392963948407
-36.295425316556766 -101.6657371304591 -6.112891625472504
-36.36287676578867 -101.58533659277185 -6.095045459672297
-37.338352949139015 -104.08377110100372 -6.114728276436055
-37.19912759584817 -103.55157134357884 -6.131427169332057
-37.42057268088493 -104.05729955076346 -6.096547590826605
-38.112452735640645 -104.61294089007585 -6.134129462059102
-38.19855079277935 -104.66566338897549 -6.1307039640712
-38.182974152802814 -104.59276814344264 -6.115768186594767
-38.163067720676224 -104.52881857273944 -6.103660556210637
-38.161445052372 -104.40242458927332 -6.07218218175129
-38.13164445451867 -104.29538535842438 -6.050251018251027
-38.23432438234686 -104.61350915054958 -6.111010091710954
-38.24323851650706 -104.50108349161317 -6.081654152744214
-38.20150120518894 -104.3643971133622 -6.055175882985542
-38.16543863993303 -104.3064744391455 -6.047053806791391
-38.39182995900937 -104.17042026574364 -6.126260423496786
-39.44496047775357 -106.2576466347706 -6.124121537490445
-39.458549191044455 -106.21149007381646 -6.114765162404245
-39.51732033483893 -106.31785981979712 -6.111079763329925
-39.55410981681239 -106.12266281283712 -6.077286638149884
-39.54290902187908 -106.08316892475635 -6.075323004869268
-39.67761733741184 -106.22735302168573 -6.055921679050096
-39.59558218818322 -106.11901135203345 -6.065415373950205
-39.61459305477522 -106.02082864271065 -6.047571852582817
-39.79736308367292 -105.81622758901474 -6.129221090487994
-39.86697255111001 -105.81267212901622 -6.112349863089043
-40.09995701217777 -105.71103313018027 -6.044765060915286
-40.21685954121699 -105.24190343554872 -6.134721347338658
-40.22329967763027 -105.22012590232707 -6.130738259783598
-40.367136958353285 -105.20673170724785 -6.1010014262465155
-40.31542776016309 -105.21220326720447 -6.111771035826419
-39.53762996768626 -86.69449134739229 -6.059861899561972
-39.81999326639864 -87.14901931308471 -6.077642996715209
-39.77703810589612 -86.63260062613652 -6.051160249412033
-39.93198754457584 -86.97155318999127 -6.065538977276039
-43.920095629965815 -102.84209338255009 -6.109896990417137
-44.19855986355034 -103.24274890226016 -6.11354629602512
-44.54832361595917 -102.68422048020827 -6.036576166367639
-17.209343175993812 -127.36272717686471 -5.954001206361122
-18.299371190642695 -129.1596578125122 -5.945669433944754
-17.982679474218326 -125.75543135417627 -6.027400105606457
-19.183791752144085 -129.44163048742652 -5.968003163903875
-18.893893620190475 -126.86942949793401 -6.035188173621742
-20.428835200373584 -128.69901638892662 -6.0338980725836
-14.129906278389534 -78.62323273554941 -6.005147081473644
-14.24265133769125 -78.56359015054696 -6.001237338710477
-14.333936221056955 -78.47558369085704 -5.995827432203077
-14.309269256422983 -78.23027576013689 -5.983872648840785
-14.424319703449722 -78.16806179689766 -5.979518566273693
-14.356290693083697 -77.85405902688821 -5.964513031828603
-14.38225245660578 -77.67733539862068 -5.955228616755772
-17.88865605403575 -80.0145449214365 -6.038817513397938
-31.27624699706579 -117.64250475435635 -5.94224894162623
-31.352450411375862 -117.66352166827657 -5.943414475184469
-31.324108800487405 -117.63128730513013 -5.945598445508313
-31.433130774831575 -117.62410351478773 -5.951186648632297
-31.710041117750436 -117.31172458041605 -5.996715414643633
-32.71761046953961 -115.07658315801196 -5.9844643576746765
-33.025557128894434 -115.31925731033127 -5.965141846071368
-33.054811640976844 -115.15519060130745 -5.990235970797779
-33.09916201397114 -114.95241721501081 -6.021611242984678
-33.10481902978243 -114.85741128411237 -6.03558319959764
-33.01030565901986 -113.62738887622393 -5.956742657478612
-33.05258096412045 -113.59283816099511 -5.965895133527596
-33.50259763531708 -113.79521101998581 -5.9613179920031145
-33.682890788012045 -113.72947048880336 -5.983523383676706
-33.80794857290625 -113.7732756422502 -5.982334165553579
-33.794329372035044 -113.66728511553693 -6.000779906432595
-33.895285881330466 -113.8019309878886 -5.9814762044563965
-33.85009580900287 -113.69259068354368 -5.999082194759846
-33.66226224980813 -112.74360730341199 -5.945010539331102
-34.031895296052866 -113.7482308116048 -5.997615542725475
-33.99256278529594 -113.63997961641701 -6.015610093588112
-34.052233337172545 -113.60048682519506 -6.025566228153896
-33.90626805043582 -112.44882631677577 -6.026217881953244
-34.47227983261543 -112.94369048883891 -5.9542365496322045
-33.21773050873857 -102.98445297644771 -5.938802373352869
-33.698286497883835 -103.79671562579539 -6.019410554460144
-33.69123400676053 -103.75626423849913 -6.007715324821612
-33.75074048346971 -103.79939545351388 -6.026235356293204
-33.65533469546039 -102.97032778593872 -5.975193498138814
-33.59883451684248 -102.91191044220805 -5.956170940035663
-34.12741787805603 -103.3758804847969 -5.9466465681212615
-34.25721236292082 -103.45089801704482 -5.978943155481368
-34.40579511672085 -103.33133286675768 -5.9556912656831775
-34.53611982186045 -102.98176485728445 -6.035932372859998
-34.7665622102289 -103.43503264588108 -6.008400080161026
-34.632765653469434 -102.67786056078118 -5.960992521132222
-35.66082371742553 -101.83315312136786 -5.956283173252902
-35.6192546999545 -101.79327413573779 -5.9475228926330255
-35.72930394415276 -101.83635538975626 -5.956083606508332
-35.83721496973497 -101.83613310401023 -5.954245898949508
-35.95353841103404 -101.91383222562399 -5.969888664121261
-35.895737562729074 -101.8605697193534 -5.958779366911721
-36.032244866817614 -101.86974674994624 -5.9577716006770505
-36.149135905033944 -101.85780653194203 -5.9518199335867505
-37.16082965643183 -102.17938222701194 -5.977395330753758
-37.248954044298365 -102.1992327611569 -5.975893362962446
-37.22795341105303 -102.1826633524758 -5.97362153502324
-37.31876070957824 -102.1382546216063 -5.957244128315945
-38.28609384700225 -104.32939003322254 -6.030829375037994
-38.284123249877304 -104.28621446336888 -6.020333612223469
-39.77473351746948 -105.89147162976298 -5.9866171456340735
-39.78300620188786 -105.82518341231837 -5.975308115259491
-39.83350004786528 -105.77751382110682 -5.9549639286967295
-39.80840809063659 -105.69177524132456 -5.949439157237059
-39.76636759084893 -105.58944414529746 -5.945426328632391
-40.183540216227634 -105.38242867561792 -5.982585136764133
-40.207301505701274 -105.3250249092468 -5.969272995773014
-40.30809375651698 -105.73451516021385 -5.998329255596258
-40.32324155514276 -105.6936112296631 -5.989838236638066
-40.3031449266531 -105.45658308434871 -5.9647539316533305
-40.361034733652794 -105.4774084767153 -5.9539622457493815
-40.34064249841742 -105.36656590738977 -5.944144074168756
-40.30097349251057 -105.26145777367356 -5.9389677186327425
-41.557695969110114 -104.34428296746499 -5.995974400960211
-41.53781343237336 -104.30410101647605 -5.994641080957359
-43.140157429215606 -103.61652519624575 -5.954958894691388
-44.62149494403676 -102.70229581854508 -6.030807199141457
-44.69742079138293 -102.48250274004539 -6.006274643840746
-44.94479660412752 -102.3029586202646 -5.968230998915084
-16.738155928395326 -130.59264261185388 -5.845059598128058
-16.93047225763169 -130.6884853944691 -5.84928339245859
-16.137424040196617 -126.88650333700167 -5.920053562776707
-16.106240500054966 -126.72350371937854 -5.922520901379778
-16.457221964239952 -127.45720153199073 -5.920093473152686
-17.44030763296598 -131.3956197142388 -5.845544271343062
-17.364446992470267 -131.31687607725533 -5.845459746546555
-17.317225254894495 -130.70017776242014 -5.863023433402354
-16.801176649714087 -128.2266481137738 -5.914521880695547
-16.912423534901798 -128.2471138866777 -5.91841927791749
-17.321259665028016 -129.5755521587477 -5.896960542441368
-17.026512341275392 -128.26444386762154 -5.9226257426847
-17.406216736031567 -129.32597358981133 -5.907542220017331
-18.33809987061744 -132.11220042698025 -5.851957451335937
-18.68957226655293 -130.42254303560642 -5.919513161017012
-18.662236857228336 -130.29215969016823 -5.922873508450575
-14.41940210405529 -77.2992190244372 -5.935809099543617
-14.729602351031005 -76.8403780517823 -5.909609030581445
-14.712488519697878 -75.89012843121492 -5.86167596529438
-17.254582927266554 -76.2820342376699 -5.85526660774126
-17.675311020280205 -76.49746234828238 -5.861728874404397
-30.94225688432398 -117.8907884977356 -5.9003079838729695
-31.173828529218376 -117.77487243177096 -5.923459198527713
-32.35752004940348 -115.61992381273198 -5.887810827951672
-32.59748935616669 -115.60428902136331 -5.903133652777548
-33.59790600568048 -112.81703829253071 -5.924378218569536
-34.21032815968979 -113.28501935736939 -5.866375798556504
-34.28255695375675 -113.18438758492378 -5.892140735775666
-34.35494659231928 -113.1549487028872 -5.902197652077261
-34.405561653344606 -113.12189234614115 -5.911881410233577
-32.91278286818155 -103.01762208036912 -5.914912505263337
-32.910306565853034 -102.91256924800044 -5.890474164763284
-33.040585510803645 -103.01102919461275 -5.927016246883128
-33.12049314661447 -103.0000178131269 -5.932703024564062
-33.49122552654947 -103.56143226032307 -5.931832761786929
-33.505473916008135 -103.52369323047658 -5.923457822640815
-33.560226010464575 -102.82280080810203 -5.931196779755022
-33.89667900905319 -103.29010013961145 -5.901413577361647
-34.08871147362131 -103.34655348702515 -5.934940025346043
-34.418856625084715 -103.13426757524105 -5.899128699477064
-34.44058702100365 -103.0988304864114 -5.890182542755024
-34.4876558734307 -102.5466506929474 -5.920804201322354
-34.477423072173686 -102.44509601112834 -5.893947818848682
-36.31451362250801 -101.61217077382068 -5.889580488072588
-36.38686129645228 -101.6160210503671 -5.887886951349547
-36.232141263920134 -100.25997443193354 -5.840216765606675
-38.90607647078211 -103.47820971643924 -5.889842103929288
-38.902757151733866 -103.453914387065 -5.884994300029147
-39.78418737059089 -105.48021092738458 -5.923860777330598
-39.76353260511619 -105.41334039890651 -5.91862565753007
-39.919477249166945 -105.62010551926691 -5.909285414819424
-39.911001600169016 -105.59920595335424 -5.908471785911715
-39.867225209051256 -105.49116037446656 -5.903736769257238
-39.97254556357982 -105.42347308111982 -5.865490537082038
-40.261230029062055 -105.15549178243204 -5.933112526960449
-40.304118734737514 -105.23090487159372 -5.93400932106196
-40.287827990047205 -105.19088382503975 -5.932101556206237
-40.471076865400924 -105.44919568270305 -5.9245714619456304
-40.62109647654482 -105.26852917751063 -5.866033428597036
-43.30512015445184 -103.49753134574075 -5.922544308568407
-43.728727468160216 -103.20478432215671 -5.840350499721152
-15.308187222454197 -131.3096883281733 -5.769961004666974
-16.146184835306894 -132.3571318345935 -5.769856463307641
-15.92394771962957 -75.34188483487587 -5.821316851600709
-16.14535269551251 -75.44939302169769 -5.824596542971571
-16.1442727417788 -75.19682549904459 -5.811581491569225
-16.269449188364412 -75.14874103128551 -5.8079270129393405
-16.83703012224928 -74.8206674429224 -5.78487124852358
-17.16137101387288 -75.87709169981822 -5.835429247004106
-17.094564035786508 -75.00857714355845 -5.791809689120851
-17.37901236989263 -75.24141973110926 -5.800482739427121
-17.37585247209866 -74.7098041341959 -5.7732422099593705
-30.533260232413348 -118.5629537507708 -5.809708892872973
-30.604617485847434 -118.51126668094453 -5.818625622806235
-33.13721284772577 -114.61951886211222 -5.792653643459509
-33.80976667070415 -113.76821754356206 -5.7383121489033355
-33.85725600838076 -113.76924249043594 -5.741023470019536
-33.815860427515126 -113.6757636754579 -5.758618143612067
-33.805127111088794 -113.60011303660478 -5.774195896950695
-33.93800705138924 -113.741473118442 -5.751842464663963
-33.95058742860589 -113.70033986861428 -5.761488572281143
-34.03825138933873 -113.60670054487234 -5.786848921099956
-34.13165111024682 -113.48162859129654 -5.819236385910698
-33.40903275458672 -102.97257161865576 -5.763434635728343
-33.51739075057744 -102.91229822233218 -5.758455408905006
-33.53135209022244 -102.86204371650454 -5.745998012505619
-33.626069560689146 -102.90923729307082 -5.7686495391268195
-33.55972764320343 -102.83923035325591 -5.742548947179851
-33.696960015172394 -102.99425069533139 -5.799344925953919
-33.68168649526178 -102.92489442946122 -5.778480772380332
-34.629496602878945 -102.6905218104496 -5.780152132212727
-34.572651873850894 -102.61829843870237 -5.755857014975926
-34.670030281957175 -102.70985399204842 -5.7878348880496375
-35.52601037757131 -101.81321360357398 -5.745097399536586
-35.59993871063498 -101.79269667537457 -5.739051555479695
-35.88061159685046 -101.99335913515223 -5.789001149136042
-35.83301807285389 -101.97844600670669 -5.785915342256075
-35.966747284497615 -101.98243580944205 -5.784149125496004
-36.044295905160325 -101.93680324243157 -5.769899889972424
-36.04506358753995 -101.90308340546453 -5.76080678220727
-36.38447569789467 -101.92205018607478 -5.754254737716113
-36.4540539591153 -101.9052007311474 -5.746759325807073
-36.54696793434635 -101.93914043549125 -5.751553728697744
-36.18420768673292 -100.19680966120444 -5.829174215322085
-38.63220568473186 -103.45488033693341 -5.745297526138652
-41.495782489426475 -104.26681508892345 -5.762779890629474
-41.57211090807013 -104.26337702402938 -5.747750569558001
-43.82031573133341 -103.12087273252338 -5.8205797893646745
5.498774028657365 -101.04931023303114 -5.651505425455989
-12.595115260939728 -130.62292986305505 -5.676188903850756
-13.273399325833957 -131.2352480619486 -5.6900564799425535
-13.512777677223813 -131.1455777472465 -5.702445041362366
-13.649408096427639 -131.33927506577936 -5.703047064526272
-13.726847051367905 -131.41917375776904 -5.704035400191784
-15.874583995124205 -134.38690469180966 -5.695827975938991
-15.691055982691406 -133.29797027758488 -5.724391361315221
-7.454301512823221 -93.66817313483654 -5.658943884481929
-7.515797326399234 -93.57866326577805 -5.65542902435434
-7.504415213943599 -93.44817068275628 -5.647225464418786
-16.472001923748557 -134.34877850482908 -5.716740983409844
-7.866023858678016 -93.50152952281024 -5.660296598975051
-7.878975491680897 -93.3910519510905 -5.6538988472234175
-25.849623763826415 -123.59815074143502 -5.706720220799696
-32.71668726487436 -115.2715560054087 -5.650702252369909
-33.05578891520517 -115.11280438979979 -5.7000616199081335
-33.57867586951022 -114.003054835745 -5.672812433835624
-33.76299392410733 -113.98700806961504 -5.688213198778445
-33.675205706991356 -113.79908156048907 -5.722962357093784
-33.86617039993144 -113.81717331228819 -5.731197251809977
-25.859792973977648 -74.53674744679961 -5.6568656762376195
-26.797599240874035 -75.20964998184752 -5.678781982598455
-26.909542911412295 -75.17630945782706 -5.6752703987876245
-26.98524280493873 -75.01044454418016 -5.665488116109792
-33.43009612848165 -102.82346390326265 -5.724830291492303
-33.34900609261065 -102.75052249201184 -5.696169983370771
-35.47428204144697 -101.77924207137539 -5.736224983876627
-36.19823000792305 -101.76700380215796 -5.719565827972133
-36.317398463962824 -101.50220237289972 -5.644192873502278
-36.365482329326156 -101.55935139970103 -5.65769836242054
-36.34505814710317 -101.54211994003371 -5.653856651381437
-36.53749507022824 -101.85830110927537 -5.730381079918741
-36.53230212105069 -101.55843106464702 -5.650335119210485
-36.55599986363924 -101.53198253165424 -5.642139457499536
-38.65903190407871 -103.436282421208 -5.735819104941937
-38.641428513191755 -103.35594824962236 -5.717971646660602
