ply
format ascii 1.0
element vertex 832
property float x
property float y
property float z
end_header
5.833053556814732 -147.88736265319656 -6.231504731986425
5.862418645665858 -147.8407127138389 -6.234122731543296
5.569056076044763 -148.71980033864105 -6.1568779126912405
5.538830868210993 -148.58440565674974 -6.174855057387086
5.662015363188392 -148.132229493623 -6.217965672337813
5.771850264787194 -147.88580465834673 -6.236692580932524
5.6100168340097865 -148.09697844337228 -6.22589383441221
5.555626840986291 -148.0584580392753 -6.234374705738651
5.448827192871897 -148.3733941471135 -6.205797678324451
5.457406774566501 -148.286029874784 -6.215365551963469
5.449669040658823 -148.22286162990767 -6.223257885554364
5.485144611421893 -148.08605290344386 -6.23645607291106
5.5290206503292305 -148.06321267617312 -6.235817458224899
4.877748602750595 -140.02001757742488 -6.219480650655327
5.074514679696348 -126.30779260840589 -6.2334459758195475
4.98620430007894 -126.45645138539047 -6.241775759700209
9.67436515984072 -104.39885832395032 -6.175051923026787
9.573739077004436 -104.22664574143664 -6.1668599051049275
9.482309328033287 -104.00374898821252 -6.156794108036484
-4.923602632797763 -135.17541372766433 -6.229068638750311
-5.163276258640709 -135.3128245883598 -6.225946748797215
-5.349064246610514 -135.3682880100704 -6.21891060234837
-5.438835370224784 -135.2368933391707 -6.201962591228517
-5.591430185957282 -135.41986808537584 -6.20772678000607
-5.576775423206238 -135.24872921435278 -6.1941681364946355
-5.723829351008158 -135.4868351512544 -6.2047786719842986
-5.680749039408755 -135.4371193673785 -6.203403368539307
-5.68470151096041 -135.2912583432924 -6.190831542311473
-9.067440555182063 -146.7650987093106 -6.148998822443892
-9.011695840826013 -146.4735148482418 -6.150817957956843
-9.11556786841855 -146.60572216688465 -6.141711471811963
-14.73272788037074 -150.06981332782607 -6.2394758365065845
-14.704825089020533 -149.35292131135532 -6.2224668136116845
-14.826599406784586 -149.27135571378315 -6.211265944101108
-14.685186159362816 -148.86903511599152 -6.2104219130519
-14.85586924881119 -149.0086484685418 -6.20173969171945
-14.872164437091266 -148.6091510707218 -6.188998530621127
-15.079883171853394 -149.31561334582923 -6.193884867951555
-14.803884222994435 -147.98462210194188 -6.175309376587744
-15.055802691240027 -148.82033008749926 -6.18153354279991
-15.053858345955456 -148.75110030019164 -6.179700153607854
-14.940858799272315 -148.2009104822942 -6.1716774340130875
-14.967838991315277 -148.111433458313 -6.1669067423425865
-14.856780247925853 -147.93847542345804 -6.169880120137748
-15.272264460531526 -149.0491337661869 -6.17210185072691
-14.958410395008313 -147.87685523370635 -6.160352116433001
-14.93755596183365 -147.77107918765012 -6.15861345809368
-15.01813137898239 -147.7339103047593 -6.151342278078039
-18.08872441687761 -138.88857957538693 -6.2222662701221125
-18.68883281975732 -139.6680329141676 -6.236273127018029
-18.610066464462758 -139.09991359798317 -6.21074192096453
-18.615579651498802 -138.95430710071219 -6.203050698985027
-18.75390083160137 -139.18679955335904 -6.208982136637536
-18.698993723613004 -139.0150563527091 -6.202536004576702
-18.828403263742295 -138.85041989824833 -6.188546056444165
-18.873583033207698 -138.696614717505 -6.1787091428278735
-19.04515990015225 -138.5175662798202 -6.162132391521277
-19.173927059805127 -138.5753776640694 -6.159648373328231
-19.248398853972144 -138.37027528972382 -6.145851417421085
-19.245221332529205 -138.26316029981547 -6.140479636009406
16.177790629580965 -176.74657268468917 -6.067009317246079
16.063902910326128 -176.81512983427112 -6.065758477242647
21.929269640973583 -146.53567632523718 -6.125995147541529
22.05515697493535 -146.01079517216436 -6.099662495871735
22.07085290941111 -145.94213961920508 -6.096151295550824
22.133517492260992 -145.80760353262033 -6.0872542736154465
21.776617650301393 -146.83001628715087 -6.1453560984848785
21.82819485206739 -146.62293001079843 -6.135239148889177
21.895153944083933 -146.1253549211146 -6.113822561965339
21.974540712200877 -146.06669013355162 -6.106716646285053
21.76883163985811 -146.17300382601366 -6.123404824485039
21.886704826939148 -145.83285220149804 -6.103746795737235
21.932792819601495 -145.48457094458792 -6.087741090670548
21.675147873064507 -146.36900179863585 -6.136138270593076
21.850606271701544 -145.68056490842457 -6.10036810628073
21.8733615671966 -145.61228539275504 -6.0963431875475065
21.824662732525116 -145.53387660586938 -6.0964761022971565
21.876548048344258 -145.40017405297283 -6.088084470616681
21.94498624275157 -145.30090443431573 -6.079888678825572
21.977912002742915 -144.63052698345786 -6.050739189386544
21.728112128248156 -145.16148722474034 -6.088150927295285
21.78665765255854 -145.09885372296415 -6.081990997566864
21.783230827119812 -144.32345342769364 -6.050176232863242
21.638528703517572 -144.72484254207583 -6.076255795667709
21.634193202174412 -144.65435844727875 -6.073656433668145
21.682360405355112 -144.51966549969947 -6.064972113541145
21.72293117721526 -144.45424921042726 -6.0595945537065585
21.720001078013382 -144.1750346467776 -6.047812824920957
21.500646389038895 -144.90976101905713 -6.09257996568696
21.687861415869264 -144.10241972598354 -6.046737874949614
21.326912548769815 -144.74641226522698 -6.096993378503447
16.60700666688081 -139.69731558514678 -6.1375916904310674
12.810092028374864 -140.8242794195393 -6.059269855868147
16.737339945231867 -121.57242463179594 -6.0900842835149644
12.211940848957845 -141.21008190595828 -6.142909809192408
4.32340797037154 -174.86779898031114 -6.064359400130533
9.604967246092803 -150.13795981716737 -6.050434960197842
16.239813817196012 -121.36436528278692 -6.07075083448221
16.27756406722227 -121.15412116849635 -6.057392598334047
16.065227548940367 -121.15028082563829 -6.054585069402764
16.045896326348878 -121.02312640724618 -6.046279189650205
9.63999535462485 -148.76757456637927 -6.1271583385376385
9.652487155172146 -148.5413968931473 -6.137676992588906
15.365335013320733 -121.86489987450452 -6.092492526740445
8.53579171492145 -150.74120256026202 -6.090358316639464
7.350049605259013 -152.00856055958405 -6.058528392958878
7.077358931506202 -152.17742721764776 -6.056718600796003
7.118247761695087 -152.07966074097027 -6.0635210186585535
6.850929917694434 -151.6558930494273 -6.113732112397383
7.652582698636868 -147.5490015409139 -6.083738921053406
7.432128267485504 -148.14420629030096 -6.055672241148361
7.480166812041277 -147.71329241845905 -6.089043292416308
7.557540664347306 -147.63290535318336 -6.087393709171742
7.5810328479130575 -147.57763625485327 -6.089425003105379
6.391067034697883 -151.6674979619955 -6.132908104440724
7.238066999759586 -148.1214862211038 -6.077703459554805
7.290206952000678 -147.8273733872245 -6.099377380936986
7.334790916715159 -147.74560969262703 -6.101959684488138
6.331135857180361 -151.62761005381455 -6.139017101553346
6.4815003449992075 -148.63377487832025 -6.096675036247568
5.590905154972312 -148.84149617374715 -6.1410485691696355
-4.4861391715830345 -166.1522310217443 -6.092704408243673
-4.3283250866046385 -165.20650871149329 -6.1327277617383515
-4.66828450993512 -165.19366590657734 -6.116292887310052
-4.721228007170894 -165.07315497063684 -6.11761474160893
-4.906277034521515 -165.24497736751235 -6.1024987600032965
-4.915764102109207 -164.8326118849244 -6.115853209426184
-5.095557029498824 -164.85658309381276 -6.1057678416767125
9.030262045589824 -102.78731429461763 -6.104565292188776
-5.234276659377596 -165.02552404876664 -6.0928634830420725
-5.28454438278593 -164.91622128204605 -6.093920831508798
-5.335180759832262 -164.80442436763067 -6.094871284764105
-5.2878786582180375 -164.358762014544 -6.112130944606874
8.776976384373162 -102.61922606365505 -6.092436528432626
-5.485082450504457 -164.7028553797069 -6.090260486111918
-5.7892805129800085 -165.39417762976268 -6.051412063362779
8.657177534018667 -102.47623912661192 -6.0843709277965115
-5.891109445600417 -165.44099393990848 -6.044326814564232
-5.595157283776836 -164.2598327193522 -6.098878889689397
-5.740298953385812 -164.43478959657048 -6.085233199860345
-5.849259979278498 -163.96533629862765 -6.094480818988
-5.942602896963143 -163.98787360819287 -6.088503125708046
-6.357210941868003 -164.43842524401646 -6.050947094525798
-6.363642329837961 -164.21509530498557 -6.057588602159438
-6.3648676129026205 -163.9720891637854 -6.065268329442748
-6.392455462199641 -163.80631371148644 -6.068837481954621
-6.563939015605334 -164.03216342104994 -6.051962219587302
-6.625434392607194 -163.85064715693912 -6.054033271557939
-6.776605905526398 -163.9101099007251 -6.043343493537422
-6.758702978344982 -162.99322428307235 -6.072633089818695
-6.85872759479033 -163.02370613872674 -6.065797741355455
-6.861944889714953 -162.81937394141792 -6.071751484626535
-0.47688751651944083 -134.4928500451297 -6.121394910328229
-7.029150375560135 -162.92070577448627 -6.058619560244769
-0.501595148828321 -134.5023816647719 -6.1214475805810284
-7.117063425353801 -162.82509282703057 -6.056189116094617
-0.6575736671132877 -134.368496893447 -6.095665556527832
-7.190954890682387 -162.79569657678974 -6.052486211980335
-0.743928169163752 -134.5469262067545 -6.1152685227608865
-0.7651325032847296 -134.48414055137155 -6.105717501193459
-0.6839114385235379 -134.37694414350264 -6.095506210323364
-0.7581948531692635 -134.32833139588433 -6.085197749051887
-0.8311449837294516 -134.46170814744076 -6.099311388985548
-0.9477538113561328 -134.41996504460417 -6.0875568935907
-1.0683615790577254 -134.37880308343392 -6.075557540134243
-0.9825502385179334 -134.19589870766993 -6.055784657644843
-1.1263939787887949 -134.30334167950608 -6.062377401794438
-0.9744665795330569 -131.7611193401024 -6.099028077253841
-0.9292421786979295 -131.7182239527456 -6.096356232138298
-0.8323040547593756 -131.1709608993543 -6.044167738709712
-1.0602547343230098 -131.7935055892482 -6.099119079073615
-0.889073357120137 -131.25851176987217 -6.051058884184107
-1.145507266189705 -131.7651299061327 -6.093067924028313
-1.2123199607599233 -131.666400636767 -6.08049623623338
-2.0511244948882235 -134.67777379284948 -6.055911827596969
-1.274253832304716 -131.5870822727713 -6.0701515860429485
-1.3289226499760447 -131.53478678892864 -6.062728749244206
-1.4227121252830541 -131.4799189751918 -6.053572357911886
-1.412807189773645 -131.38344197451795 -6.044244243047219
-1.5511391682051305 -131.57828289844232 -6.058487458094785
-1.647370008070508 -131.64930020228994 -6.06186149619638
-2.118903298047023 -132.2039596138059 -6.09777670434069
-2.2217475410766596 -132.23266197158335 -6.09621654008959
-3.3252611859537184 -135.33017387697666 -6.0450178980744536
-3.3702745735786284 -135.34497555619592 -6.04324344431228
-3.6246427855070884 -132.57774483903881 -6.063606442004028
-3.716527807759719 -132.6070171821066 -6.0617222028622795
-3.8165328273941084 -132.6165771596253 -6.057497815911439
-3.781567924022295 -132.60499779333864 -6.0581985706247625
-3.8892199184066527 -132.5721087883673 -6.049514743503267
-4.6874250142401035 -133.28563032005616 -6.073296918530993
-4.549004992577773 -132.89160269924332 -6.044458296538072
-5.472750526307568 -134.43973008800748 -6.1308524236963695
-5.925756785697452 -133.7478920084723 -6.042294529625278
-9.145602910268012 -146.7559815596824 -6.140591784769473
-8.977757271400709 -145.43268953637417 -6.135517132886474
-9.623429956341452 -147.40316565085985 -6.098282684388446
-9.622894821753563 -147.20834679201906 -6.096087029872226
-9.661238255182768 -146.4257316027781 -6.080689867231547
-9.292276115592987 -144.98896703247937 -6.090582541177195
-9.27375695458725 -144.69210547851645 -6.084784268364946
-9.855560644381637 -147.026740290772 -6.0691971597517975
-9.41204272925245 -144.81052080765286 -6.072718493099143
-9.38541333034242 -144.76204089112457 -6.074321296703995
-9.515943865719063 -145.1783651275566 -6.070750206952193
-9.463820085160908 -144.99567200834412 -6.071886986121118
-9.580510099922913 -144.983547050816 -6.058683256080806
-15.089862143442302 -147.49689428916693 -6.13833322529028
-15.09779734977837 -147.434392582189 -6.135740819880069
-15.204178136124488 -147.40406252920454 -6.126677708861848
-15.189020434533381 -147.33371231617255 -6.125548683120936
-15.266206316873737 -147.2582343450296 -6.117190563615293
-15.368321773612548 -146.9310523365902 -6.098406895144266
-15.363520391563688 -146.83255647904076 -6.095410234443831
-15.438815858161457 -146.7573244846154 -6.087102051658404
-15.444447275683347 -146.63227995143595 -6.082315923171424
-15.40120053735699 -146.48585145260404 -6.0804550051448505
-15.467312935015814 -146.57083692698112 -6.078374157723529
-15.568658310379538 -146.36946571635062 -6.063494467552367
-15.55780623406035 -146.27020851772556 -6.06077743858644
-15.66706273553701 -146.16896173816863 -6.048739421661239
-15.698655090620116 -146.24129622220465 -6.048909777448802
-15.737961339475982 -146.12183439930416 -6.0415443679033975
-15.717525067822374 -146.0524688675717 -6.04060518189892
-12.652766201433016 -131.8723727821501 -6.061947554645146
-19.255261430822056 -138.18212370044807 -6.135800016628702
-19.217865965729583 -138.10966721454835 -6.133694762921657
-19.369439701919486 -138.0062762582402 -6.121793753845992
-19.3733122031693 -137.92937983113688 -6.1176837193249245
-19.45340862402887 -137.8377507884859 -6.109441157966747
-19.558630081240636 -137.74062648371017 -6.099936907040864
-19.526247504124836 -137.66980281268206 -6.097577051531068
-19.51914564305263 -137.5942312085629 -6.0939898142935505
-19.539876172176662 -137.51655167898844 -6.088995373842737
-19.767571724707505 -137.39537714344854 -6.072988572905402
-19.75405304917531 -137.16277449670693 -6.0613174222330635
-19.86623004026737 -137.21719791815204 -6.059441125113442
-19.759419458857035 -136.92492594721685 -6.048627797019888
-19.911819536963915 -137.28635819872432 -6.06106785451808
-19.858169733869172 -137.06087884072915 -6.05157490175275
-19.93843339487719 -136.96343572422464 -6.042973638478709
22.533646755649116 -143.8299167953002 -5.980416734343649
22.24633573776737 -144.02247701996833 -6.007481724471616
22.317088262358183 -143.59841553800007 -5.983791284302696
22.422860377451048 -143.17508265360706 -5.957133943586431
22.146210646457316 -143.9401728316394 -6.01019727003416
22.24300553552751 -143.23751161267953 -5.971632999383287
21.901798929116094 -144.40744949588856 -6.046228530770972
21.80724868853134 -144.25591592533053 -6.045774041418779
21.897566362978125 -144.05653419070336 -6.031271997856996
21.73911999374132 -143.407765422827 -6.012069552149941
21.768013798283416 -143.33981527222176 -6.006994910527647
21.337865767482423 -141.88311345788685 -5.961954314394012
20.773100106257075 -142.2139089455517 -6.0156372890762455
17.795673462598323 -138.0203572967755 -5.946892907049593
8.14011271059122 -179.614510152165 -5.951905763445536
13.540369615003296 -141.04509644777127 -6.000705327735401
13.483014207651722 -140.88281355492623 -5.9962313092962685
13.320826058540687 -140.85661241053566 -6.010692631567729
13.154918361722606 -140.99081305079133 -6.035624396165493
17.853902153736733 -119.74059457523475 -5.984786836600106
17.822063314997678 -119.62147512962322 -5.976513037012962
11.131718463604278 -148.35311297207278 -5.998575170282265
11.171175134582677 -148.1915525952577 -6.000465267463479
17.700649142362483 -119.63026310868102 -5.975845621648675
11.08191763487966 -148.08502158387392 -6.013728014600779
11.04896253317511 -148.1561604738238 -6.014609587700756
11.008630057738118 -147.990190264274 -6.0248464417459004
17.540036102964155 -119.69494133072695 -5.977935266672363
10.53092046604628 -149.0296882662648 -6.029697242150232
9.871742670340062 -150.47733556350016 -6.006902393453607
16.51997767848431 -119.5224964945449 -5.9543727256606624
16.477056843593395 -119.41786954054334 -5.947218573132046
9.221219709830036 -146.3230606221331 -5.962580544473515
15.001503096345774 -121.03621510659777 -6.034223206141678
9.163537275136576 -146.11795131464376 -5.9801015126138894
9.041346284954393 -146.250068132569 -5.991262862564832
9.087160904708782 -146.10819378260734 -5.991367101395275
14.840410313257719 -121.04925950806468 -6.032945636017319
8.730491299388369 -147.18639980326572 -5.980026880576705
8.751541828921598 -147.1467258690085 -5.979879696252017
9.016110641828803 -146.2692771708213 -5.993867691762695
9.032700670294362 -146.16113317881283 -5.996648542713267
14.747392458986486 -120.95479710577354 -6.025503696071293
8.59352901506021 -147.35068046155902 -5.986388797204734
8.689307379418842 -147.26989492434677 -5.979772200867555
8.667135036509771 -147.19622251952262 -5.987482405255273
7.367350137622464 -152.25212222823197 -6.036325297329525
8.672053596163355 -146.7067842774427 -6.017365754724469
7.300582014346961 -152.29487851394748 -6.035779084062149
8.533360535445137 -146.84005491913453 -6.027570302706665
8.57273051005641 -146.77951369449843 -6.026140773169776
8.59123089611069 -146.7213278064042 -6.027228852708617
7.103268414155241 -152.49726846474184 -6.026831402736822
7.076227651464602 -152.53538726472382 -6.024608497826795
1.3311372732530073 -176.12151484041703 -5.947261177448933
7.655252138044635 -148.45812528123514 -6.003639473826922
7.729629500216151 -148.05142200643039 -6.032424878099929
1.2156412536379397 -176.04189108248553 -5.946950533834284
1.096544734840729 -176.04975173336246 -5.943371097072393
5.888749483730687 -129.5219388516682 -6.007232178131172
5.826871847930463 -128.97874767957984 -5.952046065934024
5.731715619401188 -128.96590604909568 -5.95010351365389
5.371037597946915 -129.0282418487972 -5.953738650016707
5.295536889889003 -128.95161595999383 -5.94533309037785
5.178812748452516 -129.0233375996298 -5.951589117694809
5.242293242882458 -128.96403717459785 -5.94605567170209
5.13487954619694 -129.0117861510383 -5.9499461291096765
4.016517912758212 -129.90472339240762 -6.028880346964804
-6.096987656686093 -165.225407359712 -6.040215281522624
8.248410643152685 -101.53599601795008 -6.042544680140552
-6.393231877532879 -165.03220862391214 -6.030018067047099
8.082594059639442 -100.74094619093651 -6.0117902958813545
7.921715074217955 -100.83379083249332 -6.011070622159448
7.4950532377983174 -101.76537013178418 -6.031472903578337
-6.849089006609879 -163.87536888275991 -6.04023768848133
7.3502110706025885 -101.77926103294448 -6.028100357493891
-6.922504934138888 -163.8421052253238 -6.036870298029699
7.201724856432879 -101.83350031771916 -6.026428965933085
-7.141404230770735 -164.16986509310289 -6.013914393595596
7.078002898553502 -101.72009912453423 -6.019356735296051
6.684102786230926 -102.56027888798104 -6.037608717802211
6.549694409019486 -102.51549666027147 -6.033007255539932
-1.1552720563799779 -135.35008401970003 -5.943445738329202
6.43595466613792 -102.32870812820332 -6.023771203072133
-7.817661727792008 -163.63599248929248 -5.988943521387798
-7.597747596215872 -162.6425968485162 -6.0318104840140485
-7.826330997962651 -162.861165742761 -6.011086753006832
-7.911908486167998 -162.85912014752412 -6.0056576489924325
-8.14447768868264 -163.16949876940456 -5.981981622633381
-8.187073468324414 -163.067895824682 -5.982113559741265
-8.21207431909397 -162.93013309108065 -5.984516258418805
-0.8561509882898777 -130.90474215661305 -6.016141224566918
-1.7233673147704798 -134.22074348040906 -6.017245123987541
-1.7034829097963045 -134.1901152311375 -6.014395090932921
-1.654216260954893 -134.0128573293644 -5.99403752325853
-1.6432550434112294 -133.88335380078954 -5.977629180972841
-1.6442514035370916 -133.79787911500983 -5.966334591900733
-0.991963358990126 -131.00545698925418 -6.021550886458945
-8.465671783804085 -163.27601223483654 -5.958271330813311
-1.0710467646844524 -130.93941598081935 -6.011987102075125
-8.613286061801977 -163.40221264783992 -5.945212162904157
-8.610553049242318 -163.02577343482955 -5.955981091578108
-8.772319406118202 -163.16860365217926 -5.941332603350541
-2.222087521769553 -134.5354902626637 -6.026461028955937
-2.40763125211408 -134.6885582169735 -6.033439352617677
-2.574105832816219 -134.74754693613264 -6.029349878892105
-1.7105063129657798 -130.67174464054102 -5.960817409051357
4.78914019656016 -102.1085580094123 -5.976460181476085
-3.158878052731245 -135.0879995076795 -6.028666080045272
-2.2836577656081642 -131.1379361946373 -5.984455916425716
4.345763676238092 -102.37777481279102 -5.975029602978397
-3.2270173759500267 -135.11781191982246 -6.027074293869496
4.2067807463003986 -102.38495930071812 -5.971762995853369
-3.3501358335733578 -135.19841857706163 -6.027267683625738
-2.3783397770433146 -131.05466888808067 -5.972172939889245
4.077966751180856 -102.24903087292552 -5.964395817410395
-3.894147865042366 -135.21637071595146 -5.98595548276276
-3.50580116305036 -132.0348352769845 -6.017285351059551
-3.574105731857186 -132.07033844149376 -6.017345377091962
-3.6547133365576423 -132.08597131174304 -6.014852775730986
-3.8892779526448082 -131.86823760976142 -5.982173341432119
-3.927806584757149 -131.88538137117106 -5.981891663006817
-4.175648222779845 -132.4048551840763 -6.018712494443939
-4.216211057264906 -132.15072817656403 -5.99247018053385
-7.495844867195864 -146.11096059116088 -5.947195297735256
-4.389207683118248 -132.50560281352816 -6.016937843110172
-4.567652967688065 -132.69663511392432 -6.025241690643618
-4.492593942768315 -132.49152350831062 -6.010070935271784
-4.432758803555065 -132.36789937573548 -6.001638790953314
-4.433764613557311 -132.29284708658327 -5.994510006918108
-4.436509226330616 -132.21433702426566 -5.986945882697995
-4.371511553659384 -132.01390809009402 -5.971384187728853
-4.662964020417489 -132.9001351192852 -6.038981926584217
-4.678361229006329 -132.77584208194125 -6.026579794651283
-4.477032314235701 -132.07519636805517 -5.971658778268471
-4.774691617682232 -132.84431683716224 -6.027619198369852
-4.543149043745488 -131.8935861611011 -5.950983888785735
-4.765535666220144 -132.0795442084948 -5.956717738195386
-5.8777237434103 -132.60344554594928 -5.9428220705026975
-6.008535674448772 -132.77546900956625 -5.950693913649808
-6.141142381394017 -133.13034151429426 -5.974562707878977
-6.180560547755401 -133.0241884571674 -5.962747579563497
-6.121087716766908 -132.83835262690218 -5.949681678770235
-10.296292644909585 -146.87496576443007 -6.0200898785157
-10.287959834130746 -146.6274673861292 -6.016947241664722
-10.226359784680426 -146.55494269689294 -6.022279447752264
-10.211306389019663 -146.47717206459066 -6.02253885348698
-10.265049830047234 -146.40201004683527 -6.01539254579642
-10.433143351012372 -146.88217531104092 -6.00562375296809
-10.221395046418674 -145.6131579521619 -6.003760557397452
-10.174881901711903 -145.05583578371989 -5.994998562491862
-10.6427813582641 -146.8677999703437 -5.982972545610382
-10.392612211898438 -145.52783454891986 -5.983021171957882
-10.375976230659 -145.38498597496388 -5.981327048474867
-10.40790140745363 -145.16350948905932 -5.972159354729125
-15.67972136322327 -145.91517466013858 -6.038428680376622
-15.724598789544183 -145.8294612282449 -6.0317645017101365
-15.815435699267747 -145.68940230277764 -6.019529224127371
-15.814755562579569 -145.62515831635062 -6.017102475670768
-16.01149002980572 -146.05740035103847 -6.018197755665119
-15.907460331003557 -145.77387734453933 -6.015600970489535
-15.860713654232958 -145.57086938806123 -6.011533305182864
-15.849824397836555 -145.50455103132842 -6.009791222352362
-15.85820840541419 -145.4425735940551 -6.006800132678099
-15.923839213211044 -145.36193327078493 -5.998596679842033
-15.917221811538612 -145.2637431663069 -5.995260869667308
-15.956415635220301 -145.20595064488026 -5.990009525258445
-16.018724513568035 -145.1535550240894 -5.983092624347076
-16.039641290503923 -145.0933471294898 -5.979134044165049
-16.06625651369464 -145.03403663166696 -5.97467852018557
-16.080058575719146 -144.94140368361414 -5.969929289007499
-16.032258135247407 -144.83952717137373 -5.96955377690701
-15.995259583057 -144.76819239951845 -5.969491238153248
-16.16284632702032 -144.73008340518075 -5.954999633479381
-16.176415549010557 -144.66816503523503 -5.95138008918738
-16.185792342182854 -144.60584235249877 -5.9481389174019315
-19.950941499380384 -136.79695731941112 -6.0336634814656565
-19.89375983525706 -136.68689896429032 -6.030312109583714
-19.8699552181902 -136.5728040582164 -6.025318041099895
-19.85145011880044 -136.4173905336486 -6.017867689005627
-19.936375060639893 -136.4761526874118 -6.017316475229382
-19.932564525219792 -136.08145704437746 -5.996562523040247
-20.00134849491578 -136.3026528186134 -6.005350805142888
-20.077250589867724 -136.20585438218396 -5.997036562613986
-20.064854927963072 -136.12769582961292 -5.993351071327783
-20.169224858927933 -135.93196453048148 -5.978484287300901
-20.251949667897268 -135.7817377130622 -5.96697518852416
-20.33672014910359 -135.6335492290903 -5.955480996455027
-20.260844684828314 -135.5719228903303 -5.95534200791651
23.217427735324936 -142.55299462788844 -5.8753631086797995
22.736995269060657 -142.90437984940954 -5.923822792380918
22.844005326728382 -142.39451835411646 -5.8913928874729224
22.642446797615044 -143.11214053001143 -5.939943478149049
22.587691005432163 -142.75015639225867 -5.925841270293501
22.60439996870394 -142.67623821935382 -5.9210427190954364
22.594842429794625 -142.60425679229505 -5.918106778648309
22.524856334295837 -142.82142795200767 -5.933364472251149
22.525064731885173 -142.45912331855678 -5.91528620941144
22.220821735360545 -142.3092856516911 -5.927255081401984
22.145033506408364 -142.16767849266492 -5.92483584569386
22.00240731631654 -142.02451188593815 -5.926564185908275
21.896204178215832 -142.09388557704764 -5.936993412760826
22.06689159414393 -141.3205753798502 -5.884440473673042
21.773246177336105 -141.67398822264093 -5.9226412891448454
21.622947102789055 -141.8139753254491 -5.939843633164997
18.762649995549392 -138.46916858783052 -5.918280798862381
8.092400111374852 -180.97989457890515 -5.902478037344234
8.339745575084669 -179.98595413748532 -5.940936504709903
7.377679466645084 -180.84665618732384 -5.897735895538491
7.540485621434163 -180.09925110901628 -5.926883033946389
7.405055816401178 -180.10331844061616 -5.924955955743133
7.098736621495765 -179.8284186526207 -5.930577096961863
3.5592279296576477 -178.01250323015165 -5.93269658397995
17.200706298820702 -117.9537488838013 -5.860867867317602
16.98746303089035 -118.10179776866087 -5.867640676165619
16.49443165742751 -119.21940543178071 -5.934316311362097
10.032102848218624 -145.65760303767246 -5.869837271761042
10.075041460332406 -145.60734622911727 -5.864796004905307
9.53247285528916 -147.22587137596227 -5.872506288603612
9.629028025178858 -146.88103992306824 -5.878297809411243
9.683695949040102 -146.72815753398544 -5.878451177123558
9.765234202792188 -146.17244196410968 -5.891565451254437
9.94763025383918 -145.7048158355736 -5.881092494204863
9.969509870163218 -145.68080211784 -5.878538486809803
9.603826124341008 -146.73571898913335 -5.889178451302723
9.118472832989664 -148.2149800763058 -5.859700844944235
9.411823930673203 -146.91397476122523 -5.906238193186477
9.475775048897798 -146.9172087476246 -5.897358192972383
9.578880186730311 -146.26523861104567 -5.914520824590927
9.598944024076049 -146.1520264483358 -5.91637911800406
9.67374501817153 -145.9488902125513 -5.913394415108928
9.664793093921576 -145.80708476174212 -5.919742496944117
9.039218753528825 -148.21309577385338 -5.869377200076989
9.097686236360195 -147.91835380920534 -5.883903488366499
9.30029907736874 -146.87838630601607 -5.92330476754524
9.547143498517414 -145.83289223199694 -5.936123867790153
9.584215230202764 -145.8005779994772 -5.931829440896791
8.842037312135707 -148.57167233016924 -5.864366093391716
8.839297370327252 -148.43480736130186 -5.875710744838043
8.938265203502063 -148.16932518605768 -5.884761441466674
9.114657726562715 -147.34179618264795 -5.920503864507435
9.26616333502739 -146.91216949385014 -5.926050967782148
9.388171288406006 -146.21111251097983 -5.944055876164611
8.826292182527782 -148.37859770636265 -5.881710043954934
8.836201200819428 -148.12366517040292 -5.900418159341818
9.161044730353842 -146.93403004886312 -5.938951887804324
8.702188886309022 -148.22061346492316 -5.908674003834731
8.724634981746663 -148.1333242427522 -5.912878960347717
8.743444517986172 -148.08519489149117 -5.914375439044929
8.691393264197211 -148.16754632904926 -5.914124447402545
12.862875447229154 -128.31356458157182 -5.86437309566646
7.673995465869705 -149.52294355388094 -5.898142756033016
7.307248487042092 -150.29664473296464 -5.847663941723808
7.767890132710047 -146.83867472173725 -5.845320459534758
7.67702158886544 -146.93579478664955 -5.8496475204784675
7.723892596981127 -146.8364446191088 -5.852157666311964
5.960924563064968 -150.9673999280954 -5.859967290815405
5.973935181883363 -150.79599674632385 -5.880528853927986
5.854746677636464 -150.9039125911832 -5.8736488885249445
6.4185201731178525 -147.95651389742832 -5.898836540115247
5.640978567711931 -151.0522171697176 -5.86594106282473
6.342968437292375 -147.8802611806704 -5.91732659451316
5.443408601506529 -151.20621622994818 -5.855485973595451
6.0812180776900755 -148.54930018431236 -5.854100427798109
5.378588721159379 -151.22741884673604 -5.855607378176257
5.39563195390052 -151.0854775113536 -5.873183335342475
5.190545803174993 -151.31944594418704 -5.8514627967332995
5.698475889046275 -148.60144823323367 -5.882709892946758
5.773630573573003 -148.17082743140728 -5.937746123930968
5.583327787598276 -148.4827206773786 -5.910408316698922
5.6210922476014025 -148.3929122202751 -5.920160983056258
5.456501066250409 -148.52459538832858 -5.915263927283493
5.379365325945918 -148.4919147330032 -5.926677915158747
5.443065879569359 -148.42129435393144 -5.931772167272433
-1.3736640271689569 -175.7508343262894 -5.876886064928539
-2.235269439413175 -173.18707781547207 -5.939318411262258
-2.322779106869427 -173.0508006272538 -5.941003613335451
-2.612650998965032 -172.75297048512806 -5.940640610725465
-2.8318115735465597 -172.78164594868161 -5.931053331800544
-3.1743635629305578 -172.1780025479033 -5.939074844127915
-3.659866590422528 -173.74194316525336 -5.8632781613786
-3.27326088575997 -172.10495690550485 -5.937712747134768
6.674032298591297 -127.99760936126778 -5.858190231275975
6.108471765886444 -128.5691418276608 -5.912621664035514
6.238529170600398 -128.32676238573313 -5.888913926321442
6.045037681013873 -128.61350531795117 -5.916625199304532
6.04034268991241 -128.46983739858123 -5.902185937113016
5.8544718553479 -128.73287830057504 -5.927493141787668
5.787377704581831 -128.62276911666353 -5.91590168596258
5.671726855989809 -128.8375021726402 -5.936693525729336
5.566522764818382 -128.8570419053263 -5.9379271304447565
-4.918544210918178 -171.6769272874257 -5.881761268767008
-5.023136488056222 -171.65116089133548 -5.877836851562104
-5.405732824495411 -171.44594297774873 -5.867014719048493
-5.486208525104605 -171.32955291607985 -5.867272991431678
-5.562503877699891 -171.19937374462341 -5.867974191090216
-5.668387432399867 -171.18913682508853 -5.8633059311093145
-5.767618284236796 -170.34797191119506 -5.887022108084058
-5.843931738195359 -170.2365860020717 -5.887120954453929
-6.073249942187163 -168.49469680879162 -5.933974702410695
-1.1634557906149519 -135.33106093405303 -5.93975134522672
-1.1286099227818986 -135.09514132301894 -5.903490706607953
-1.0960521525285893 -135.03246516083692 -5.895481460336693
-1.2345283118974397 -135.3305433409759 -5.934368822898236
-1.1814967963798473 -135.16702679219904 -5.911513405169867
-1.65583865460127 -135.53147898774984 -5.93359197256681
-1.6146426169328907 -135.13180572480198 -5.8728135781429
-1.7453367294653834 -135.2559234956167 -5.88219935708435
-1.7128815474691457 -135.19910893597722 -5.87574847413884
-1.8612621350613054 -135.25830199560892 -5.872984199469702
-2.106324314812582 -135.2094784624635 -5.8444551795005015
-1.7292635110639087 -133.46666602551016 -5.917732689921514
-8.728605040836676 -163.4572019702319 -5.936100770445016
-8.941484601582001 -163.323031960935 -5.925982756256564
-1.889836820413281 -130.3756500306514 -5.923930293951556
5.418863996533891 -97.91140009468481 -5.8519322805716625
-4.729527454795973 -135.4206874285265 -5.938801887596944
-4.875145518217935 -135.4579885182919 -5.930199512621568
-7.606772601738473 -147.01748690470586 -5.9270167105585205
-4.868294151495619 -135.04389849803582 -5.884322337829079
-4.845611553579374 -135.01941886209153 -5.883502356098049
-4.075643097109929 -131.45077745230222 -5.932708308609113
-7.661454151813214 -147.00393422184194 -5.919804141273994
-5.126781551470487 -135.70547707111157 -5.934927300990613
-5.105258717773712 -135.68175777925444 -5.934299740668219
-5.128915269364904 -135.06946753399652 -5.8645879463981245
-5.166171273251006 -135.1042358957057 -5.865208825508557
-5.3095707097168905 -135.08371751026698 -5.850296713357999
-7.904551092789803 -144.5590236619319 -5.877966813880484
-7.87308782832845 -144.4220419605525 -5.880149242020358
-8.071744826963235 -145.1878741605341 -5.862420634328976
-8.103544969386212 -145.12230909090263 -5.857184007278026
-6.174316605545317 -132.77780126167173 -5.941101270449706
-16.303279265033186 -144.56095595036194 -5.937139519621789
-16.373669806782836 -144.34397572999416 -5.922673703661819
-16.451302400260747 -144.25763624849267 -5.913037440935097
-16.395848042323728 -144.15387573490517 -5.912934154966604
-16.604980338844765 -144.50826818950114 -5.91157330573028
-16.464331991282602 -144.0336039231946 -5.902484688348064
-16.46658175514848 -143.90519265890356 -5.896789329261161
-16.516302205950048 -143.78422005270133 -5.887680563655052
-16.57029797084988 -143.69378694334384 -5.879507906386432
-16.59615802807922 -143.63178519696456 -5.874815979660184
-16.64562972451247 -143.57177122760123 -5.868275185131674
-16.6114672115922 -143.50408462945634 -5.867985106681932
-13.799808176955432 -129.56018532365977 -5.878546211510177
-13.930693284574645 -129.54541250325667 -5.872581934435392
-14.070207713441711 -129.52264349101694 -5.865751969908445
-14.83519717329313 -130.00967157283978 -5.864889093171643
-15.059373485137646 -130.02148728325918 -5.856725569668528
-14.98387803827269 -129.81668622185182 -5.847549683438378
-15.109620447466162 -130.07188336746896 -5.857758151914249
-20.495512685657978 -135.4205908464658 -5.937338407920034
-20.54351638305054 -135.3221515527632 -5.929964025881798
-20.59501786910472 -135.2223719159804 -5.922474453127236
-20.765771086918562 -135.04923981944475 -5.90590742798816
-20.741498883371154 -134.9298749845501 -5.9004727646502575
-20.964632914764337 -134.77379055476325 -5.882673545145883
-21.006747640610776 -134.66889295472242 -5.875166662248802
-20.972504086726588 -134.58840591357833 -5.872312974642103
-20.963205939382778 -134.50818589066037 -5.868306425782256
-21.002908694397075 -134.41157105946672 -5.86145430461744
-21.11794648590885 -134.28300667433027 -5.849565576581888
-21.107529543673678 -134.109038043294 -5.84054753145567
-21.17567752878255 -134.17284443659838 -5.841203049105042
23.855620572415653 -141.57768525649738 -5.783215052614864
23.96751987104716 -141.1912955293507 -5.754705450922002
23.706551047290542 -141.50505093106366 -5.788820543822341
23.62907166823183 -141.43053268916634 -5.789798911654077
23.15894048975724 -140.99439321318349 -5.7958109263375
12.922808978486062 -184.8997038283482 -5.8055268602200165
12.794818453125947 -185.02354823836453 -5.800762707121198
22.671366755028735 -140.8675930582449 -5.820002044440711
22.451689057774754 -140.6600617619536 -5.822127135457738
22.449051241644913 -140.587492860717 -5.8181317993858634
22.439911433805456 -140.3740212928682 -5.806113229675139
22.36827026247767 -139.512680144691 -5.7581905780460865
22.426940293755578 -139.43230128374532 -5.749451483310515
17.903426389309622 -135.9724847288984 -5.781684371449451
15.70780363999544 -141.1364568780696 -5.790723544840327
15.275104140008839 -140.77907989944183 -5.811790627100217
12.419921753770428 -149.35038113799504 -5.826507474924572
2.365805536404019 -181.44617929790104 -5.77768890327049
2.229666637054429 -181.50395881720482 -5.772052588994954
10.055902272471268 -147.2116827146741 -5.8024502756147935
16.99585635412179 -117.14997714799472 -5.8058140099793265
10.026881870914519 -147.0755062486952 -5.813505921827316
10.03756676242273 -147.0432155913005 -5.813663994024468
2.0948620414358614 -181.46930656756604 -5.769938486914429
9.655571644662372 -148.15316286267426 -5.798010478271241
1.9591116648536895 -181.4501976883711 -5.767068721641262
9.251291274998819 -149.41077952473668 -5.748209343799553
16.534639531709523 -117.70850301430426 -5.836201829479172
16.640929168186055 -116.754233625052 -5.775112579958115
1.540095856554127 -181.4100026269636 -5.757504279513326
16.335958157859455 -116.87188882388446 -5.77882748956549
16.37082793576592 -116.61508762994632 -5.762656743163269
1.4027472315518712 -181.48491050676415 -5.750952478081679
8.61038616740722 -149.8430681397944 -5.77652114819588
8.513833094652572 -149.78506544562308 -5.791679090439427
8.431308272328693 -149.74099654885418 -5.8041103415410085
0.8693615041480214 -180.956543963564 -5.7556050760886635
0.735597053026634 -180.86525035576423 -5.755203061292525
6.789078334871752 -151.42319608019721 -5.754972125232553
7.533710138677385 -148.07070718274522 -5.748275414346093
7.295826598687575 -148.33059438315874 -5.747495640397476
6.985980212997493 -148.57613617555475 -5.753547576850021
6.679689951816812 -148.53026696090808 -5.794087353466775
6.580416871705771 -148.5398298145421 -5.803681848574044
6.623004023109915 -148.52445049951686 -5.801091888083591
6.495893197486825 -148.56431199314702 -5.8094531557142615
6.304304133154737 -148.78947577241254 -5.7981969926956705
6.381285832802606 -148.62303253802608 -5.813454876448475
6.432930583159213 -148.57275267448153 -5.814974586978222
5.635073360361965 -151.40035271971888 -5.821804223271836
6.20679573771205 -148.95361759389223 -5.784539052227858
6.252645699257898 -148.66051005017547 -5.8214267219015845
6.292685100249003 -148.64309336355782 -5.819795613984003
6.195565984955047 -148.67468460745656 -5.825146939517904
5.980808183357638 -148.91265031470988 -5.811666443975276
6.118705020090588 -148.6565993927461 -5.835277559544393
5.347230115295574 -151.48544260917598 -5.823458013452189
5.366080746915402 -151.3394921505319 -5.841633106835307
5.004124648624809 -149.55998279437696 -5.788407662791855
4.922908652743142 -149.66494943798904 -5.776531773606015
4.980197567870408 -149.57651692722388 -5.7872474508309315
8.047510409604815 -131.32287318691414 -5.7513320620486645
7.872167698131984 -131.32748277377652 -5.75587676878523
7.81301748901831 -131.30162472074028 -5.753931379100972
7.798532188872908 -131.23868311606554 -5.746157322287565
7.108995688617326 -127.72368491723486 -5.832664399522874
7.180705835099243 -127.68478800332872 -5.829133639659727
6.779690527015934 -127.21649072573129 -5.780390714186336
5.8690503908531495 -127.45998299451882 -5.79876747940939
5.7477924333343315 -127.51287320805028 -5.8031322393012985
5.3640322792579544 -127.73866235436701 -5.822630274743357
5.475127606050155 -127.52047002792295 -5.801568569285044
5.298787082583696 -127.69049404854076 -5.817141467273636
5.180382154186931 -127.84896455677722 -5.832143274098752
5.209196003900395 -127.50986141301765 -5.7978068114106165
5.1399578641027475 -127.58141588968759 -5.80446836558238
5.132549736037399 -127.3936724386032 -5.785166236803736
5.083775828104189 -127.37429272368159 -5.7827497799821295
-1.0446671825716283 -135.65304560892366 -5.7541198113762775
-1.0889190818172054 -135.6150399000352 -5.742714709386781
-1.360413458224724 -134.46872143235566 -5.78365453165821
-1.8093909731361613 -134.95215993550758 -5.828310766798012
-1.6577335389306243 -134.50239044101485 -5.76734088525975
-1.8688916284639843 -134.95847215841977 -5.824492588456508
-1.7209419193060234 -134.43400294059583 -5.75138270979509
-3.555685316054281 -133.19422600148553 -5.76553845849361
-3.450327325942741 -130.18024702579345 -5.8386032820049705
-3.428743346055678 -130.11857066553 -5.833439659399897
-3.9452475838247807 -130.30142073871966 -5.827704670890384
-5.344885324333349 -134.65359576198028 -5.799088039519015
-5.335517488925391 -134.6113469709722 -5.795135302346919
-5.400072429701795 -134.33621339332777 -5.758380704050087
-8.53795006214054 -147.34691613825132 -5.799221087564234
-5.687221430062155 -134.81919512377036 -5.7875662900859925
-8.585736574698249 -147.32397354593957 -5.79294430463095
-8.725827330323973 -147.49289187902752 -5.772736353271458
-8.658477777287102 -147.0677339238805 -5.784766048733426
-8.224991679189952 -145.0070405417242 -5.838437229530711
-8.822609663618973 -147.3778717513287 -5.760605198404544
-8.80690031385064 -147.30161282650903 -5.763264208191538
-8.790738042941326 -147.22549610953067 -5.765919407323671
-8.766125290971626 -147.05309518567645 -5.770175494311794
-8.698782556344126 -146.61936661686957 -5.780709765898986
-8.197855705624244 -144.5824644863674 -5.835988426486178
-8.812378892667493 -147.0302920020658 -5.763992411369156
-8.892953697419372 -146.79704731729166 -5.753682453868529
-8.868495809406117 -146.56378123644288 -5.757266377055764
-8.769863360277613 -146.3908103730955 -5.77087853640281
-8.921044580475431 -146.54222490513007 -5.750010261333235
-8.724630422303555 -145.44912860680984 -5.77211202118965
-5.719194141336759 -130.89221548933918 -5.793919456758205
-5.833025452349992 -130.97499040175987 -5.795468805277464
-12.500331768876224 -154.10835107736742 -5.819884914583067
-12.493133837395703 -153.93472791880026 -5.821690527155418
-13.094670782373694 -155.16309388888664 -5.75718250656449
-13.230907905887417 -155.3789008801377 -5.742964953390503
-13.14398163683049 -155.11645954385548 -5.75306235827207
-13.226224301291772 -155.09844418284513 -5.745598572489827
-13.079669982692096 -154.16825813606948 -5.765449814327693
-13.152930868255 -154.14179097484484 -5.758677910700735
-13.31496890781092 -154.10032369919116 -5.7436228701945
-13.155269504939287 -153.46224093691015 -5.761492492240471
-13.210526803212057 -153.41978816911165 -5.756383228970565
-11.510656316585981 -144.8245559238828 -5.840280128147864
-16.998220842712442 -143.01251432819925 -5.815674067549192
-17.034202802253663 -143.08024732732238 -5.81591787466016
-17.11125472586317 -142.95497360925134 -5.804169842323644
-16.85039607772595 -141.44807396715922 -5.752187970704039
-17.24437638443577 -142.76164489240531 -5.784882269015593
-16.85660080477962 -141.3861866303685 -5.748550713248332
-16.93035933614173 -141.32187720291265 -5.739594474980094
-17.470406684870056 -142.84062807056895 -5.770857826078084
-17.394468236800712 -142.70337209332283 -5.770403324966871
-17.52285731579782 -142.9123865606546 -5.770129814232403
-17.63406235500734 -142.64749442339962 -5.749126933972733
-21.14118624970712 -134.01051705999654 -5.833826230722603
-21.2744298426054 -133.69165720815906 -5.81076242875412
-21.273059505877942 -133.5994459368366 -5.805836853349283
-21.373628017458678 -133.8401536702608 -5.814697565362024
-21.373478683223745 -133.74955746302936 -5.809819508050016
-21.29708254149134 -133.50205233196345 -5.799439694483913
-21.322534654893115 -133.4035182713923 -5.793032637185176
-21.41835841504117 -133.27172871098477 -5.781719820409689
23.559902900428984 -140.36737240226333 -5.73379085289884
23.331974946759523 -139.47479852101608 -5.694247916183887
23.444081267901836 -139.15805891670996 -5.667123846819111
23.176944983309046 -139.0404540052507 -5.676658567946682
22.57623195863868 -139.33918716004348 -5.73396406998107
22.653104576541008 -138.73623175799696 -5.690209304924201
19.01263047946571 -146.75339297919476 -5.682792129593524
19.111420888250038 -146.33427185371858 -5.664031655562438
19.00694790886434 -146.49993031468793 -5.677840263007407
18.959141835767383 -146.35904933540587 -5.679193408329374
18.642821878895287 -147.0347870723147 -5.7234058351301975
18.53276954486255 -146.9368341108415 -5.731989902132904
22.608831333541936 -128.5809947999812 -5.717825388795639
18.42017940606483 -146.52587050658033 -5.734428162378943
13.399770987606463 -161.9153669455857 -5.705793480656764
12.504055786440876 -162.6201493807293 -5.694971336821337
12.401245061340655 -162.0724801917407 -5.729819611611113
10.74165343496947 -162.61291971619676 -5.741534106472109
10.562150590038623 -162.99087263064132 -5.72191070529003
10.58033017035187 -162.82957106588987 -5.731561381121178
10.63448868268269 -162.7589223350619 -5.7348341732775285
12.739172790947325 -140.73877317541144 -5.667758907273731
10.130968001058406 -148.95930902599437 -5.681999279954057
9.698526652911836 -150.02195535263877 -5.646385101443311
9.678235883955525 -149.3073322478943 -5.70871652583791
9.473574911288916 -149.58057426313457 -5.709133261979876
8.69121264650203 -150.1026241522589 -5.7435861202290495
16.230896465616105 -116.23652243300472 -5.7357304833959795
0.43372955936134927 -181.92989534916563 -5.70710864768101
0.5884880295794681 -181.28495629773158 -5.7353895574618265
0.2959026749366602 -181.96302850530358 -5.701755998791434
6.975293532255392 -152.16279121103662 -5.654057983812949
6.872962879296462 -152.13677628660324 -5.663422508536142
7.659968230239462 -148.7998334722528 -5.645135263934904
7.808335864085551 -148.2528079506915 -5.691242116854346
6.8097488024738215 -152.1880602409202 -5.6609030627154056
6.826886927708514 -152.13316358220257 -5.666599028817494
6.702496188070364 -152.1455591049812 -5.672364577600793
-0.268293919505304 -182.19836001323097 -5.6759875562068896
6.893940116847738 -148.76872949638204 -5.738777268007645
6.431651754125208 -149.48258556410858 -5.687392876740149
6.411635239779275 -149.39059217987295 -5.702490528627007
6.455648558780687 -149.29058949140878 -5.712581675001446
6.878929845703493 -147.26826438078893 -5.656897379149564
6.830588146717663 -147.29187708324505 -5.661138219600364
-1.14662662856014 -180.73940412557096 -5.701678595009427
5.617154341735818 -149.83932310564268 -5.702392044025334
-2.5280861791243607 -179.69957640041696 -5.691782513489243
-2.6702912069885487 -179.7756592553148 -5.6838792103360545
-2.7855992988570835 -179.62304902987424 -5.68513385969041
8.176897439751635 -131.1918437726977 -5.731941857333917
-2.937452326242261 -179.77352531131254 -5.674088236823872
7.781305187225693 -131.18345863832283 -5.739592206782905
7.793269727350908 -131.07649553620996 -5.7256427648259995
5.104100384318656 -126.80150389733468 -5.7245079725428205
4.898519693195936 -126.17271595442907 -5.657821223995361
4.611613551115396 -126.50080910651826 -5.6878118457735445
-0.8921800792081307 -135.1885569208959 -5.675056801547213
-1.452445521456324 -135.64652441638088 -5.7148987115922445
-1.4516811445815343 -135.59349850475962 -5.704732018152607
-1.5875614775792355 -135.75957609349933 -5.72321734229056
-1.4575480001671093 -135.52640577100615 -5.691203276479437
-1.6721599934985603 -135.70778538659002 -5.704770140170466
-1.7376554496003613 -135.77128157210967 -5.710112478173056
-1.8331682426442424 -134.39976341018757 -5.737258322792712
-1.851853772486986 -134.2572601723165 -5.712644534617926
-1.9050966103579248 -134.35132865976917 -5.723812701323969
-2.2184033902859195 -134.4171654096298 -5.7092587193404025
-2.1544672176274373 -134.1769885111852 -5.675942775110582
-2.092806203623364 -134.06829822288546 -5.663318802817161
-2.494264348857115 -134.59469923912445 -5.714095544733624
-2.4961705050019525 -134.47092765408829 -5.694423301093196
-1.8412909392188317 -131.650194096698 -5.669973631026666
-2.6613784085287753 -134.42785995796893 -5.673336532551085
-2.1632524663201167 -132.26892426063125 -5.73471681572791
-3.3049443324299626 -135.08917429876243 -5.71497699973525
-3.3364115120049247 -134.99498751604648 -5.697781045652194
-3.3339757827998158 -134.9468747258424 -5.690801975433179
-3.4916093658138676 -135.28628021860973 -5.725558654823352
-3.7462741517478424 -135.32544895613933 -5.705079728289788
-3.698721871318524 -135.24039562916676 -5.6976280865211315
-3.633381054127363 -135.17887521032128 -5.695329828096483
-3.773810235499857 -135.36131011883933 -5.707401894378183
