ply
format ascii 1.0
element vertex 822
property float x
property float y
property float z
end_header
-16.247304570469527 -195.22566475723897 -9.26494699020349
-15.950154056826504 -195.30996502178942 -9.297128484896472
-15.847519204592476 -195.35654240344314 -9.31456056080436
-15.788607115249699 -195.41853416104448 -9.284084774736398
-16.30253181717648 -195.1036094944817 -9.277881436003007
-15.892200238541236 -195.21817272780714 -9.322860589509785
-16.368103908825077 -194.88853439158547 -9.282704979662403
-16.32242340735185 -194.95146520469885 -9.260395570213094
-16.24176323885346 -194.9780993766312 -9.253950962406659
-16.176699306295507 -194.96106937108553 -9.269093260225056
-15.95130608446514 -195.1131845696922 -9.320820179303515
-16.293845227786125 -194.8373853091817 -9.292914018118767
-16.208700617935087 -194.88648453508722 -9.275666019795443
-16.105485481551987 -194.9091128771096 -9.296598744280956
-16.26687149383281 -194.7639657807053 -9.303434923018386
-16.1866688354257 -194.7916966901629 -9.297283418895585
-16.073885554837602 -194.8444141663313 -9.299131317520146
-16.032725157416582 -194.8710643280337 -9.290499583236283
-16.231746235818832 -194.63808297053734 -9.280238498207424
-16.099186243007306 -194.70954401290211 -9.31884065268057
-16.040067808519748 -194.70983441855623 -9.320871359638415
-16.261069215443836 -194.56545161665366 -9.283316908273328
-16.20480304755148 -194.60098950261127 -9.25654455116776
-16.09670081926599 -194.6091797692298 -9.31818445431687
-16.332169261015455 -194.36704548322882 -9.268513293435724
-16.26072191359313 -194.4607349687263 -9.248091680436465
-16.143640167114118 -194.46442886602654 -9.310750167916865
-16.06056205832209 -194.48573785988435 -9.307228015939323
-16.196724277175264 -194.3636004422749 -9.30101172993308
-16.133125372185855 -194.37946772710922 -9.269658784903427
-15.865769958678648 -194.43732008945423 -9.278669132647273
-16.40859342724988 -194.2072915893947 -9.249280550703494
-16.110489781017936 -194.30736602257548 -9.249308926827513
-15.974029556210722 -194.3327754596751 -9.239692835608453
-15.896992364084134 -194.36202374250965 -9.25850679315374
-16.149869352173837 -194.19611638398672 -9.23539017144424
-15.926795472654696 -194.23382990383283 -9.268706341970816
-15.900281542559535 -194.2628290624326 -9.276579714031712
-15.934501018047394 -194.12805840139504 -9.289053627534448
-16.336161647734208 -193.89753716049523 -9.236872549252972
-15.961199453687435 -193.99031327534766 -9.269506593157004
-15.931361522449302 -194.0681429396431 -9.282047418829976
-16.065906377307424 -193.828781338088 -9.31193506863542
-15.952952257686686 -193.93054129664782 -9.26110245332258
-16.082142149230464 -193.73159835575376 -9.27001446687745
-16.014218990795822 -193.79084302439148 -9.260923623423864
-16.056821296598205 -193.66213482987095 -9.263853022319948
-15.999900484375193 -193.71123777058745 -9.237875382260293
-16.04092293715289 -193.60145158782296 -9.235695029962876
-17.9908698445048 -199.73944847286575 -9.247130950850988
-17.91217072831768 -199.57726092975682 -9.242172186104192
-17.84331655063501 -199.49899882825883 -9.203485617345178
-17.819037073858873 -199.4367007929916 -9.202825427680422
-17.877140381842132 -199.28288458485022 -9.260333908955836
-17.67597836306791 -199.33725770253625 -9.23329988042159
-17.841923133386555 -199.20145347280013 -9.250951900001796
-17.599668751692672 -199.30366233317034 -9.241709806810542
-17.7817933933594 -199.13015314315157 -9.261947245284516
-17.672282580075763 -199.10259172579765 -9.256630710334216
-17.32005603091192 -199.24128889371912 -9.24692311456534
-17.505954801702252 -199.07334384011278 -9.252969981121025
-17.296187298447393 -199.2072790812842 -9.246364248398242
-17.22497863578976 -199.2090282114148 -9.23825023043789
-17.68486938385354 -198.96509417598887 -9.253529397561422
-17.54758503935528 -198.94933660756342 -9.256339455032528
-17.409252309881495 -199.04969311985425 -9.25489768510975
-17.2909759665542 -199.0330049439651 -9.263891724547731
-17.155185270068756 -199.1740646780341 -9.239579154946794
-17.77263303115174 -198.7805394201474 -9.251932082148873
-17.57786331688208 -198.86032163283784 -9.254063338184087
-17.25698752188938 -198.9457944260601 -9.262967500828683
-16.917924664205014 -199.13445205227802 -9.263108314583896
-16.852959967202498 -199.11350626721315 -9.259063438897078
-17.731956330349885 -198.69104262517547 -9.24985044942524
-17.705148327796746 -198.74126369455414 -9.241316809818032
-17.575683977108422 -198.7765857857678 -9.259546135186298
-17.506294207128477 -198.76534195330453 -9.260891409876523
-17.39528868362607 -198.86932676096217 -9.258443535873544
-17.337236114114138 -198.86984647361768 -9.259665255544014
-17.17850746712394 -198.938280102774 -9.258440484077795
-17.12314979664042 -198.92560509092723 -9.259375786305805
-16.79260886909671 -199.07509573655457 -9.25191752191231
-17.702210002063403 -198.59984088885767 -9.250017197731262
-17.589515221322678 -198.6149590040619 -9.226997665270533
-17.09240145603094 -198.6968625223803 -9.257809841263917
-15.04872808384192 -198.08286136923778 -9.179725084410656
-14.977202640298788 -198.100897919801 -9.170206191002983
-14.889614309090557 -197.91813055010783 -9.168121132163492
-16.59367761573455 -197.16036260779632 -9.223951043880131
-16.535464026732235 -197.21345337212716 -9.242626126375992
-16.460919086927067 -197.23645965348072 -9.23749200977575
-16.3738863256058 -197.27728315778913 -9.247582932046669
-15.046405588580548 -197.80819433297705 -9.193134594718618
-14.958554024432082 -197.84181829239594 -9.169025469749181
-14.89469397640544 -197.87637802935865 -9.166924152592808
-16.65766240606138 -197.05642136178412 -9.246631615880254
-16.598801193639105 -197.1007801758731 -9.234431950027492
-16.426395314396995 -197.19464638865904 -9.23547344177793
-14.815777669468368 -197.75373014490472 -9.161870067981953
-16.439533772865367 -196.8162011355512 -9.243362848895597
-16.390111401865 -196.75223875397126 -9.236882925381831
-14.749205960903637 -197.01499093133424 -9.166521610014087
-14.710309881003667 -197.04234102125812 -9.15845666675275
-14.744495041450719 -196.9624178145193 -9.161800579871953
-14.690875397975768 -196.96650613046722 -9.159884626622523
-14.706340799672132 -196.86380055602567 -9.175427132399042
-14.66678574451424 -196.9026635711035 -9.15646378586842
-16.145865130307573 -195.61017480897686 -9.21885509381957
-16.082207862587385 -195.6449648245497 -9.20446225451134
-16.149329210348533 -195.54348431440152 -9.185524143127642
-16.051418409961336 -195.60429855299665 -9.193804079527713
-16.15637978731318 -195.3900691595027 -9.23269478944148
-16.10679236632904 -195.48487316971978 -9.193019579591978
-16.162245522663795 -195.35568041187364 -9.221508142344252
-16.253277861634245 -194.44873383976574 -9.222172623494918
-16.191160593434912 -194.45937189586465 -9.176632801966713
-16.308292509606726 -194.3015631289641 -9.213226613297625
-16.223154999057215 -194.33689998221513 -9.173035343629893
-16.324531318354953 -194.17425566302833 -9.183035031126254
-16.270712920591933 -194.223355281704 -9.188115359540612
-16.05850351831842 -194.29744963848236 -9.206027103065194
-16.00030471809477 -194.3232254011682 -9.2157041769439
-15.913404879443414 -194.39415372364508 -9.230401932910807
-16.437422779474943 -194.01487239061208 -9.211597714636332
-16.316428219626406 -194.0695171407722 -9.22291635843249
-16.066147913277288 -194.24236773988713 -9.18327588057516
-16.500987212205526 -193.93847903767107 -9.2269223682259
-16.296476929222486 -193.99493495342634 -9.213689455570352
-16.212617640341655 -193.99323742750653 -9.173966271393004
-16.1551971961313 -194.06991565469346 -9.187910830907802
-16.366920570579776 -193.84398598354005 -9.18181916000211
-16.282438904300868 -193.92768623075392 -9.201665866642005
-16.431838266813976 -193.7478768974378 -9.207106796929036
-16.326997269360994 -193.77724051374148 -9.187838970061208
-16.428138057156925 -193.59971166804704 -9.195757136552388
-16.013005144628423 -193.63272455647336 -9.228369336238393
-16.011011755962844 -193.61554652039064 -9.211889725677544
-12.003267906495985 -201.93468680055102 -9.092683550960144
-11.97266103643564 -201.9563662523541 -9.103804598712115
-15.534487738127833 -199.6957342693754 -9.078411009317382
-15.53251758955647 -199.67788783435012 -9.073563592652098
-15.490153023590874 -199.6679193665768 -9.07999787195944
-11.990634629212382 -200.67287323391824 -9.101052889792827
-12.464808846954417 -200.26471145251068 -9.079842383237667
-15.04122551174127 -198.4355299245626 -9.096381213393242
-14.9663592612714 -198.33029808399763 -9.12963038372274
-14.856068571143846 -198.35858395024408 -9.116978287430372
-14.73418260330704 -198.39707880102443 -9.073885327424636
-14.880677558442162 -198.27856554002773 -9.091791178926886
-14.841612905393557 -198.2806951730102 -9.100842105212239
-14.794220959431017 -198.35591272526867 -9.072197404763058
-14.94986923426924 -198.10023717667943 -9.148254478150836
-14.884283155430882 -198.1673932500829 -9.128646427106665
-14.780976453082708 -198.23539966204075 -9.098387753415173
-14.706441201254302 -198.2263255645841 -9.081170887356235
-12.959804084600464 -198.94838495644305 -9.070203615856713
-12.766932961101828 -199.00645762305965 -9.071153203536639
-14.795542078560159 -198.05914825566262 -9.13705194242036
-14.772632436240746 -198.080407360322 -9.12060407037644
-14.667548205839044 -198.17496956609085 -9.081770358387804
-14.62616367275974 -198.2128837416899 -9.081731959606133
-14.946588863945541 -197.88295443440256 -9.150710622594227
-14.915153061841451 -197.91534091899734 -9.148871851085158
-14.791807651192341 -197.97424021361581 -9.146973140198899
-14.719969802265409 -197.99564054359152 -9.126072501153125
-14.615917699835379 -198.0393768282715 -9.090414111189627
-14.56129613407162 -198.07960984151026 -9.077811908721324
-14.943664270071988 -197.857187738154 -9.151498616722863
-14.882724191775463 -197.8354858928681 -9.1350471330334
-14.690948294707308 -197.9503658444137 -9.118032078597638
-14.577324367787453 -197.9748658852463 -9.089003574636772
-14.51783629208569 -197.99158366312534 -9.082367134367455
-12.915126860460914 -198.60083504451873 -9.069322403683108
-11.617219983462954 -199.1404547663594 -9.08510281566146
-11.408290853845267 -199.20034858784751 -9.077667667283785
-14.913222061517642 -197.75760225401578 -9.136504981450097
-14.838626629914184 -197.75721756261072 -9.126522435441236
-14.761036407223608 -197.80859960279724 -9.115795675758806
-14.597914070178955 -197.80827564855048 -9.092732500942796
-14.55990403620303 -197.87604588218727 -9.088693417560293
-14.475689730718228 -197.90965637215453 -9.06800882525094
-12.93520367720712 -198.44127547463782 -9.068265806027336
-14.782835776253838 -197.68591971927376 -9.111218671211539
-14.727473781553503 -197.66279356039334 -9.113654647350318
-14.586572356799344 -197.7892915086196 -9.081303471042933
-14.508688099445818 -197.7897561201618 -9.076558417278774
-14.445295858070228 -197.79257305414703 -9.07323419982672
-12.91626418345214 -198.38013257606167 -9.071684675218092
-12.90180376381234 -198.4418077395772 -9.067179733965858
-12.723748769515408 -198.43363925671903 -9.068005734470947
-14.819890348202986 -197.5534454578114 -9.133534781100861
-14.806273700387159 -197.5885450530153 -9.118901263602075
-14.579213441646061 -197.61652356464106 -9.063613300629232
-14.46160044493921 -197.68439357694322 -9.06955766727744
-14.41342411690292 -197.71217046713366 -9.073495483607172
-12.891910633951538 -198.30169819518005 -9.07230046719865
-12.828240118391209 -198.320434981283 -9.066178326627567
-12.733764249975094 -198.35586267311194 -9.070695378910633
-12.644302324596154 -198.3636217692158 -9.066845556713409
-14.691583807511472 -197.5047629543052 -9.11057407069763
-14.660902873129904 -197.51408372387368 -9.104296479425116
-14.51773946539888 -197.5704901251533 -9.06749946839713
-14.441827965657687 -197.58783337496186 -9.07987969613734
-14.376100286731146 -197.6104793818137 -9.081521278466637
-12.85319039458948 -198.24124176388523 -9.070130315138341
-14.481578138687196 -197.4273865739838 -9.078917549195804
-14.416540297213526 -197.50416578650635 -9.087290320281733
-14.33855096152586 -197.53941767185046 -9.069817722841119
-12.790838226275346 -198.0982338396394 -9.066394228996542
-12.746011224424755 -198.13202200532768 -9.066122047275732
-14.539777208237584 -197.31662373310573 -9.077321211420461
-14.467054928766522 -197.3842485036141 -9.08009540561886
-14.37121880444073 -197.4136183539589 -9.087302039081617
-14.30760626760417 -197.4265452245689 -9.082350388678671
-12.761244550333556 -198.0429150486646 -9.068094844576573
-12.710363030664848 -198.04803905072504 -9.069107218735777
-11.47695925608999 -198.55508934872816 -9.074959305548855
-11.421845400503598 -198.55371444483873 -9.082179159018414
-11.321048975527118 -198.5680179401482 -9.073135063880235
-14.728130218880425 -197.1366419207354 -9.141960849402459
-14.57852778162248 -197.20498159199502 -9.10009424424086
-14.544227196847391 -197.23899495128532 -9.094412257464862
-14.439300725492373 -197.28017990810156 -9.083617203472524
-14.351059259501277 -197.32016172858005 -9.081119719453213
-14.269201389241644 -197.32187360673169 -9.079455596498628
-12.71850189445437 -197.94347857082423 -9.066747743090634
-12.68590382746155 -197.94055838441778 -9.067586863612556
-12.482155368623697 -197.99239977148818 -9.07488150191418
-11.603772947648832 -198.33766222685855 -9.068416036653483
-11.563371525436576 -198.4005575799641 -9.068918000055419
-11.495187567130998 -198.42039775977838 -9.069085054528104
-14.670900892483978 -197.08357234682222 -9.13761656251921
-14.56877730177384 -197.10840720340852 -9.10469190817581
-14.499648324103813 -197.13874169348708 -9.091011696616759
-14.410916291014194 -197.17952483266708 -9.087356317426037
-14.30888971251224 -197.23308814747017 -9.079429182553945
-14.254368128059633 -197.28239597072212 -9.07898876815889
-13.910666020801596 -197.32637588518986 -9.077156118918172
-13.858213213905927 -197.3591206893449 -9.06824973764733
-13.750777642655635 -197.37670845625138 -9.091394203720753
-13.621378014414365 -197.43012829654535 -9.084814541741373
-13.56414553483163 -197.4517589308037 -9.085646165525475
-12.643565144625477 -197.87939629506704 -9.066335282340578
-12.508927911226282 -197.9224679198426 -9.065517446197292
-12.321681543111719 -197.97871085198378 -9.066484433913153
-12.297084336873262 -197.9815700949472 -9.07517607640864
-11.376175590401512 -198.3174233835899 -9.067925444975
-11.10733669395649 -198.40443745910488 -9.07520130381955
-11.037855746964398 -198.4301230501502 -9.074730960921892
-14.704047324701154 -196.9664418042018 -9.135752958592372
-14.652206485451194 -196.98979234159344 -9.133503833755
-14.551310833638599 -197.00927944247618 -9.112365864266687
-14.45182022562525 -197.05624131111185 -9.087419737986378
-14.374592331418118 -197.06060641603023 -9.08445683517997
-14.312245412435914 -197.12777091353678 -9.078461903849298
-13.974330198431549 -197.2125687396017 -9.075167871888928
-13.90172037341841 -197.28105253016918 -9.069126470435165
-13.820539844549836 -197.30421444280972 -9.070308452710389
-13.716502915104382 -197.35238749817114 -9.08539471121297
-13.619696155590097 -197.38400222130176 -9.082643702232673
-13.562115799832588 -197.42912522003908 -9.078560879260696
-12.586872141286209 -197.7650106251636 -9.065604707324653
-12.05968604346829 -197.91872901806434 -9.064441718192413
-11.36003355153441 -198.23887855291085 -9.073059651914031
-11.28104639514897 -198.23142262839744 -9.070147886230219
-11.102007506317415 -198.32531923619254 -9.068616995602277
-11.015879468071478 -198.3836277096302 -9.081268911987191
-10.928871167102363 -198.430778912186 -9.078003009039715
-14.564786036276736 -196.85996573399467 -9.131521424861534
-14.498298248971988 -196.92374512070708 -9.106420247592776
-14.43781160464405 -196.96045544204347 -9.100539080457075
-14.373161167293231 -197.01650767002081 -9.071839704555007
-14.018916422113683 -197.15013851115532 -9.07171673868427
-13.956717825257138 -197.13356144299522 -9.08234544950783
-13.858099517492935 -197.16756312453515 -9.080921200416041
-13.771836479409465 -197.21064995596413 -9.086433906288923
-13.686730168912607 -197.251308010001 -9.094578878823611
-13.570865411870589 -197.26075756947614 -9.092454629546864
-13.519901848738023 -197.30205271249696 -9.084337312969193
-12.99606948984966 -197.47485796220525 -9.068423776390624
-12.934627855708019 -197.51384418163633 -9.06595050922829
-12.827697282365024 -197.54022339148318 -9.080084620866423
-12.765880708227552 -197.55479037657256 -9.073746621576225
-12.54052269558747 -197.6721312556348 -9.063514846057059
-12.062907636882027 -197.87962237872875 -9.0669311651608
-12.049666130190237 -197.9019914442802 -9.06708086031575
-11.238044336655356 -198.17308219065782 -9.075435692616082
-11.177678944521677 -198.17030256026152 -9.068521142376547
-10.977916259315219 -198.30065781126115 -9.072136457999832
-14.52494890470969 -196.7725987979348 -9.083750786844915
-14.487674031452165 -196.84128631266006 -9.099587187709645
-14.434617808011698 -196.87502383437496 -9.105300555781637
-14.000181178628543 -196.98260994788205 -9.061945750880714
-13.923475411104068 -197.04410369590252 -9.084285749145101
-13.836816181873324 -197.0702327213334 -9.083612163895019
-13.750480036457494 -197.10453538466345 -9.08781660799128
-13.649685529297098 -197.14176474934257 -9.073226716198409
-13.552545106437197 -197.19013867375293 -9.087904464400154
-13.500978313263047 -197.2106367067579 -9.057727962584806
-12.980342418492985 -197.3923180450656 -9.065310101063359
-12.898098283465382 -197.46064551476834 -9.070109071764328
-12.809008826185327 -197.47685124302484 -9.076169463118406
-12.667318501319185 -197.47673187367087 -9.073153325445954
-12.524789698234095 -197.606753961741 -9.066055535913037
-11.130846407406931 -198.15082462260438 -9.078005077529761
-14.533002115287779 -196.71219892767206 -9.089167666600765
-14.489142016143719 -196.75284391282665 -9.120502150444239
-13.95245221997078 -196.92578691408235 -9.060464630801713
-13.868671371182556 -196.9713167758929 -9.07336293741756
-13.79691844836395 -196.9845654598745 -9.071311173897838
-13.69962294312468 -197.0322803549274 -9.0777284384694
-13.656219085055222 -197.07151631428033 -9.077262968288265
-13.470519816715006 -197.10025144332397 -9.062675900485344
-13.459641614038384 -197.10210022406554 -9.061805623093106
-13.305178133186587 -197.13505734041087 -9.086510016309601
-12.975508043517262 -197.29801114727366 -9.068259820101613
-12.827764179266332 -197.39777877312818 -9.065410997542516
-12.822553080173797 -197.39840876841183 -9.063605958511294
-12.664864328975808 -197.43645716489704 -9.07630707822648
-12.562834708707246 -197.45278295312414 -9.08080509015442
-12.506264686437248 -197.46585644407637 -9.081980517613301
-14.011473694165348 -196.82296126863275 -9.073254333005162
-13.975199165025241 -196.78873183967698 -9.066820436021157
-13.86976501213381 -196.8371287503979 -9.061666785259723
-13.739722992892549 -196.91845386757274 -9.073981672063399
-13.68219644598843 -196.92460060274038 -9.071350400455767
-13.471857249347138 -196.9848621788435 -9.081081424639162
-13.365768395817897 -197.03035372203922 -9.07477772218554
-13.277610733906407 -197.05130831156788 -9.077456012347135
-13.171014361837578 -197.08384862062852 -9.067333049653945
-12.607478371319326 -197.30392109791688 -9.079670406695923
-12.479011769003296 -197.40915919014563 -9.072144539672315
-14.037693789213359 -196.62552038811396 -9.053569120075863
-14.010482010067474 -196.67674846083045 -9.060402444034606
-13.914441487292738 -196.74684314337867 -9.077842541540633
-13.81597943170268 -196.7502333827191 -9.081275429692127
-13.754000029647386 -196.7808755589327 -9.085682545756805
-13.474939541611334 -196.9198432401214 -9.071237537143448
-13.379003989837294 -196.9470439242481 -9.082550770013507
-13.245529991868587 -197.02163829248312 -9.067891288671706
-13.218307879644534 -197.02615782719707 -9.066637071767262
-12.569472543070415 -197.23913115388075 -9.071044501458049
-12.517045834635002 -197.2696326495369 -9.063354571852965
-14.118152044684024 -196.55226941591772 -9.078333772013702
-14.067411275205611 -196.5717473786017 -9.0617298624691
-13.976612502206224 -196.5776612835164 -9.063601577460025
-13.870498526477153 -196.64234051346776 -9.07609065727958
-13.771075085576662 -196.69746265427486 -9.065855453027929
-13.717924876165755 -196.68500201141387 -9.086329621156986
-13.189039104598413 -196.92140919955534 -9.065419974172052
-13.175228950163694 -196.91406265862562 -9.064814511744743
-12.94336024696904 -196.95243794748976 -9.0606026477015
-12.524323916800462 -197.1082755405366 -9.065500542650659
-12.468947849318369 -197.13844778195775 -9.07061893103859
-12.374428916818777 -197.18262612502718 -9.074703028667045
-12.176662206759476 -197.26838969733635 -9.06396399354684
-12.134571411098882 -197.27718502897739 -9.068107814034715
-11.13596992755725 -197.7156776830459 -9.06745250750231
-14.080795269071091 -196.41865032680198 -9.062886775001246
-14.070143358731688 -196.4927973902161 -9.054403279690971
-13.740475017246553 -196.6067180969141 -9.073559663252343
-13.670915984189133 -196.62572033868622 -9.092031871306437
-13.004264416477962 -196.86475485892166 -9.059758618663576
-12.941800154854178 -196.92695123460985 -9.060396140544857
-12.500283476336781 -197.08916119132323 -9.06479857671814
-12.453530316527706 -197.1072459857623 -9.06814886614131
-12.339365320643912 -197.10656561835611 -9.068533352061133
-12.152446004465475 -197.22414317164547 -9.064983865684997
-12.078031528632247 -197.1644551154823 -9.069515514723772
-14.135880986485247 -196.3111601864204 -9.059913297982174
-14.079349460808436 -196.33326716949207 -9.074175048451714
-13.987182474121395 -196.40629972133755 -9.057234365156232
-13.782829230240763 -196.50129573797477 -9.052409234160804
-13.687461578364449 -196.46668179301008 -9.06796593577687
-13.623181055810754 -196.51632964642462 -9.076988495703619
-13.460894095125 -196.53167251266834 -9.073594573637646
-12.289133623258108 -197.0728898760959 -9.063414903507901
-12.182553453440997 -197.06676722487376 -9.069220062683721
-12.144485087407602 -197.06936082921086 -9.0688130071465
-12.057051568142736 -197.15704897580662 -9.064203505097108
-11.35645834836714 -197.37386868542842 -9.065478956469711
-11.288061981286367 -197.3881013204778 -9.068587967701799
-11.173276706737177 -197.4072065668199 -9.063346677536723
-14.191506583376789 -196.19604105417258 -9.06786173331351
-14.147341183294538 -196.19673464470188 -9.079719487407596
-14.057039024764567 -196.24059058548724 -9.070148166617422
-13.749258195680456 -196.35529474229457 -9.057330688626092
-13.682138197634307 -196.4255425775061 -9.059215559331568
-13.602677692790387 -196.45431065563588 -9.07585830196952
-13.471409415001226 -196.51456770766222 -9.05461306353324
-12.519374556439505 -196.81520233125318 -9.067079409792122
-12.230956004592233 -196.95178473582408 -9.058473277532768
-12.181153253819115 -196.96594851433107 -9.064971061063634
-12.102839604129027 -196.992049901477 -9.074444509019377
-11.27520840713986 -197.33936088890138 -9.090604908552647
-11.203458663893251 -197.36876603023663 -9.078837298486532
-10.783362878071372 -197.44846586812486 -9.065653144178391
-14.246991402601179 -196.03104996737144 -9.071973008418944
-14.195893825574217 -196.07747111426212 -9.066744299018241
-14.1176406416495 -196.13407391800465 -9.076807012542803
-12.884191515934338 -196.54982744513546 -9.072488480794378
-12.413144514837576 -196.75427731955043 -9.076646839822294
-10.923285650702088 -197.31958611985343 -9.066431889873055
-10.735868279385901 -197.4256169258412 -9.068733049013598
-14.228095317200426 -195.99281814628074 -9.059855941279196
-14.180779424854602 -195.97222067165154 -9.053314283543948
-13.59746873238266 -196.21097861515736 -9.067060161980683
-13.555057680890542 -196.24990685122654 -9.068462995911588
-12.879552373171382 -196.5128756424728 -9.085934571035574
-12.48890661509356 -196.58708006252405 -9.057490435266558
-12.380955612443616 -196.71997849805132 -9.08541575267743
-10.796042600056111 -197.25534632799528 -9.069387542645291
-10.633062166611712 -197.378399546544 -9.069529315388097
-14.159139312665975 -195.92082824107456 -9.055609396420229
-13.794630595687398 -196.03542266266754 -9.055359509206177
-13.555935460769147 -196.12951095432862 -9.062825700347597
-10.676882607576669 -197.20708318292094 -9.072723654699839
-10.061809091670458 -197.49153479581685 -9.06439411127301
-13.325652903267002 -196.10048257960986 -9.068044907406119
-13.28210415665135 -196.10654371752926 -9.066452327742045
-12.380633812162111 -196.4562829518338 -9.061839883509547
-12.347878686527068 -196.43677237051645 -9.065492949278449
-12.21109869952938 -196.5520390627269 -9.061062280175369
-12.176525666603101 -196.54640780449176 -9.061448422516191
-10.360293436399264 -197.19835134576516 -9.067826151835604
-9.861514785128382 -197.4587502962651 -9.070196444025465
-13.4517924798309 -195.94837312180843 -9.058159151487017
-13.403017295523458 -195.96004563701769 -9.068193005391864
-13.291541867870128 -196.00478385489708 -9.071398345484232
-12.260630366985579 -196.36551573340307 -9.057772317656893
-12.07753504294561 -196.4554243928792 -9.059473285392494
-11.972899489950752 -196.4717070075876 -9.057598107622578
-11.785761908611192 -196.54609079372335 -9.0679977105656
-11.752606731307209 -196.55252362424784 -9.06987334828507
-11.64929355206419 -196.644930679187 -9.058757815790504
-13.360355225936493 -195.9150563694161 -9.072469336688544
-13.263574986114788 -195.90622771731068 -9.067072204927706
-12.19943025335454 -196.33377400986836 -9.054708693964251
-11.979329171539078 -196.43240406070058 -9.054186378439043
-11.768741463388254 -196.4942016499713 -9.07314706809289
-10.319211298982994 -197.0446895853068 -9.063776365285856
-13.342250794141956 -195.80885152900632 -9.060305908610138
-11.94006549642066 -196.35321785148602 -9.054424604833248
-12.938727704858557 -195.7731919034662 -9.050116430934315
-10.220382914270449 -196.81116572039525 -9.07663773052385
-10.167951269706881 -196.79959344588877 -9.065283400517854
-10.058030958437088 -196.8260835918634 -9.067974810041278
-10.03576014865781 -196.73541798809933 -9.097573671675729
-10.205934115719295 -196.5549709183687 -9.063238913429386
-10.052317898979707 -196.61258632542274 -9.069148429899997
-9.97371895819478 -196.53724659168827 -9.067817776398334
-11.769578950305167 -195.5114190808103 -9.04825804437296
-11.761071265735216 -195.40608382857104 -9.065015399052768
-11.716672985986008 -195.43955499095628 -9.04830603884222
-13.660849078175136 -202.04960984075012 -9.03137991489455
-13.644252610935453 -202.09563762288792 -9.036739179469327
-13.65521982527493 -201.975747646986 -9.021255775501421
-13.620168710176577 -201.91645207851255 -9.011686039921328
-13.5827447734317 -201.79274678536086 -8.993407623543227
-12.569872838278837 -201.86699573102763 -8.994542706411194
-13.592148093815867 -201.30613122190738 -9.00860604126357
-13.542499940537748 -201.34766392166316 -8.998932455422747
-11.94086778187498 -201.9456458998907 -9.078941097262195
-13.580958762605665 -201.22083166029878 -9.004028925346413
-13.5505484391263 -201.29773677097248 -9.00487110644536
-12.094308853152425 -201.8070066481367 -9.073149707168863
-12.056170038060719 -201.83377980524676 -9.087218771932449
-11.959889872472704 -201.90581955769875 -9.088401062252839
-12.116091826724961 -201.70589522074292 -9.076884749471446
-12.076785413283908 -201.7211913974142 -9.074644701127403
-11.221603892233922 -201.89021885863917 -9.025480519926461
-11.205855723795695 -201.94566375778788 -9.010351102174665
-11.312172019699265 -201.77861303993143 -9.037727780235176
-11.271505773373315 -201.80833932940814 -9.030910367533014
-11.385946725285542 -201.66305005074304 -9.017724124035905
-13.778349176448724 -200.57749098350814 -9.008551936074117
-11.46843917213846 -201.54468556832396 -9.011907472556809
-13.998485035849368 -200.3979185178262 -9.060841128648333
-13.796097597626929 -200.46777638448137 -8.98736604145836
-13.78791969105918 -200.55805284634468 -9.005279910819898
-11.60534785152977 -201.35978881323982 -8.99680896904903
-11.549141519273991 -201.40010461536846 -9.005338747864968
-14.000617847230066 -200.3089195308554 -9.046551221947054
-12.220956584181057 -200.97161598065443 -8.988624686540042
-12.062842976175345 -201.02484568662942 -9.003146857046929
-11.655175054886875 -201.27154605107344 -8.997514650629409
-14.002616913971139 -200.2355222821078 -9.03236201960132
-12.577704070144938 -200.7686263066035 -8.995321198990649
-12.183448657503194 -200.9146177375828 -9.024126656051884
-12.10717702127989 -200.93586262799667 -9.011437677285542
-14.259093115180752 -199.9879712132962 -8.995281509677664
-14.211678703708296 -199.99587782606181 -8.992967424378374
-12.56561050704041 -200.62460635805925 -8.985894642319582
-12.217712608744966 -200.7678890238299 -9.028679055473043
-12.152238536506898 -200.81248905409296 -9.02736192459282
-12.09562080684113 -200.89185073507315 -9.02636400285748
-14.241906644550662 -199.92857191749093 -8.988095164532652
-14.21661438449054 -199.94773700091287 -8.981748030252525
-13.94699533139409 -199.98646768381286 -9.044323486584329
-13.914951705543817 -200.01031329600093 -9.049899478270524
-12.278819563624195 -200.67197956236362 -9.02498705750224
-12.22714595689314 -200.68456711518883 -9.032014089107811
-12.122109912700681 -200.71859049830383 -9.037234905474682
-12.079248888038139 -200.7841324272065 -9.00097415376887
-11.941857210052857 -200.82499047436175 -8.995062999843814
-14.145241570323819 -199.82072940081977 -8.992865924863638
-14.072107583745208 -199.84601076075197 -9.005211184762064
-13.946183455581409 -199.9134339246365 -9.029353506305975
-13.883907790514415 -199.93473033004082 -9.03397536658391
-12.664212746022512 -200.4140832773403 -8.998890555693
-12.158554767514381 -200.59115012425997 -9.061476288197932
-12.101115310244133 -200.6472411848405 -9.018170947355792
-11.991324317980807 -200.680371335393 -9.031520923070701
-14.118595930479131 -199.78438742179696 -8.994598219223777
-13.935978475252886 -199.87386379900028 -9.051985143800085
-13.862392996961683 -199.89104865622565 -9.029818336721704
-12.188369396193375 -200.44825228546526 -9.040463017293899
-12.118667408541688 -200.54953818035077 -8.995484229597707
-12.059669126958989 -200.55179894881334 -9.021377944707165
-14.08587259199377 -199.61798072010967 -9.035390576769334
-13.96185696274452 -199.65682760783565 -8.99518269940474
-13.832609924077806 -199.7366877237822 -8.994046652297133
-13.81669888858067 -199.76328523385214 -8.992388856379218
-12.484306587262422 -200.22630667275843 -9.056826866914676
-12.199756799494477 -200.39930469685663 -9.032850776547665
-12.017085709093761 -200.43937893482303 -9.055349231882023
-11.954652103330545 -200.4846039252469 -9.076841286385608
-14.828680455808243 -199.23190179794895 -9.03672808048678
-14.786271176500628 -199.28854180867998 -9.028968609314141
-14.706319256259684 -199.28511384341718 -8.995317032579978
-14.070581729753984 -199.60478034195955 -9.04240168514868
-13.950335257932005 -199.59087453302965 -8.984083837588324
-13.742616017448146 -199.69145245362247 -9.029925116195908
-12.547335809946459 -200.11019841141064 -9.007360187173393
-12.243877689004293 -200.28791305456696 -9.019693294024867
-12.104331548714216 -200.2745443441568 -9.030034535856746
-12.06124813880639 -200.358971965985 -9.03903358876477
-14.897280959143105 -199.089095188715 -9.028364419642516
-14.80827948296278 -199.17052827358455 -9.023337527291705
-14.731046511662042 -199.18305643849132 -9.039354596441825
-14.648702198965985 -199.2511911339387 -8.974555109296267
-13.644652714552143 -199.61054725215664 -8.97598539297089
-13.539227210304686 -199.6581625344557 -8.986945682928692
-12.553908879817467 -200.07552125278576 -9.009610611339193
-12.12994747497913 -200.240098338301 -9.024342648222811
-14.870076730641554 -199.00861664023134 -9.031231921871955
-14.775734084185626 -199.0478820509452 -9.012503561058125
-14.694282534796226 -199.1355050302065 -9.034370690409371
-14.634870113125677 -199.10625285164107 -9.037362788434864
-14.531886305199134 -199.14158811245247 -9.039541631480374
-13.845318998082583 -199.44648808352972 -9.020053412603847
-13.743636903216519 -199.48260489518097 -8.975737644065891
-13.723502139420155 -199.5181229524024 -8.985934574085451
-13.58290356660402 -199.56251638776925 -8.974630394240844
-13.450643119177467 -199.54290759224116 -8.993470815788012
-13.396130475510411 -199.59869631362085 -8.985878084912978
-13.271225974283652 -199.62902729905696 -8.984729308508722
-13.240816602690433 -199.69177797509312 -8.980899800560698
-14.842726369522442 -198.9739750112506 -9.04929839940668
-14.773035128818393 -198.9669017234759 -9.035004079558576
-14.668659393912844 -198.99610859964122 -9.009311819669279
-14.586201973394042 -199.03682547424648 -9.030416708488515
-14.475832938584318 -199.07508290128712 -9.019987572180108
-14.001421960100405 -199.26479583540632 -8.988300629206607
-13.903498632584313 -199.29366488396298 -9.007282836737307
-13.845934226534219 -199.30072376962127 -9.008277914498027
-13.740546534592218 -199.355501449423 -9.034402176659984
-13.622412918795616 -199.3937776110493 -9.018394553148495
-13.562831240984478 -199.40666500661453 -9.008617097458083
-13.446893668942861 -199.47394039049635 -9.00175528376223
-13.250589024590212 -199.5450218351697 -8.983467874253634
-13.19849005565641 -199.5555281880336 -8.981277179747066
-12.875832288764737 -199.66873142144814 -9.03300813435087
-14.698518153988001 -198.89067105369654 -9.026290045193434
-14.625074429085794 -198.95307684492178 -8.97939154722952
-14.548739705608787 -198.94931991844504 -9.010832479746636
-14.477162236856081 -198.9822717132193 -9.027525609890024
-14.028728443666253 -199.11189742335432 -9.013357717632243
-13.967335500250163 -199.1296234551809 -9.035378069585391
-13.876887885860807 -199.19169261985542 -9.004587967103976
-13.79967139975202 -199.24999840329644 -9.027222752842881
-13.703752838428949 -199.25608139423744 -9.02118944235455
-13.59055788914464 -199.3114979119066 -9.018711671407294
-13.519347708062575 -199.36262800022897 -9.00033560906143
-13.391431465236893 -199.37064102655495 -9.028901388739373
-13.321453744897175 -199.40687089841035 -9.018041231958096
-13.246862806814589 -199.45570010259755 -9.02120256731235
-13.178847603113086 -199.51658730626488 -8.97528370317366
-12.875575801720704 -199.61675888688274 -9.026778645749378
-14.71381573228583 -198.77608566005074 -8.99649143861735
-14.594753717933965 -198.81856792883346 -9.012080613767758
-14.53059412977374 -198.8140899741942 -9.012007561285161
-14.318931346247783 -198.8776248562473 -9.031309319525366
-14.07193374878066 -198.96831615015543 -8.970175492570934
-14.045840355859275 -198.98807363888002 -9.025360004494967
-13.942855760187022 -199.08371046102246 -9.040085142221447
-13.861289477316634 -199.1118708199242 -9.014583241119636
-13.76665453159028 -199.14835683558556 -9.039552670986996
-13.664212100699023 -199.1764702650277 -9.036185425016201
-13.568530729579736 -199.19951677605044 -9.02160586405437
-13.474801637634437 -199.22691010674137 -9.034470815636986
-13.374277787791282 -199.26459103534643 -9.033518058258688
-13.299218405131219 -199.29842314561225 -9.026626702906443
-13.215072327692067 -199.34681902997093 -9.042131972585896
-12.924060967283491 -199.41363474191382 -8.996717774614188
-14.579597815057397 -198.70912676629482 -9.010135283473534
-14.480034036006366 -198.74857858124727 -9.002048860993712
-14.399412036794537 -198.74603174019674 -8.980877165869538
-14.274785764087772 -198.82129101402606 -9.033800672470568
-14.073798103256543 -198.91732665064833 -9.025719587738859
-14.022859450997316 -198.9390318935823 -9.012138904039324
-13.907663947823767 -198.97661579176494 -9.031717805680387
-13.811126056884975 -199.00397273594072 -9.037472217169451
-13.743115901161826 -199.04465599344013 -9.039701061418665
-13.618334589882958 -199.1027936528144 -9.035963011294127
-13.54030635569161 -199.12092487247313 -9.03651825360204
-13.427904521842146 -199.10948024111144 -9.037704239784254
-13.342538216259328 -199.18278198165348 -9.029824878899545
-13.289817120098482 -199.24058999490086 -9.027954922212931
-13.105952353613299 -199.2958999655577 -8.982075568787431
-14.860475162226098 -198.4592352539242 -9.02181123383318
-14.512946316911862 -198.6481493677698 -9.036738061751738
-14.442462377761691 -198.67944980729564 -9.037679826583284
-14.335772946932472 -198.70880357684814 -9.02056517715151
-14.243911845341179 -198.73585625839286 -9.015496299934647
-14.167853489652096 -198.75686805691868 -9.032188817655706
-14.042119489747355 -198.79143604652498 -9.048792353098975
-13.961474817158114 -198.84205506775893 -9.041185387229094
-13.870858235402036 -198.87760415909452 -9.04597396572208
-13.773731823352568 -198.91669639801475 -9.051654124200374
-13.694378827303469 -198.9479086477648 -9.04852365499736
-13.584065172923248 -198.95862109725246 -9.04832184319538
-13.504432805293797 -199.0115663132098 -9.037104925776248
-13.392450562108968 -199.05960462436474 -9.043175737510401
-13.317052091401228 -199.11123977838488 -9.03619853722998
-12.643268467041132 -199.30995319339002 -8.97524075890717
-14.834294718221118 -198.43250553104733 -9.020199607885333
-14.50543185406412 -198.55142172371706 -9.045355511354924
-14.30434164779805 -198.63881678931043 -9.044917336045929
-14.21615165212875 -198.69018720832122 -9.047629627596567
-14.112171357933963 -198.7011290337684 -9.049272635092445
-14.058994290051336 -198.71596512212446 -9.047767004481784
-13.96567396184248 -198.78735008158785 -9.056806756490765
-13.8583280331185 -198.80739143498232 -9.05364345519463
-13.733672618576751 -198.84226822072966 -9.051373829110664
-13.651636481950293 -198.88123984742597 -9.05108911196665
-13.56635773081037 -198.9161128375558 -9.048701654763997
-13.464680442210739 -198.96194726675412 -9.046070013268151
-13.385504106960585 -198.9918903068819 -9.043183353020975
-12.681836758446195 -199.2543902716963 -9.007206297028338
-12.624083195971561 -199.22914278383988 -8.984332173397997
-12.469539916387179 -199.2577740476669 -9.0011160422721
-12.455629687932449 -199.26263940074256 -8.995076922137521
-10.156337177537957 -200.15256758369406 -9.061262254305108
-14.733250510219058 -198.360903066781 -9.010972101840355
-13.068420899301323 -198.9694673921353 -8.975935063606258
-12.578509539462251 -199.17827382797054 -8.980561649073337
-12.49466985395732 -199.19750832119098 -8.995062245931818
-12.451090150401713 -199.24459504877623 -8.987890006009954
-10.256794655764915 -200.06191141273214 -9.067247196070664
-10.205631214110452 -200.10781345651938 -9.068198224283302
-14.818295063872224 -198.21044197645074 -9.041579449718283
-14.713263818203941 -198.2038671771238 -9.048537863245771
-14.620226821817134 -198.28169249127828 -8.99296034248744
-12.994001232839544 -198.89624104288805 -9.058867758229237
-12.963372872476063 -198.90923066605183 -9.050755327757892
-12.812014778662206 -198.98609347581439 -9.065036091166917
-12.770365499571016 -199.0038903554144 -9.066936815509512
-12.659134490725078 -199.0151395499074 -9.054958043534178
-12.515265848265726 -199.10483443704138 -8.977905320437811
-12.476463144746212 -199.10527029992565 -8.977859333711825
-14.664315248366044 -198.15493710739779 -9.047115395711026
-14.562798760961929 -198.2232100943137 -8.991750654005925
-14.497997390925072 -198.21532978854168 -8.972210774460882
-12.951499059919627 -198.79998963624132 -9.05549631601307
-12.909424829154721 -198.81751641787292 -9.046687542509614
-12.804906677603487 -198.871435781806 -9.019601197897982
-12.488287470853221 -198.95476608141385 -8.977698791121886
-12.415737547441514 -199.01368760357542 -8.98970739435442
-12.312404968499102 -199.06709234873023 -8.972503497919973
-12.015221822197015 -199.1862579083913 -9.008854205669957
-11.99804716426977 -199.19023645460746 -9.008059590108276
-10.916227078682056 -199.5862095051249 -8.990990274255138
-10.868701790248632 -199.60003716912422 -8.979611376585845
-10.779060676821755 -199.6383765242814 -8.99759423341505
-14.599709545284595 -198.11951292206413 -9.034722593680032
-14.578978309564464 -198.08250247368338 -9.060054227001565
-12.9288701658115 -198.69381008931992 -9.050560618799071
-12.867086613336234 -198.7360007815681 -9.032193723913078
-12.807813277559658 -198.75571145823324 -9.003914473925686
-12.456128413441482 -198.92482449662054 -8.97083373753001
-12.372122974520657 -198.9391443857262 -8.976912750001384
-12.314624911657905 -198.97060973056875 -8.987718111944075
-11.826157909232954 -199.12471128192058 -9.048741350105388
-11.548451686399119 -199.22435374483305 -9.025494879486997
-11.444286776171634 -199.27154542532546 -9.050209098823485
-11.387423825194245 -199.29749397323158 -9.049202489971966
-11.26387000166158 -199.33284535716842 -9.051931635038855
-11.206825112218187 -199.3763678240761 -9.051169821317675
-14.499165788877429 -197.97611397517534 -9.060624053220202
-12.91060909919514 -198.6122033114847 -9.045899002653703
-12.82400973944738 -198.6299962747448 -9.004750533303737
-12.752900529595879 -198.6189502073613 -9.004863099549878
-12.642457257354247 -198.6620698367598 -9.007306348241984
-11.959777843200431 -198.9881469883276 -9.010593397489508
-11.918126060151268 -199.00776034765659 -9.019928461833377
-11.49214575108987 -199.17072299539038 -9.06456005950372
-11.44993644133035 -199.1860132976658 -9.060772461075606
-14.581014577499193 -197.90730472109917 -9.051200598224936
-14.453387087571867 -197.91460651306974 -9.050967482147913
-12.942023939348196 -198.43803957587508 -9.066180446537299
-12.877815204054244 -198.5170765360698 -9.024693834084271
-12.79276535674192 -198.5142020945925 -9.001912039320024
-12.696917098565853 -198.58089710511837 -9.009509810231375
-12.612429598460075 -198.6196925008918 -8.992263097897528
-12.553788269975755 -198.67082715174993 -9.001479993929564
-14.579934397838485 -197.757640038388 -9.03130153451626
-14.515882997159482 -197.75791015111153 -9.034161380252804
-14.40735808418312 -197.81578407203938 -9.058279296346976
-12.899813610303053 -198.41196908411834 -9.044749111790065
-12.85366637279617 -198.41407345099947 -9.034832516718012
-12.75022647365435 -198.45827530749696 -9.03686961599129
-12.672128458774313 -198.48842451379275 -9.027840508878544
-12.557250962645544 -198.49950888987598 -9.052725008945693
-12.49158353341071 -198.55822147259414 -9.02085131552723
-12.420075971921245 -198.58429565908756 -9.010318464075189
-11.547384269487079 -198.87850985750234 -9.00948048711702
-11.446272642012019 -198.90186013305532 -9.036913123726823
-14.548702341985349 -197.67247226159725 -9.037596565655162
-14.504306331597771 -197.69023637943272 -9.04072420685727
-14.397455516308733 -197.7029708714795 -9.051699660414732
-12.871501437316876 -198.29089920333723 -9.013027241210299
-12.824029206512668 -198.33702383561712 -9.047100889063135
-12.714264733175138 -198.35717285358254 -9.04613681175098
-12.64533822065366 -198.3945935885296 -9.042933917337349
-12.52579737314228 -198.43415822160605 -9.05055612553235
-12.434388610457207 -198.461037172197 -9.040428353035482
-12.33445969248679 -198.47343810946197 -9.010295894806113
-11.669360124721477 -198.7487101938519 -9.052078020307102
-11.597018535830315 -198.81142321677152 -9.048252627041807
-11.528666929816607 -198.83427274935633 -9.046822726160691
-11.387611556693836 -198.9011051823088 -9.054620213970441
-11.362102183581104 -198.90435775348155 -9.056318880592817
-10.789442050465485 -199.11313253150237 -9.067585550994007
-10.661104823010312 -199.15359013049493 -9.058054303230351
-14.514666456548502 -197.56603879999318 -9.048299537792133
-14.45356834398673 -197.58205146931058 -9.034637081529233
-12.849198362443458 -198.20246837010401 -9.036699886542968
-12.758024620589214 -198.2073892918837 -9.035143270253839
-12.690318184911456 -198.29991192190514 -9.021477353824691
-12.585561775845626 -198.30411719155637 -9.019739870818505
-12.462657200960592 -198.3201588130961 -9.039146931826087
-12.396805035538497 -198.38221835888564 -9.032567507031784
-12.335748596995469 -198.42232256793244 -8.99595327432967
-12.20902834532258 -198.44499486304372 -8.99749667403214
-11.526668296575806 -198.68624840315266 -9.029866041517336
-11.45843181231881 -198.73052602843777 -9.057402997712185
-11.373894798117824 -198.74659754752483 -9.051294515976902
-11.293656007519857 -198.78947727562596 -9.052961956081242
-14.477394496351389 -197.45695519234627 -9.039751591874579
-14.447130115190996 -197.5205938053522 -9.006784420707092
-12.806075502781498 -198.12937133404884 -9.040788930577444
-12.707539820879656 -198.14467724008287 -9.03917828514976
-12.641171268055164 -198.16094227648873 -8.992392458079546
-12.555927632873813 -198.2302781338189 -9.007203444196646
-12.429216141975855 -198.26416190172023 -9.03075607561453
-12.375505743447157 -198.2715840519507 -9.008717996287718
-12.327043788560754 -198.34522668357192 -9.052847477785338
-12.147334843713852 -198.40496485596435 -9.0188636295753
-12.101215278519465 -198.37875046801014 -9.046175128621059
-11.894380696937047 -198.4873705622027 -9.038931427848983
-11.84711489460022 -198.49483725213392 -9.035796221914072
-11.693326288929729 -198.48620613118294 -9.04047748782177
-14.550506653582849 -197.32766447492241 -9.049675138851997
-14.48380042695465 -197.40207010096788 -9.049481842047685
-12.76736774546984 -198.049419617767 -9.062625024027405
-12.702594843477872 -198.0530275795454 -9.052217085822127
-12.645784254964527 -198.09432250734434 -9.018000224738731
-12.31874101065327 -198.19565696799054 -9.033421243011977
-12.252247581535864 -198.19318530376188 -9.040386851375612
-12.166295162020768 -198.19921085347644 -9.046639267618803
-11.6934314315228 -198.46531016361152 -9.036014723683625
-11.617282701815894 -198.4842947714274 -9.051471794283222
-11.475020940817316 -198.50512234227486 -9.057480517960148
-11.402162872927855 -198.54710562862573 -9.060368132510689
-11.306426243107676 -198.55216702244508 -9.057624034250287
-14.339288530134352 -197.32981349378377 -9.048475728121652
-13.479002934103553 -197.59656158389313 -8.976409873189228
-13.401715023611986 -197.6418568624254 -8.966894139191858
-13.311056204951404 -197.65790361854087 -8.96548503943567
-13.23311936382219 -197.6970888551804 -8.97775700903035
-12.655144172482737 -197.91483683212888 -9.06112385812614
-12.521323133124792 -197.99527652459625 -9.063396161728239
-12.454917461525795 -198.07531387139363 -9.044004758444686
-12.336382669059068 -198.04814443156462 -9.055444384414225
-12.280572302278026 -198.0798908966516 -9.048225245292068
-12.190414147733033 -198.11689505259687 -9.049759763399317
-12.125673918063685 -198.15038822176896 -9.04958823373934
-11.995033291427749 -198.1822932622228 -9.036368750355724
-11.919808337357862 -198.19916370397294 -9.040760190913751
-11.804139034791445 -198.24441800130907 -9.049109919971007
-11.743076527875182 -198.31624004056653 -9.045924777376989
-11.606139019793707 -198.33251816480296 -9.061324110603842
-11.532800421952414 -198.3779466177207 -9.062070222476445
-11.453853438826153 -198.41651091811565 -9.058836304872434
-11.384054203255465 -198.462197110883 -9.062131831203986
-11.247445303116042 -198.50513303956907 -9.036072249086839
-11.190409490607944 -198.50711457962007 -9.049014415112447
-14.417676048451206 -197.1515580327178 -9.050322689607919
-14.282501747508208 -197.19543543858177 -9.049814079747586
-13.829541756697006 -197.37428228174946 -9.05416107528924
-13.517104302392486 -197.4926791542639 -9.021929940510446
-13.457429485294494 -197.53077186076604 -8.974256980622226
-13.40018412832673 -197.57566149792476 -8.96629462765436
-13.30070580767108 -197.61608502953112 -8.969908578130628
-13.210331630620002 -197.67591568808223 -8.97110257081971
-13.107326120557124 -197.68636192259544 -8.981310177603616
-12.947788379220146 -197.6989061350733 -9.006107450142565
-12.937283223078811 -197.69538524087966 -9.007657588567094
-12.637325068581937 -197.8695644002117 -9.053712676093502
-12.525485486309515 -197.913544855387 -9.055080070988692
-12.458734233530347 -197.90030444523967 -9.048765937787405
