ply
format ascii 1.0
element vertex 835
property float x
property float y
property float z
end_header
12.42883903816512 -148.43826215747808 -5.666178620854106
12.265544400631388 -148.71950500257012 -5.664541631395666
12.333359150017769 -148.42434391461646 -5.675523915150044
12.113843529764239 -148.78207215958176 -5.674212508441107
12.136577993994907 -148.5684938246971 -5.684610060428179
12.113680930896127 -148.28257781686239 -5.703150083209457
11.573964691953043 -149.5672668193709 -5.674070271693385
11.5265775438336 -149.588096585457 -5.676740321475229
11.625226378354508 -149.06415409427427 -5.699423237205911
13.518284270302129 -140.83356038214387 -5.701506901712815
11.427930860902134 -149.58533873080336 -5.6849872230839855
11.461476273166907 -149.49843212860114 -5.687384166021369
11.577754583949533 -149.06725579977217 -5.7032033632758905
10.530595186279307 -145.91512041366 -5.610812491253244
10.392138694989955 -145.9668934994515 -5.617511988809781
10.379308804321946 -145.45764920953056 -5.6667186097393225
10.278198055496162 -145.604660500172 -5.661180931609534
10.309460397851439 -145.5845656591449 -5.660511492405991
10.1793033797385 -145.65147404367846 -5.664779009426926
10.238449178559033 -145.56355183667094 -5.668322924398469
9.984741004444945 -145.80363450460584 -5.665760397734225
10.060083284768929 -145.6825092282209 -5.671347684432656
9.923206923285024 -145.90924016019036 -5.6604858311946895
9.862599271952805 -145.58497918937178 -5.696010630893106
9.762377621152675 -145.6110005862722 -5.7011531621069995
9.826143406358437 -145.56007581120835 -5.701173478304303
15.319886948709492 -121.04746070379466 -5.6845826367186785
15.208457640829394 -121.02810273632093 -5.691189999615166
15.135675514871402 -120.98887301008793 -5.6943718157499035
15.108446304900102 -120.90845256984241 -5.6929317652464135
8.184960781959816 -146.99218760638522 -5.672444525812047
8.151476772420658 -146.9197372422606 -5.681242421102832
8.040472468822209 -146.87725573304508 -5.69140280855393
7.823333871654858 -146.90658171910866 -5.7002143988461995
6.984315574298988 -148.2903976308317 -5.610465002389839
6.739797052371104 -148.40647375585823 -5.610390517109811
6.689737650510281 -148.4298207003951 -5.610397502327877
6.7755735308478755 -147.7464946753233 -5.6705208197004975
6.562466522907634 -148.38563337829356 -5.619849728317674
6.599188428685302 -147.76305337732714 -5.676323952671344
6.264186453104916 -148.4976357759806 -5.62143393398783
6.014637991972924 -148.77093445699578 -5.605659908032097
8.265190003458782 -130.9048485293957 -5.681702905810893
8.165367370477513 -130.86687077051363 -5.676287282929559
8.193367139112345 -130.78343227208785 -5.657368630033627
7.240793677690114 -130.85385588949978 -5.682712598327928
7.135270686169189 -128.22058261712567 -5.681260805702314
7.156065744499102 -128.19298493238037 -5.676601592541351
6.443319940670322 -130.73177748244123 -5.6439258431866195
7.132974908432449 -127.75410543051815 -5.613874452226417
6.3817472048854 -130.78319932576065 -5.6522583685724825
6.22927552672248 -130.84407381908258 -5.659128900728643
6.224232049426922 -130.75662016588083 -5.641950367631162
6.925267746414386 -127.90916781041454 -5.64254946980264
6.168039694404632 -130.76022849903612 -5.640683431164347
6.044901577215135 -130.76538418029625 -5.637084124384609
6.094686260115805 -130.7354786800186 -5.633248480120079
6.6557552129229505 -128.07079604265218 -5.67282125831405
6.677413176230875 -127.90574235388152 -5.648710154721696
6.730659173947868 -127.7910462174292 -5.630959949570527
5.975820950399072 -130.78824584064358 -5.6387208559573825
6.63616065801682 -127.86631922173022 -5.644144564180273
6.685836709878199 -127.78955714276961 -5.631896408359619
6.168782605299278 -129.50222939592345 -5.637611085240155
6.461545475729782 -128.22831862080815 -5.6995887116816615
5.161717999077086 -128.07461034077056 -5.695045846882413
4.196654144836029 -127.8615083731859 -5.667771414639099
4.103997224532937 -127.77146468157915 -5.655737539566845
4.144126765470789 -127.71199497408415 -5.648138887161657
3.9862341960359373 -127.67258706207923 -5.642491040103146
-5.228654371209103 -164.1281964126867 -5.609453366349801
-6.117752811851146 -164.1729977095597 -5.628031855713944
-6.2917614569547595 -164.73224706694774 -5.604320678355297
-6.212998799837422 -164.11306168084073 -5.633294621077924
-6.1371246791659395 -163.50418617854842 -5.661694530328993
-6.414950407437692 -163.78052358687083 -5.654006410428233
-6.6442612547793 -163.96903015740656 -5.6498254616829335
-6.783740087364764 -163.99667369561803 -5.6512825186557585
-6.8290489009270825 -163.84748434445834 -5.659640284468749
-6.93400863165647 -163.80881364909843 -5.663544549098117
-7.771890857792821 -164.5792071415788 -5.643359195070812
-7.879566267178097 -164.5372071468155 -5.647327353018051
-1.525058626428951 -129.19766111908967 -5.665945163204787
-1.7383647146197845 -129.52336059859908 -5.685881737018002
-1.7582719954401167 -129.3597965405263 -5.670600831783318
-1.7987994579517963 -129.38540355444542 -5.671098698201044
-1.9358966070929036 -129.2059934277374 -5.649250021042173
-7.02067588115718 -146.1618196830985 -5.656404438341051
-3.335812383194506 -130.42440607331187 -5.683805695893486
-3.3776991386095006 -130.4565277523066 -5.684137952896781
-3.9965578168526186 -129.82254666998153 -5.605202742530726
-7.728768056646286 -145.50137710557334 -5.650846218566194
-7.735666559842679 -145.12375360516904 -5.6629168032665085
-7.57758147707896 -144.36711217914214 -5.692464453305355
-7.8294305978626415 -144.42375955767133 -5.67945207677472
-4.804401363216288 -130.57866809733878 -5.619775326817535
-4.848405899448641 -130.61712650870123 -5.6201765735963445
-5.110481496161416 -130.57858774090738 -5.603744984525108
-8.65821937995082 -145.4784863952652 -5.611136139654669
-8.513230405357492 -144.3181227775849 -5.650419467460618
-9.008531107853367 -145.19048581281803 -5.603905125826347
-14.068583843023683 -165.80564297518396 -5.680345153033531
-9.192729426076204 -144.96892797273148 -5.6015809043472355
-9.129930280572994 -144.85865081065413 -5.60731483308496
-14.09003782916688 -165.40753999660848 -5.6970330792021695
-14.221001097627743 -165.7866647100931 -5.682852873044157
-14.7950462068063 -167.6525040743034 -5.610558340195133
-14.634472140103954 -166.98554081325557 -5.636923395788924
-14.794342581611412 -167.42078792787336 -5.6205423773803105
-14.788138909877114 -166.96175602344346 -5.6397336604679245
-16.185009976739288 -125.64209067164558 -5.6342516323658085
-16.391708425291313 -125.76235889991663 -5.637484979614733
-22.96209214969528 -128.99060738673154 -5.66534289715338
28.582161787970996 -162.63930507222742 -5.542617296454459
28.49682045057449 -162.71592138182007 -5.550341765159974
26.086202202068975 -151.79905957493457 -5.581480772147083
25.967734366049434 -151.80221956060365 -5.591170985588086
25.826595845181238 -152.11608371746917 -5.607601713133835
26.00285478827373 -151.2841518539683 -5.579847520476917
25.971364591005134 -151.14381318606928 -5.580156787202178
25.788064214965345 -150.66375013177387 -5.587058382763755
24.956193257985532 -145.99490377075028 -5.572404516253277
24.623780460305483 -146.48258493007236 -5.609215613976719
25.16568867980829 -144.411308607911 -5.523254248108536
25.21100598961201 -144.2196240678953 -5.5155418248936705
24.82099285172149 -144.50501689979 -5.554171280885214
24.24084733391213 -144.044219609856 -5.593525264755971
24.23749805784318 -143.97523018530651 -5.592456764573146
24.12220106652152 -144.04464328657224 -5.603579458021991
17.37756257549931 -156.87885564809972 -5.525266116897585
16.62801318800758 -159.70794029189912 -5.525333732941814
17.39125513360065 -156.7014620417907 -5.5279213218290675
17.22403330476853 -156.9175114844188 -5.537623397966444
16.32304129576793 -159.90289529125513 -5.545880171112014
19.289800457757742 -146.69635405584734 -5.521438387469739
16.79525805514848 -156.43550329804697 -5.5848297348410085
16.20288380809559 -158.63332746556094 -5.585016256679094
16.712025287519396 -156.42396478623857 -5.592156549223162
16.590207985121683 -156.53688088651916 -5.599999558913087
16.630986467733255 -156.42625741408375 -5.599006573465579
16.499766681502848 -156.5186420035902 -5.608071599112074
18.736970516313278 -146.84699707005228 -5.57689255013902
18.586847076388445 -147.1434337961561 -5.588650010452056
19.303806760176446 -142.76862282985448 -5.544269086658657
19.07653778473846 -143.0539871997822 -5.5690826260011
19.46599516240307 -140.45624537144565 -5.518863031257698
19.473762897569788 -140.4147647002176 -5.517695296807215
19.001478224934793 -136.68040979361695 -5.516497369236911
18.540905225965467 -134.95287429488772 -5.52335690197888
18.571999616721293 -134.84627700945634 -5.515970294343089
15.615500790765932 -144.75378992894045 -5.525254000396103
16.224374239616754 -141.72237587744058 -5.557686117677772
16.101422357269975 -140.39952432382037 -5.606655902246439
16.571470218444027 -137.13758111248754 -5.549843193561317
19.31592024095933 -125.44566327074006 -5.582792436675075
16.173502032554936 -136.06350940396834 -5.592587671690048
12.69822583739309 -149.08611304868936 -5.604808215142956
12.961707045123536 -140.75227258988028 -5.559891479390844
12.957326314621692 -140.64011133370212 -5.571494497681049
12.578264023339543 -141.38574446384948 -5.5560307107970575
12.553892683583804 -141.3894068524995 -5.559339897218508
10.569470957388797 -145.93741633565566 -5.605411659025205
13.384754263343696 -133.62435269629043 -5.5717760467348105
14.192605263933611 -130.18575299722085 -5.595701647901653
9.657041669988086 -147.70774559881897 -5.508907259878888
9.75489111587971 -147.24137018826704 -5.546232988203121
9.803485655039644 -146.75932068716207 -5.588589646734455
9.449023713887028 -147.67143654501257 -5.527254816384009
9.486085045853534 -147.5783715204299 -5.533537353539457
9.563944106867925 -147.49127648114435 -5.536302138468592
9.629667174974713 -147.12715189255815 -5.566308140775782
9.691042546723244 -146.80868571065366 -5.592236098233778
9.761866648677424 -146.7103616978759 -5.59637310554641
9.509585292720974 -147.12515490067315 -5.575156265707429
9.283723634643302 -147.5569406407258 -5.549700205482751
9.398618754605332 -147.3465689874018 -5.561851341483354
9.358557544804698 -147.3239489122872 -5.5667998999743915
9.199762596582115 -147.51082586379385 -5.559842205498532
9.158534848828397 -147.48354479955455 -5.565249607013243
9.057060467477857 -147.50628046145556 -5.569844037918314
8.80426715738896 -147.9526793457051 -5.5435758766329695
8.866965789064876 -147.9276902225787 -5.541950690263938
8.997103618251344 -147.34711353807 -5.589026878052282
8.654602465321245 -148.03097053929227 -5.545508812949544
8.739720582385434 -147.9574274919893 -5.547218283333901
8.516471864057804 -148.26340176912953 -5.5317691387618115
8.559691886806421 -148.26899728240554 -5.528622030106664
8.609347231790109 -148.14315703441355 -5.537572597281389
8.274479482680102 -148.67651859639415 -5.506793334401049
8.24087137078745 -148.48704229233442 -5.526799875010982
8.144524548421007 -148.5986784926176 -5.5217117473989905
7.767323316581374 -147.97733724297044 -5.601568509197923
7.216449585410375 -148.5268444188074 -5.577370006958595
7.155113633848256 -148.48587283987806 -5.5841365721902285
7.095027632172867 -148.43875345469826 -5.591389268878069
6.867405672141388 -148.71756498692898 -5.575627023378802
6.652125162624443 -149.41085502210117 -5.5202231411421465
6.778144306464043 -148.96330020406504 -5.5566119553072975
6.734281029798087 -148.6848045926904 -5.5846308395129745
6.538658855011066 -148.73821883040824 -5.588012527910825
6.222324078518643 -149.59637472011363 -5.521108443634159
6.268682785462633 -148.6881309591334 -5.603640259658574
5.920891080567701 -148.86271298676033 -5.600675183523684
5.757863776530374 -149.22658842811663 -5.5731241701405025
5.627645772806812 -149.34663085880712 -5.566717936100241
5.329965465724553 -149.5211977040417 -5.560812873684738
5.179762812067233 -149.79147837743292 -5.54110982982926
5.1772495978918105 -149.33672218827857 -5.582477835221151
5.102633487302272 -149.4171247794505 -5.577554068172031
5.068916298155615 -149.35766561043962 -5.583915682586524
8.145224467173387 -131.19870652166694 -5.5798489037556225
7.024984431359482 -131.11958509368768 -5.551725260775214
6.595630641757278 -128.73363389684104 -5.504252236242297
6.465520554172059 -128.92793183086346 -5.539063998253692
6.5561145345018605 -128.73267279687084 -5.504434840564929
6.435031384146695 -128.74236786315132 -5.506957158660458
6.332476808954855 -128.76074511875524 -5.510660191056535
6.32268956304163 -128.73589792231346 -5.506371226314096
6.164483955514651 -128.8282767449173 -5.522656268270533
6.221397479157847 -128.76173996464155 -5.511116688634339
6.095684857846347 -128.8274945699144 -5.522470900151149
6.558374091308883 -126.9310059555431 -5.512227586968914
5.975892652637773 -128.71897524800102 -5.503723921510219
5.549593893621672 -128.90221743251794 -5.531837338590077
5.576072143419345 -128.83006570708127 -5.520073885178178
4.4209730428559775 -129.28172407918183 -5.569063298838005
4.96231869526736 -127.10305424634883 -5.564656409283685
4.982445533145215 -126.95482541737145 -5.544206901250004
-4.175593543518277 -164.73738492134297 -5.550674514231563
-4.321753532428422 -164.78930718247958 -5.552136274937814
-4.371964433739205 -164.63635399637974 -5.561276250677571
-4.552393824681825 -164.7530506662584 -5.560239694409253
-5.186675662285207 -164.8001168642552 -5.57412024970109
-5.569703155216427 -165.83624288004876 -5.531113411690719
-2.3799631761435798 -133.24193976362943 -5.505209087545816
-3.4532680853094746 -135.80902615987353 -5.515667576933857
-3.8075644714295116 -129.5824882487367 -5.595540039051583
-8.286429683756362 -146.39565836376931 -5.596490683722278
-8.465363368682661 -146.59223425914848 -5.58187668951112
-8.691771702781752 -147.0750963585046 -5.554791093860413
-8.586937948207842 -146.7519007654865 -5.571198701152469
-8.527070341043656 -146.21119345045858 -5.592924068717547
-8.844140522509838 -147.08512900111614 -5.548408062406966
-8.710250998466703 -146.57192188899 -5.572483661064362
-8.750542643562971 -146.17902059350615 -5.584529025746344
-14.797399316356932 -169.80529336701642 -5.517879586662874
-14.831924484266372 -169.61264579413643 -5.526580826634887
-14.896594595304615 -169.45441542899687 -5.534545181408249
-14.86284618079147 -169.16444158493945 -5.546522533388542
-14.875179899224795 -168.9367127049494 -5.5567535106923085
-14.774819881061847 -168.56046151476616 -5.571556102722208
-14.837146486744265 -168.40638318607256 -5.579128659525834
-14.845581239095386 -168.1846597089983 -5.588510375781021
-14.78820855997244 -167.87173645870686 -5.6013917044112675
-9.360399186794824 -144.8128694538829 -5.597742030984316
-9.794187673832463 -146.3685926620385 -5.53304971575694
-9.889547619360256 -146.2436613143708 -5.53280853815477
-9.966961172532598 -146.11590574701142 -5.533299890466021
-10.092565818011332 -146.098310884262 -5.528362498246603
-10.013623043154071 -145.97146912672093 -5.535544637206929
-24.014616592777386 -127.45220230796876 -5.569552226772283
-24.26656461538436 -127.14512639294804 -5.549057364676576
-24.356389308340788 -126.99804649205693 -5.539973026177151
-24.492111681114288 -126.59214072974466 -5.516752473513173
32.95301820547292 -179.4134552810276 -5.420832724565629
32.80830690543202 -179.51069162068305 -5.432938839238876
28.68643023584105 -157.16104405460212 -5.456199104808989
26.816255675482928 -151.04800061518037 -5.509784861998341
26.18520133465566 -144.21525871990622 -5.433161404237255
26.284318030498525 -143.83013659463217 -5.416506546962054
26.11626657310552 -144.1067319242269 -5.436756647632118
26.12737649264345 -144.0430284515842 -5.434370476462678
26.20780732253428 -143.86606100284166 -5.42384197749511
25.752576416820744 -145.25898344264024 -5.491295079586907
25.572576924437577 -145.07874342607997 -5.502690137155284
25.347195553862917 -142.91189907667916 -5.475967148250824
25.19772028344225 -142.71557526147552 -5.484308885685772
25.326431030624292 -142.114774190849 -5.459815006759523
25.05471632229862 -141.94395214772615 -5.478977409406264
18.657288940791375 -157.03449672745026 -5.4101065572764355
18.68914460971169 -156.91907379368635 -5.409650456260523
18.15278769850492 -156.8027338500121 -5.459440843142784
17.958438555016983 -157.2596439116387 -5.466815023603754
17.968271014297013 -157.07155340595227 -5.469935580947539
17.4448971333655 -157.72290126303858 -5.501170867163709
22.484822095349603 -132.70651085740812 -5.445554203296224
20.318293297330598 -140.75324333423578 -5.421407505993143
22.013742516630472 -133.1158414389149 -5.499745704273943
18.797574943756572 -135.01085931834118 -5.494106190814284
18.7719126149292 -134.77779692935857 -5.489327936213898
20.901853443858883 -124.02076510491504 -5.415314349591145
20.936976869278524 -123.90584906546138 -5.408551648850986
17.00671593068304 -135.17273185643327 -5.434738781284516
15.381612262172107 -140.7091829090087 -5.413217391062327
9.96823901129042 -148.01212784183025 -5.456765897895282
15.183835970750952 -125.42532165060085 -5.451053756750712
15.16231269195042 -125.34171420585467 -5.447055077092873
15.230304611743914 -125.05846687305225 -5.421196241920332
14.848545819647153 -125.39400772122751 -5.477710467871384
14.960791314402531 -124.93009445165058 -5.43507840128555
9.34306035820382 -148.51324901789698 -5.454201620267537
14.890531930039192 -124.78964338691219 -5.431061486566032
14.899147322933302 -124.58885701480438 -5.415957444000084
14.800889400757313 -124.39833928314175 -5.410507311695696
8.936786905054333 -149.22246291864596 -5.41363975615454
14.430036772841241 -124.65945786023282 -5.46015588445929
8.670453338647752 -148.82023559116345 -5.469087753866928
8.362148661875622 -149.60629534167106 -5.412861208800095
8.327771534820492 -149.3733721154219 -5.437164093352528
8.322090153147792 -148.6751349784648 -5.504104479366834
7.645527112105607 -150.04509621620906 -5.411733963127417
7.659812119796147 -149.4220631100848 -5.470165224368834
7.435123999192068 -149.70494692868675 -5.455104194976352
7.328145828493261 -149.39955118046072 -5.489427155747033
7.169326980695041 -149.51785546805135 -5.486147297109741
7.229111755431337 -149.43728185930837 -5.49078697915961
6.75674105112435 -150.2738662330416 -5.434537555327953
12.849067678845136 -122.66796062064458 -5.436925008884195
12.581621345172348 -122.41010763470926 -5.437173777166537
12.422328728100748 -122.25705815873681 -5.4372186063494805
12.523097795974223 -122.05265243028911 -5.414395590062985
12.352957717770455 -122.33605384569819 -5.448325322613981
12.282712154111882 -122.22012982083032 -5.444600884997341
12.19665185328164 -122.16665272376555 -5.446736494840226
8.06894927111032 -131.44141021855492 -5.4786567679246305
8.073851726788032 -131.39507561513494 -5.465305504217573
7.974323686525388 -130.8771731443863 -5.50119122638452
7.510749108935636 -128.51285117425257 -5.4480812552516245
7.536928930533137 -128.51558974065074 -5.447796348922537
6.803687612573645 -130.87079063026866 -5.485656636485871
6.777822543582269 -130.9404842623171 -5.501106957448081
6.901755320001044 -128.73186854335694 -5.500341167901213
6.836126324994913 -128.7342801798056 -5.501688641423687
6.719954621479663 -128.6663480771169 -5.491178951344239
7.172002076111546 -126.85879998262709 -5.482546238163754
7.189507101276888 -126.79254981914394 -5.47223636174929
5.9018089540066345 -130.82225688541692 -5.43048229399384
5.920176799288552 -130.74180725443952 -5.413808359731503
6.43817768304188 -128.6781804931097 -5.495793277200697
6.4610696218052155 -128.62276496201218 -5.48595909260546
6.153428532819665 -129.60880523102554 -5.412236508645771
6.448389778009203 -128.15614710735227 -5.4044023209890275
6.741416898709712 -126.42892442395606 -5.434514136123332
5.619155142537615 -130.85906032049886 -5.419748826578737
6.171817432999122 -128.6421023620801 -5.490581855192051
5.802997961470323 -128.52496346268686 -5.470189850418447
5.773932638684409 -128.46225234150654 -5.45938414643083
5.774131157797461 -128.33266434813982 -5.437359792439743
5.596444551122209 -128.72309240350535 -5.502386702608814
5.604635467322815 -128.67525406201355 -5.494395789475882
5.6542417096484066 -128.4641553864415 -5.459186197887833
5.670415782492954 -128.37211344612876 -5.443685387463729
5.021679587114429 -128.46563929066969 -5.452770317221431
4.988025915016061 -128.46155977574244 -5.451548233189854
-0.9554401604462797 -131.03908654533484 -5.458412828056655
-0.8527165246904573 -130.57778779802453 -5.421857243046467
-1.4775386919488316 -131.53156742410098 -5.4596921756085806
-1.644001825196657 -131.4233047527588 -5.436445311543522
-1.7816696477595517 -131.58269271764985 -5.438376472119836
-1.7059897607504837 -131.35412356041027 -5.425327576637203
-1.965424882604772 -131.9413416528587 -5.451659869747111
-1.8542589775644185 -131.61958948506563 -5.435268397848565
-2.0180494323694145 -131.88069689725506 -5.442320909582063
-2.3049734225896845 -131.870821991598 -5.41673456832127
-2.751145868891193 -133.01518145565996 -5.457392487921535
-2.787150906650144 -132.92036763420504 -5.448141931541761
-2.8477078392274624 -132.81951357213282 -5.43619132912044
-3.7063775412203146 -135.76790754310963 -5.490542286477412
-15.432274898681916 -172.56984534236358 -5.403456045753345
-14.937061058173603 -170.25366621666637 -5.499807584297886
-15.479407447220206 -172.3703627823024 -5.413373867959881
-15.394703379793379 -171.97951222500782 -5.429466170761498
-15.346432326089895 -171.63092442988668 -5.44459014336894
-15.270412833630418 -171.25223657117712 -5.46017934671062
-15.20669775912331 -170.89594821417683 -5.47532142999358
-11.49205054856588 -145.69141362576676 -5.474880762291039
31.2443455490711 -161.89145201606078 -5.322806825572941
26.120880256674816 -142.70717016863935 -5.405619184899736
26.11995221725811 -142.63522035241752 -5.403988209150619
26.123487456262666 -142.49735444542682 -5.400556791933441
25.508790462951183 -137.41994723663151 -5.326232325055656
25.487025931684485 -137.47474136622827 -5.329585591116122
24.78216661504979 -136.8511968912157 -5.3735546271707815
24.53546294402304 -136.77945759330873 -5.39286722056077
19.72821194576566 -157.21895973822058 -5.310390467349288
19.5946387238238 -157.12928815393016 -5.324248138955468
19.499968473779994 -157.12477174800682 -5.332890583130517
19.406672288642394 -157.11923920631926 -5.341411413446296
19.264143920679224 -157.01301678037444 -5.356356092724681
19.06416912150526 -157.2604572086043 -5.369291695954071
19.11343109180872 -157.07621431062267 -5.368613574475261
19.168946671953865 -157.00113777665297 -5.365142725296628
18.946581695133776 -157.29746835991557 -5.379022054891107
21.276068136594127 -141.33937872577815 -5.313840858423133
20.571877643620905 -141.85048098373952 -5.398486315008758
20.601925027885464 -141.81481498729738 -5.39491775219341
20.77926874576056 -138.35346232465642 -5.335687024256131
20.792489373262462 -138.22720177942114 -5.331828168377228
20.424488328805054 -138.19013223656253 -5.375474353608376
20.248540827737703 -136.02991466663514 -5.348282058094663
20.2489707560143 -135.95405172580553 -5.346139915248103
20.295330577882456 -135.87822939591263 -5.338369379130484
17.910890118752057 -142.1120379761161 -5.314779419063141
21.04245202009789 -124.04498733694138 -5.406122837887849
21.17879547917405 -123.32747074205898 -5.3693964539961065
17.535527730265528 -137.5690064244178 -5.40506290327954
17.949276856203007 -135.8509320206483 -5.307801147470555
17.531664995652278 -134.9934648817376 -5.345833082768632
17.44056524973034 -134.6047185217167 -5.344932085594756
16.060888390012508 -140.3608542481465 -5.313453567774981
17.25095576491997 -134.54510335622024 -5.372118713651346
15.722127261022504 -140.94371514905322 -5.345487417558364
15.70144066265875 -140.88974889499593 -5.351501884408664
17.245718952956594 -134.50227292065216 -5.371132508120667
15.622197879079462 -140.40206387595055 -5.386753124430806
15.626383988124989 -140.37214054109828 -5.387290806465043
18.40000250170426 -128.0069518574858 -5.317508360771961
16.10106603887439 -136.02061090489084 -5.350520409442612
18.31483304590112 -117.84769536466754 -5.352719150032291
12.921224038129187 -140.48507688382125 -5.369225316035704
16.290949779159767 -125.97814832371684 -5.390806402114343
18.15290606814107 -118.00864013308751 -5.370124364535641
12.81909131937757 -140.66435756962127 -5.366240855956896
12.828693511751405 -140.64206302535482 -5.367253758482933
16.22094911782745 -125.93345811738246 -5.394142901012642
16.19727670868362 -125.89380540366159 -5.393663537804368
16.27362431797735 -125.63944962793177 -5.369495924649504
16.26000379136564 -124.89302326724663 -5.319579335600615
16.163712939245542 -124.62693927299492 -5.309610863385469
15.985678676848927 -124.65231090325224 -5.327076053755165
10.199920951850242 -148.72720935120398 -5.370915891751868
10.607455590071016 -145.23215536426528 -5.325283953692965
10.611453428393565 -145.0566926991196 -5.347533071976232
9.272206294613312 -149.88881504804704 -5.327561015775507
9.125315996509675 -149.97856053602828 -5.328891240645865
10.102681457208908 -145.5135221490553 -5.333543651701167
10.162705593897817 -145.4347058709154 -5.338711940779877
10.044031783629976 -145.44923360954178 -5.346822085776276
14.950060886785135 -124.30532817784918 -5.391322603312949
14.875820717583599 -124.35191467798255 -5.400835891878407
8.884780597012933 -149.56857782058577 -5.3839405569784695
8.357888182953799 -150.64865544394834 -5.313634234019501
8.00010592054567 -149.91641041187538 -5.404423139313718
7.1529946428915965 -151.18252702654524 -5.32959394411235
7.068849375568835 -151.01163821529536 -5.349978603540463
7.820416226579834 -146.85329476762405 -5.308204064276793
15.740712872829356 -113.13983075131121 -5.32865599595422
7.716062821506375 -146.75590678384592 -5.325825773560432
7.665389252178779 -146.84788071635495 -5.316278082342329
15.513436645599715 -113.04393517257735 -5.339460376494299
13.025306809010445 -121.1357935219619 -5.307907185481308
12.99140805014073 -121.06861382175994 -5.305379584329584
5.760754790456199 -151.29433390363883 -5.381898269841568
5.598321665032342 -151.1402822001794 -5.40253014090371
12.440154792362998 -121.77684100307974 -5.3994074474500255
7.849750377081485 -130.9132872668393 -5.326986360784629
7.429991551272882 -130.97784245499417 -5.340064761678454
7.434618185245769 -130.9114557083146 -5.321552020006208
7.377932431262428 -130.93408172221405 -5.3265525759015855
7.192463934668928 -131.00942768640613 -5.341949678969874
7.022942332199419 -130.94649795979444 -5.318205214869024
7.100295815794347 -128.14899542914304 -5.392870575453985
6.942295338936724 -127.82075457957151 -5.3374603417436735
6.775955758212451 -128.00288773330132 -5.373030278210979
6.821025072854071 -127.75894032561067 -5.328824852518439
6.876136337842276 -127.74012980632287 -5.324407916954852
6.075293028765888 -130.5643045536262 -5.382832711946943
6.105635353003544 -130.4559492085085 -5.359801698547563
6.148702775527656 -130.44815836768163 -5.360149332959603
6.707519216460717 -127.87064394317146 -5.350629814361535
6.766697017161424 -127.77252806604491 -5.332199989276143
6.576573240153499 -128.10612409308538 -5.39420229139278
6.23976698257832 -129.10655301007958 -5.311654371250169
6.475307351478868 -128.107706315351 -5.395630183673282
6.1235070623520915 -129.12088632474172 -5.312793711655504
6.157362954976521 -129.1042107966782 -5.3099624081834875
6.377557377342139 -128.03836347601714 -5.384459328717706
6.004296911734995 -129.1575420880398 -5.318056429112797
6.073896057475422 -129.09964522113555 -5.307604298960839
5.918668146780456 -129.17638403334513 -5.3200929346236485
5.166625523148612 -127.64480136304891 -5.317766770005492
4.365931257444468 -129.5053073891558 -5.32258226610386
4.439301356354637 -129.37880915773144 -5.303426288464227
4.773981232956008 -127.76815580788771 -5.3343677543450445
4.641632417911178 -127.688659583868 -5.319397182090149
4.391638756826019 -128.0883838098836 -5.380050392349372
4.334575938649854 -128.05582451442456 -5.373589503896418
4.376356277832561 -127.94545899741868 -5.356706564858653
-5.423865949893642 -169.26382857592512 -5.348646762742164
4.216414931060976 -127.92854542557687 -5.350656177601443
-1.6070025254347406 -130.42038377558825 -5.347507557823065
-2.471759622692298 -131.45682883058623 -5.3693296617094655
-2.520131640298354 -131.48438554891254 -5.3674796999679595
-2.350275803589785 -130.6765087046986 -5.312001257008355
-2.770411432002719 -132.07319706708333 -5.3914209749945226
-2.7387963072877817 -132.01565289972032 -5.389946582684029
-2.517771618984865 -130.79154521728026 -5.308610230194378
-2.8458617632000625 -132.11555968268743 -5.387896681220117
-2.9958967168475166 -132.13753089373753 -5.37626441869328
-3.737962668857868 -132.51274535546605 -5.335805941957803
-3.7222323633164898 -132.3996787130132 -5.329742336975552
-3.625898667050114 -132.18889157617468 -5.3239329589125575
-3.6309014199058236 -132.11548779573954 -5.318362158181882
-3.5845354074962685 -132.05895724275211 -5.318497715173422
-3.7376336666584926 -132.44300988179265 -5.331213498851149
-3.709858190896478 -132.3093642079414 -5.324721638939286
-3.703453025765926 -132.21529532482728 -5.318876830218647
-15.579665620967175 -173.36307742539782 -5.369735629838233
-15.711708609658976 -173.2717351988905 -5.376166640144895
30.549798166807115 -152.90161762833313 -5.235999185781257
26.336942905084598 -139.2115157488195 -5.301711193226908
26.325691815706918 -138.71786829665137 -5.289583350427158
26.294352850314368 -138.530678092688 -5.2875245148418735
26.305455597872815 -138.40982185084624 -5.283482560431258
26.280278360328303 -138.4675474979887 -5.287123286605599
26.34314601942807 -138.02122279820563 -5.27017630592978
26.246608617269516 -138.1537656257651 -5.281951319692886
26.244587237844456 -138.0960638064092 -5.280619224349007
26.269852689762743 -137.92004514040985 -5.273851296898423
26.152006636971855 -137.66414318936359 -5.27726430650989
20.72933761822715 -156.98820048258386 -5.223041813696942
20.70212260699833 -156.76360434183806 -5.22972910767258
20.619319801893212 -156.95985605251352 -5.233764668338232
20.51221375730596 -156.9386972979879 -5.2440521991797855
25.408148772487145 -134.64006802455128 -5.255522126369716
19.965684371132436 -157.32289748986486 -5.286802709685272
19.839437486030324 -157.2592200138792 -5.299516548052445
24.848790180856987 -132.6889521576119 -5.241846456959463
24.893423759337708 -132.00002044076996 -5.214941786647769
24.304340301672138 -132.24626036257823 -5.273841411882365
24.29951425728739 -132.08483682860134 -5.268738387938461
22.095628108991598 -141.39589977466576 -5.218348937553961
21.374096559297172 -141.4358278018654 -5.303022941079157
21.72337172073134 -137.93136360436748 -5.213361264400328
21.602690217930032 -137.95252100606416 -5.2284830667743405
21.555076052285436 -137.76971951577906 -5.2305385014640144
21.60712716226136 -137.73401319320124 -5.223532714562367
21.596986118568985 -137.50708081615724 -5.220111396458626
21.356504359129254 -137.9524858161315 -5.25820975610618
21.188312740663108 -137.62210896274604 -5.271945748383249
20.647699315809916 -135.242953330014 -5.276567375790309
21.957869465191408 -121.39239006216098 -5.240174288667831
12.10833868975977 -148.61035555871388 -5.216261637131428
12.166625769877514 -148.5643312608924 -5.214884952482786
12.002718574806956 -148.77835330901783 -5.210789853441296
11.937090238036262 -148.69144095061043 -5.225038762212452
11.807311670668856 -148.97244613206806 -5.2110677894985695
11.567794140828923 -148.96246909140842 -5.233863812622966
11.371446129496547 -149.19720347844714 -5.229398434905088
11.464393918648447 -148.9093464203364 -5.248114418117351
11.347568223963737 -148.78129639277194 -5.270498125073983
11.258107892021496 -149.0735735016894 -5.250932779248912
11.129730768887892 -149.15116315358088 -5.25474404803772
10.930600489261975 -149.0809371472003 -5.278295479544886
16.318041988102273 -124.64090368345936 -5.296973261352852
16.2468930938346 -124.58139453865766 -5.299182542471137
10.558743132173976 -145.5752874699233 -5.285472429844399
10.485708249364874 -145.55059555500532 -5.295306654793848
10.517336721915914 -145.52769440201513 -5.29540572735705
10.415727013535761 -145.54497678851118 -5.302317034410125
9.144933552640426 -146.91733273236935 -5.222541454789053
9.047680951623551 -147.0710049111106 -5.208960101255398
9.08716422320328 -146.9814836540244 -5.2180377768010455
8.969824416856826 -147.02753244985843 -5.21980027795974
8.932994113413882 -146.89256434324048 -5.2398763877502414
8.855551555693038 -146.9276280690356 -5.240266680620333
8.893915605192412 -146.90420305998154 -5.24089207696821
7.732416232929911 -151.32042540453864 -5.285742753667464
8.777622065066407 -146.99388913503572 -5.236517625218228
16.621395568815068 -111.69427041897016 -5.211225541323064
16.501358121133173 -111.79029722812582 -5.222939259271717
16.462433511412986 -111.6191578769342 -5.218433057205373
8.146488511224902 -146.87181919553467 -5.289132945154822
16.392286006468304 -111.55359132908026 -5.220155616990897
8.005390679330343 -146.95090796630728 -5.286212036591194
16.225976660286356 -111.80136759273647 -5.24139107212195
7.91090676121561 -146.91826069903038 -5.295269366530716
7.971020349508564 -146.90000136734656 -5.294626589514572
7.742546926100861 -147.19030493735175 -5.268138409051377
7.845958753522046 -146.97766193919884 -5.2907559259998695
7.712587089538275 -147.10311719465295 -5.280922087492989
7.364869890456482 -147.30730441085768 -5.270210438650085
7.179703545962003 -147.44057741638764 -5.260774262302548
7.241961162618653 -147.31150247247317 -5.274833682684391
7.1474292333740745 -147.38730969500557 -5.26891831339963
7.08454891676184 -147.27256713992216 -5.286195959658397
7.134993718960822 -147.21440430175 -5.2917205087175185
7.80035445424096 -130.77955082578237 -5.2885019795420565
7.738171868805086 -130.76388617598013 -5.283811667243281
7.5681885130210365 -130.5282929147397 -5.215314043397009
7.093755740872755 -130.83318452771056 -5.289843359254064
7.0451015470288425 -130.76090882184764 -5.268134999352478
6.8679069067560246 -130.8851152479296 -5.294647771418084
6.848098152754648 -130.77471455273815 -5.263777925982334
6.8120066295523225 -130.64723949870447 -5.227534904544524
6.675942697082927 -130.62663455346527 -5.215537391429997
6.883529482841714 -128.8903553130418 -5.270141845379514
6.9267335452242325 -128.86296149212498 -5.264181846638701
6.837690891078822 -128.87063883589812 -5.2660903710293425
6.424544639357736 -129.0029799877321 -5.292420281900748
6.468161592853214 -128.942641290158 -5.28024853338386
6.356908687097203 -129.03279204600165 -5.297918531285446
7.233092301175477 -125.2193775884646 -5.240748569385267
6.268705086382358 -129.04940987291684 -5.300305014611961
6.28395617714577 -129.02206718635009 -5.2949062909281155
7.150125945042195 -125.3702471240561 -5.266137767705648
6.167503355212363 -129.06153753739974 -5.301371693079976
6.964250860412603 -125.36637688601537 -5.272529549837639
-3.350838735771868 -169.12794487426265 -5.2909083405586
5.964739066506778 -128.94925803361056 -5.275101686881296
5.828419931312595 -129.04732043711843 -5.292100592298954
6.75667165199841 -125.27710282135378 -5.266970748763591
5.803511886577144 -128.81841683561913 -5.24547764832334
5.601793171755929 -129.02997002037534 -5.283052144759125
5.643948588896571 -128.9494192911324 -5.268096990160912
5.626013492198162 -128.87644659031616 -5.253068233432124
4.610041377738491 -129.24825037627588 -5.287819418911733
5.048843474568109 -127.32892169733307 -5.263754697078925
5.065430169984181 -127.28850082412151 -5.2570045007985895
4.391458688840625 -129.35982283033576 -5.297476580308647
4.493597462380451 -129.32107793340938 -5.295627254882228
4.74218618329845 -127.5749756897571 -5.301994713080074
-5.479993087691623 -171.05005475368014 -5.255568686674954
-5.603830406349582 -171.00773744566376 -5.261436290662605
-6.129060589729329 -171.91488334237914 -5.229196367653669
-5.9243581445037385 -171.08829541332878 -5.266807262990557
-6.053736148973428 -171.05080613215063 -5.272816716037777
4.17813945530703 -127.22616346701102 -5.236305884289862
4.215691995616753 -127.22322525322137 -5.236423803255183
3.6595064048025696 -129.0648524968633 -5.203207361179503
3.723123118279073 -127.63602308595944 -5.292473713652101
3.720721759539713 -127.2601991026056 -5.23270513207383
3.6919330144731095 -127.15239850753426 -5.214793771591792
-1.3854804258210809 -133.54317320609476 -5.235874811261845
-1.3296364789990651 -133.2934861796623 -5.225580395593035
-1.4590980889405998 -133.56594557007998 -5.228069113528224
-1.9092981414405834 -129.8898389581207 -5.27138131886952
-2.2076399341968216 -130.40957567252178 -5.298816470789544
-1.9985525726297588 -129.74579920967236 -5.249924224989154
-2.2678363158207198 -130.47672447854407 -5.300290172198739
-2.224699001528272 -130.18748238642056 -5.276238422847605
-2.7567275823067234 -130.88265108504288 -5.296821575928369
-3.455427798849353 -131.62362142350267 -5.297738793629563
-3.4435980697373427 -131.5816251824414 -5.295521063168065
-3.588599979301055 -131.62756651867042 -5.286393096798796
-3.5445358801063733 -131.25866064684962 -5.261480578559153
-3.4363718982666995 -130.80792643583598 -5.233525779461932
-3.372353651528135 -130.37877278524095 -5.201451720936939
-14.042801844904579 -149.7221827785943 -5.238877895885569
-14.200009488460884 -149.709325264168 -5.232557791282995
-14.354333513277252 -149.58361448645334 -5.230363439542517
-14.43297753325101 -149.30346468568345 -5.236564895963115
-14.49241429909574 -149.23250542141076 -5.236139941784985
-14.536956317899199 -149.15471857311053 -5.236896735087441
-14.78159947115437 -148.431021947467 -5.248300719093015
-14.810743722732392 -148.34227103377825 -5.249373238879036
-14.707000247764709 -147.87155492430816 -5.267353719546366
-14.70625981864495 -147.5588638063175 -5.275940489890478
-14.853587644531926 -147.2223043946814 -5.277552373841466
-14.849489486814823 -147.12013408128482 -5.280062301246217
-14.889012051770434 -147.03700216640058 -5.280354660877823
-14.876895072744466 -146.93159834452172 -5.283253415998184
-14.906715149086976 -146.8441627170542 -5.284035950520018
-14.979041121950521 -146.77833007255626 -5.281865173921577
-15.031907446848608 -146.70139281632183 -5.2812142687944865
-15.029238273703127 -146.60114548976873 -5.28338270440061
-15.095369642677023 -146.48072274680075 -5.2828402407337265
-15.171922723765599 -146.36479650644026 -5.281612793663836
-15.17701024164847 -146.26860287019278 -5.283161817207219
-15.189737733314908 -146.17404693544515 -5.284623145985717
-15.225291103526535 -146.09139685908428 -5.284304142574773
-15.257557631747963 -146.00541043856532 -5.284544445043692
-16.58988705835062 -142.84772362712587 -5.251164907450772
-16.732031124552968 -142.7416619273259 -5.243623734755353
-16.898987072277798 -142.6904266634625 -5.234722238777852
-16.958186045009995 -142.56492609370036 -5.231686290062412
-16.90314126748229 -142.31143961943525 -5.2353760284620225
-17.007106905290158 -142.43682349325374 -5.229148570339773
-17.106032059692886 -142.26654483362233 -5.2238815060966495
-17.17812954589408 -141.80596671370805 -5.220048286805111
-17.145388966093428 -141.60858231454773 -5.2216342820909665
-17.145839298273422 -141.51493884427177 -5.221231462899044
-17.28119230706379 -141.92649223170545 -5.214120009746132
-17.210417976319718 -141.7192070412578 -5.217929198116775
-17.45792832170087 -142.06372027173114 -5.204387064885896
-26.475827652423135 -122.52940892865712 -5.257189840447063
-26.68414058222021 -122.3106333159759 -5.240684553178729
-26.833377385624225 -121.97212437193502 -5.218207554042149
-26.95403385864369 -122.06943148772531 -5.221458497713927
-27.200063909209447 -121.69006523598529 -5.194686256126265
35.16102589364887 -169.45482647614233 -5.121774985149137
34.80492886491568 -167.62542998734364 -5.123992467485705
34.715201858476014 -167.73635704488441 -5.132581512977822
34.42040305125917 -167.58585124773612 -5.15372771724323
33.96597999870953 -168.14049899993225 -5.197167799639134
29.19993754510792 -144.053847303449 -5.173908700955761
29.102190141334745 -144.17462027947587 -5.184938211237531
29.157949585692357 -144.113564110562 -5.1789244159698535
27.589665095419655 -136.35325379284524 -5.117227997380328
27.439775274259077 -135.91034921720413 -5.117574838261744
27.32750610015271 -135.97130336632117 -5.129000734253708
26.79626752263637 -137.12376708267456 -5.207142243220157
21.93107875233565 -156.71831103092006 -5.115052638141798
21.65541408014275 -157.25272428725705 -5.131771835920246
21.752606087865978 -156.57967218589985 -5.134406002926782
21.848777235052395 -156.42887327934625 -5.127856985731432
19.947667963594313 -163.7341586477386 -5.155782210947087
21.61201105974544 -156.51114257250572 -5.148906733110398
20.359600689713645 -161.30493679525702 -5.171402774411373
20.41851891534468 -161.19987100928716 -5.168372095914929
21.457268458746746 -156.74378565927506 -5.159458626759674
21.476289645213747 -156.6116343022283 -5.159981882143615
19.98619714476805 -162.71865514697788 -5.174322632038445
20.022874272848732 -162.5395784201059 -5.174948306168152
19.755895670532063 -162.41117104867035 -5.200836020737226
21.041027469797747 -156.68647594874093 -5.199554362743035
20.912769896906582 -156.972882343755 -5.2062923735773285
20.93948769337419 -156.67793437866547 -5.209188518287405
25.049952044015257 -131.8491579833301 -5.196384238255323
22.515571743624022 -139.84144098502472 -5.1511866560711175
22.36296897995943 -140.14531258684457 -5.1735663259744396
22.329321057931335 -139.98493527072816 -5.175396954469235
19.16297239211673 -143.07608237885302 -5.1173798885434785
19.313756328320594 -142.50340899091734 -5.108340324089049
19.17916443531318 -142.6692592513728 -5.124028691382062
19.444767434015542 -140.4077259906043 -5.1174376720727235
18.48409176619866 -143.46574919959886 -5.2015536378919744
16.93902947878874 -135.13190941622045 -5.160694292225357
18.77578000094657 -125.41809107286738 -5.121866085188049
12.36584097439614 -148.98864113298623 -5.156542306016405
12.203240364334063 -149.2335259321153 -5.149667963986839
11.967579631971184 -149.26926957844344 -5.168613139295364
12.100842834112001 -149.0004017906621 -5.180964940884576
11.855347725976362 -149.44386033787256 -5.162774077989964
11.911119324402977 -149.24091686557358 -5.176490357064786
11.773308670205552 -149.39686355627458 -5.174675077553833
11.702550494201398 -149.41215548296395 -5.17969410989919
11.368298114793529 -149.46222691099473 -5.204799498990729
11.17545526429704 -149.77618210329427 -5.191964176478801
12.821154455774426 -140.45478404327898 -5.168824200264836
12.829160643009768 -140.43073738062532 -5.170778743731068
16.47413102304359 -123.40809574756207 -5.197316582103537
16.344456756552006 -123.23755888208603 -5.196533510312053
10.108010199250884 -146.6766762150105 -5.181589798052111
9.943525213810071 -147.00658876490365 -5.15187177336337
10.053675704083957 -146.70101191766943 -5.182866034034243
9.882972455388956 -146.98075809429372 -5.160040169516314
9.594873465782442 -147.04081041566582 -5.174282397441791
9.534230430440491 -147.00819718681294 -5.183039566252556
9.369479845495203 -147.42169798035204 -5.140823626280636
9.400626082437206 -147.075443611696 -5.18394721061984
9.4557042349249 -146.99985007467595 -5.189877573531366
15.394605638337785 -121.02957103926649 -5.116701818697391
9.207942038681008 -147.35851851539536 -5.160416269622696
15.27770992644199 -121.1631734154665 -5.135862737525264
7.928349465559365 -152.344970843205 -5.177119492416644
15.213169625479368 -121.10401828854064 -5.136740457778365
9.007895021393514 -147.21790465787478 -5.192333316345264
15.077584778903637 -121.07376906371783 -5.145339489569373
15.155054827722694 -121.02854916430398 -5.13588248741225
8.806535330118152 -147.3891220701739 -5.182931361351219
8.62633020525935 -147.93668364140996 -5.122405685400924
8.46559718945199 -147.79196878542757 -5.150973376112887
8.38810777258041 -147.72484868917573 -5.164264086543456
16.855690811460263 -111.53483376493068 -5.189316494807238
8.267281550269967 -147.6228477541858 -5.184444501137701
16.735456828356575 -111.62597205021757 -5.2008503481706505
16.488405557984073 -109.27732010859033 -5.118843258996198
16.396671442681445 -109.24933485186264 -5.123705622482603
16.253199247961618 -109.43525850285513 -5.140635564158722
16.162947284053498 -109.42284507661722 -5.146037838919722
16.1839361502929 -108.58471556386202 -5.109599729219837
6.776710009285411 -148.27762622636564 -5.168848521545504
6.82429089640547 -148.2637371640209 -5.168800000961307
6.665992813197818 -148.38890220211707 -5.158665952729743
6.254412782925883 -148.60728254193057 -5.144838319051184
6.1922466437538475 -148.6793152596007 -5.137607142921434
6.089555660873524 -148.71784462065165 -5.135885706698535
6.08185048585982 -148.54712669858955 -5.157809987651255
6.044594202955663 -148.31434433193556 -5.188379716908166
5.9251646870298185 -148.4187167084121 -5.178550876344014
6.005856816744901 -148.28482537547256 -5.193175287706958
5.776171215076939 -148.45360903189533 -5.178097193119881
5.858014251697075 -148.40642644837158 -5.181902808807171
5.732380995513298 -148.44043558844646 -5.180920940004212
5.560266258533802 -148.55770660582684 -5.17038963083645
5.4608031193793725 -148.57814738104256 -5.170139704183114
5.508756405587576 -148.5747272806366 -5.169514524159164
5.387488768793839 -148.5774051551582 -5.171887283408935
5.171290254323227 -148.4143345771159 -5.196586347970688
5.055497868519636 -148.47464578341229 -5.191251494897166
14.87105140412358 -106.7919600593612 -5.118144223750903
14.772846863786418 -106.75783919716514 -5.123046297450138
4.808470024031234 -148.79289847117983 -5.156172633719663
4.738520816586127 -148.77763423380955 -5.159176526806746
4.658393384580093 -148.792153281086 -5.158629387106551
14.323267506392384 -106.94962079947108 -5.159596594696521
14.246877435776785 -106.80961528745235 -5.158420153649535
14.17543103270388 -106.62419423760477 -5.155220339601817
14.115807545353125 -106.3905069953062 -5.149025861602166
13.829199219747498 -106.21007387645903 -5.159573722092261
14.081901118340951 -105.33692914451332 -5.10673002772544
13.737642140647612 -106.15061775208603 -5.1627181991176245
13.594916642748952 -106.40697456556144 -5.18260439024152
13.586827000399545 -105.7669121551452 -5.155996662683614
13.60912600549539 -104.87323819999563 -5.11698004591036
13.347463665152791 -104.41138198036532 -5.113754742894678
13.237470322829697 -104.40223405033065 -5.120352121339935
7.120285658338349 -128.28900675173378 -5.140189424274508
7.119272096718592 -128.17826885248846 -5.116429218425836
6.445354869159934 -130.4652160210321 -5.16008621780481
6.923209854288969 -128.1802042653051 -5.119139751723351
6.893153905509941 -128.17213196651045 -5.117655048102489
6.787596587141754 -128.19376371066951 -5.123043678679494
6.000207183823386 -130.57223965179546 -5.159502239263876
6.02986590282902 -130.45046754532336 -5.130192488991544
6.049648923105215 -130.4041582002671 -5.119536311664103
6.539771518660931 -128.13526374776964 -5.111547943008921
6.118983186314383 -129.5715966214889 -5.155679830419377
6.188653794790513 -129.44374000245745 -5.127985518857093
6.1377651326848515 -129.38955026710215 -5.113459739961694
6.472546740185687 -128.10819422514246 -5.105855576125734
6.775923349062886 -126.77455413120339 -5.153719117756871
-3.967846670017712 -172.30066954502456 -5.13809316033459
5.778872927417902 -130.5810752810937 -5.144829189013648
6.716183850690259 -126.79754006569138 -5.159138493077027
6.748299364523818 -126.53568339647092 -5.111546190102807
5.0486220113954765 -129.8666024647927 -5.166309890616247
4.953547630662663 -129.81755246822624 -5.149234740357891
4.268280028394988 -128.65287735621206 -5.16061284537324
4.181382008325754 -128.57597316094603 -5.1422036273070795
-7.198086132930397 -173.02150360371965 -5.202169001553755
-7.409068107115219 -173.16065560100085 -5.20072996730976
-1.7565250485062762 -132.84078239383348 -5.138747798170892
-1.830182305151876 -132.94120111279912 -5.1372479428917766
