ply
format ascii 1.0
element vertex 822
property float x
property float y
property float z
end_header
-11.085047256047753 -189.9819742853117 -8.007595620269587
-11.056103886543188 -189.90771789862524 -8.010899452505008
-11.191989277235853 -190.13837895977852 -8.001089873222616
-16.610530848284803 -205.5298917650195 -8.034457057119118
-16.67600920739644 -205.38729532106345 -8.036541172155834
-16.7546345489893 -205.33956395345706 -8.037064596581768
-16.8357355652279 -205.3112659734507 -8.03707839636586
-16.920223654353364 -205.30452290150362 -8.036854331512805
-13.319414157111385 -186.65353823788473 -8.00730518361112
-13.336645926808316 -186.58744106740448 -8.013003282033235
-17.114358298865728 -205.44801536437816 -8.03338942491019
-17.012569256240866 -205.3487790658225 -8.03554585920391
-13.363003104360123 -186.54998605168578 -8.016177007321112
-13.405825618266835 -186.49260170972858 -8.020992896107003
-13.474807808131557 -186.434070556948 -8.025694590917483
-13.621044370537444 -186.5061960548847 -8.018265752275349
-13.547672513080109 -186.38538427686325 -8.02942630957955
-13.55811079298797 -186.3688243548262 -8.03080875905089
-13.735124260847863 -186.57037872291073 -8.011523834623254
-13.684222934628083 -186.5085136745555 -8.01745587261451
-13.81454415830532 -186.46520552205612 -8.019759740697703
-13.754693841591015 -186.4042487892916 -8.025788075882215
-13.9085660058623 -186.6451953586286 -8.002916557208653
-13.87039252600181 -186.55859614182785 -8.010935460807115
-7.798848468839435 -148.16629437747795 -8.11446157906718
-7.1647491114382555 -143.4837179108044 -8.065145788013027
-7.301286914527297 -143.4883410517867 -8.065533138143483
-7.418425019333484 -143.3710278915156 -8.065156396671885
-7.498470880145127 -142.08910271282394 -8.05268103778715
-8.537074868602065 -143.7201022000991 -8.073267117800103
-8.705024487356855 -144.00161249939447 -8.076477582025017
-15.32377333861177 -176.9653128692986 -8.052073761310833
-15.289517342947198 -176.8787810832065 -8.046493435301581
-15.281616628779052 -176.83459845452583 -8.043284717066038
-16.72869150193856 -183.7273328860929 -8.092171710826934
-16.736398167826952 -183.6887943443624 -8.093504306096799
-16.034244826320105 -180.01957926133048 -8.089479862863318
-16.004127659830328 -179.90815785450013 -8.08705403535656
-15.990580524150777 -179.87824852687152 -8.086929416013854
-15.959408703057072 -179.7369169437761 -8.082188149544152
-15.936527916428835 -179.62914922971942 -8.077979461427526
-15.921390541799987 -179.54545974393724 -8.074191728159695
-15.893307311006017 -179.45475382029002 -8.070967612804179
-15.872451673960088 -179.33307878572754 -8.064513608901828
-15.827607687059231 -179.25971879254615 -8.06351875811194
-15.83123355146764 -179.14286756221966 -8.054341985702244
-15.81291250706764 -179.0641685335525 -8.049931666635658
-15.7817950219376 -178.97074315829735 -8.045302999061414
-15.736193739269744 -178.82669419791964 -8.037405630154819
-15.733060217058302 -178.77643367143406 -8.03338021448088
-15.703589802382561 -178.60457298472508 -8.02091098957492
-15.655890600724202 -178.4397569465518 -8.009846551493252
-15.640163447531384 -178.3639085220896 -8.00404440716428
-15.53920537120592 -177.5761504365157 -8.089697472647384
-14.654782022845652 -173.1774840401091 -8.09398042342336
-9.620025382653912 -147.64486149492458 -8.116609749594929
-16.78847027081238 -183.51494123077717 -8.097879165477213
-16.803984690788646 -183.46559549622202 -8.098956512582925
-16.649277843317492 -182.89190053996924 -8.003120320734832
-16.65852380700862 -182.7267580870664 -8.010185078321971
-16.656747633089715 -182.67099633096967 -8.012958381316011
-16.639111848055087 -182.61029611426176 -8.017707409276909
-16.583639496046146 -182.36716165462016 -8.034038152564042
-16.56341864184757 -182.26943604452185 -8.039908527366725
-16.548774369126356 -182.17335672849086 -8.044805665805129
-16.54011198084803 -182.11028062882454 -8.047746419801053
-16.42164164820572 -181.70127054292087 -8.071296162802383
-16.4019563278015 -181.58209285285963 -8.07525508445035
-16.321002488832402 -181.26447225121967 -8.08684091552808
-16.307052980099492 -181.20059384231098 -8.088404650213235
-16.287337694661407 -181.09486931533337 -8.090226090593458
-16.257429595342867 -181.0127319340984 -8.093148663546021
-16.24048785548031 -180.8755257298748 -8.093462507609914
-16.227741451795577 -180.8076181211202 -8.09384393891925
-16.207664752548663 -180.70414002240932 -8.094126886649764
-16.2191507704789 -180.60862598553874 -8.090415577173003
-16.17539144599915 -180.52617859071808 -8.093345057789424
-16.141905202810506 -180.41967683126794 -8.09387289677776
-16.104942071873722 -180.30835052565268 -8.094160779546803
-16.086032744624188 -180.23603387964314 -8.093470232635855
-16.06401097774504 -180.12514532547755 -8.091128572436284
-16.045691963213063 -180.03217459449743 -8.08881408476169
-15.96381848137625 -179.63852405136666 -8.075765692632451
-15.864050553899567 -178.9104656220603 -8.033069146222406
-14.375164000855753 -171.3431874947773 -8.01395992434599
-17.615576073466357 -187.19471248524454 -8.07581708473696
-17.56055928182872 -186.9564929198921 -8.087630579553723
-17.483890696784183 -186.85799532535384 -8.09433909065586
-17.1180550543572 -184.66627354036922 -8.013891211933014
-17.085314779064618 -184.58030715147925 -8.021038432710695
-17.091477630492573 -184.50637477364623 -8.024771442839418
-17.061032108802763 -184.3930020245537 -8.033188004080419
-17.030211097003004 -184.29537374573707 -8.040696164197248
-17.02316514563397 -184.22680516996047 -8.044889127886275
-16.993051572560134 -184.0125614041118 -8.058288209336025
-16.962723038204217 -183.94275866395324 -8.064063489658146
-16.942922137808484 -183.7617598138991 -8.07449731938009
-16.903948234089427 -183.64691248825537 -8.082925547124075
-16.87217834957277 -183.52246420554852 -8.091128371030807
-16.550446912591987 -182.10047178526494 -8.046775571458571
-17.812675859676997 -187.63539023701676 -8.050640254287808
-17.808409103592147 -187.5368008833367 -8.054927085243063
-17.76138848477828 -187.47470552962247 -8.059161953256236
-17.687135534232564 -187.22444867018788 -8.072132516153156
-17.600506903284643 -186.92656457282828 -8.087431021914675
-17.563806490638978 -186.72587245376866 -8.09691646578665
-17.140784291346076 -184.27241476002447 -8.034025642046885
-17.059200656456746 -183.97107576758316 -8.055521315743372
-16.918709475274373 -183.4821069289242 -8.089368642162873
-16.370336094033274 -180.54739330510714 -8.070715324309067
-17.23106643487894 -184.2965165395256 -8.026248208427894
-17.176770866173865 -184.20454805081522 -8.03498599475163
-17.313708738847915 -184.27156880468593 -8.021547316730185
-16.607882890013137 -180.52321681788058 -8.041655192105095
-15.499063900317935 -174.18311660505023 -8.08641581933533
-15.377186657795939 -173.65078934317518 -8.061523184686449
-16.917277474143937 -180.89706758168455 -8.011011289462381
-15.640720101387155 -174.4915956823693 -8.099572901908795
-15.569114561661705 -174.38247959630377 -8.095239835201742
-17.001203534746885 -180.96658022726797 -8.001415192560682
-16.97326083317926 -180.88121353116475 -8.003948518790352
-16.937601528263674 -180.72336469442277 -8.006045743320044
-15.73912513965419 -174.58883652333213 -8.102881858848537
-15.717509847440464 -174.49932282312977 -8.098862141093877
-15.61697528972692 -174.1563008244286 -8.083619690364051
-15.595763946796504 -174.05262219766297 -8.07882339834744
-15.59546434621607 -173.8191081626597 -8.06735479816295
-15.516248628709464 -173.6701224180378 -8.060939977533167
-15.56648960351469 -173.6018002929188 -8.05703960975382
-15.538064989800521 -173.29360207461502 -8.042130703839087
-16.631949094416054 -178.4319819085841 -8.083020648093422
-16.598602833532713 -178.315609024565 -8.07884435370126
-16.5745408351142 -178.23044512923838 -8.075575660291026
-15.681465641395917 -173.87466353408374 -8.068998434388872
-15.659430567070837 -173.39619839012158 -8.045798783217966
-15.551138127951353 -173.13944218909387 -8.03431463355512
-15.487551474131191 -173.03062513271288 -8.029608074576975
-15.491958532972875 -172.71961906160254 -8.014057955014227
-15.469429336819129 -172.62296124078713 -8.009469652356756
-15.34971063236872 -171.825105707878 -8.027572285043272
-15.241467223296096 -171.40454665825956 -8.010172093224327
-17.40694379065426 -181.9852278588157 -8.094115092291936
-17.393972973882406 -181.94617389883703 -8.095835827046274
-16.860668887016836 -179.09266909782897 -8.099079821664354
-16.778540544271774 -178.79512225055942 -8.091514960124108
-16.794168785396437 -178.69848684511825 -8.085700703152051
-16.742803453566566 -178.52159453677078 -8.080337618927635
-16.698554992059126 -178.35355711529905 -8.074384867038923
-16.649004182241633 -178.29123846194514 -8.074190790350961
-16.634787322181726 -178.19570841900986 -8.069776010379991
-16.508142922085064 -177.44356540659734 -8.031664174931686
-15.82358381626336 -173.88477042920525 -8.067641954792956
-15.583513500585047 -172.79178342301543 -8.016734750804044
-15.545824263706566 -172.6987399244852 -8.012481278485042
-15.374563255902785 -171.87146395357112 -8.029287474561885
-15.367866216842248 -171.49176231324395 -8.012715466430613
-15.30868314393298 -171.3385983184353 -8.006614858699711
-17.713488744938147 -182.9352644329657 -8.045692884139171
-17.526367435192846 -182.15685200531422 -8.080848317686947
-17.49977460160504 -182.08583652734822 -8.084398570618635
-17.46193782919058 -182.0311972788629 -8.088595837487125
-17.522330837574867 -181.9185100399587 -8.08498794587315
-17.433042133084534 -181.78788701938947 -8.094447355303537
-17.41740186852431 -181.6393581767705 -8.097283005761403
-16.837265225668965 -178.7812833255274 -8.08665811619605
-16.809340626418575 -178.68717295923665 -8.084101467747683
-16.773582891493398 -178.4772859507224 -8.075914386859592
-16.80431244586468 -178.35795386856825 -8.067564523982698
-16.674324891617765 -177.74484077136015 -8.040864841314118
-16.6069048253177 -177.47832621138832 -8.028299126473343
-16.564316165510384 -177.40492922055157 -8.026018863440656
-16.543050390124655 -177.31716613561522 -8.021525278343104
-16.607933190417448 -177.20799812766185 -8.01087197412547
-16.507649118448043 -177.06529063248612 -8.006794811436283
-17.706747410599643 -182.75191395156972 -8.051627397796016
-17.727887896061745 -182.55506122811008 -8.05496891155117
-17.68848429864797 -182.36372722725136 -8.062732729758975
-17.61848399099356 -182.29188158308594 -8.070276716438755
-17.64588180489114 -182.13938953662904 -8.070778556326646
-17.18168402513211 -179.71099907532857 -8.0966746708274
-17.07393349067104 -179.3754567918133 -8.094062156095891
-17.037054432545375 -178.94639803291403 -8.079638560424044
-16.941048603638773 -178.82208948632993 -8.08110831767041
-16.74633960981121 -177.9055094301011 -8.046031574115197
-16.726923550261052 -177.45274375389366 -8.019786173866144
-10.108725086969596 -143.72925122124795 -8.078712142227715
-17.975504489281406 -183.221745402902 -8.014709690712479
-17.93508142875274 -183.16154849942185 -8.020061695246575
-17.91188611578813 -182.89573356251861 -8.030235824965374
-17.86615995926049 -182.6692552989491 -8.040310055997406
-17.819470402578723 -182.486108263162 -8.048753960830494
-17.742539041529035 -182.2201119121775 -8.06092565208047
-17.385044909382476 -180.3016778147549 -8.093832157932827
-17.277817823307668 -180.10827922155468 -8.099061903635027
-17.99286291121495 -182.7407481059005 -8.027675229582448
-17.888943291485454 -182.28155163249193 -8.047070823245985
-17.83648461658654 -181.94306463225035 -8.057166172499906
-17.41417996916619 -180.02704469639292 -8.085764495896505
-16.86714345569702 -177.4228093946134 -8.009729810483998
-18.127729102495593 -182.985440936067 -8.009473589742043
-17.997612638347913 -182.51216369933962 -8.032868884481505
-17.97856232979674 -182.31085108223732 -8.038731780280589
-17.576166543216285 -180.2368415623082 -8.076322038277159
-17.54890697832175 -180.11438419633407 -8.07628249733716
-17.40989603052025 -179.49548891826103 -8.071508312378237
-16.990232564930125 -177.53493944714356 -8.009086281625954
-16.467744024059645 -174.62791579185776 -8.09199801275719
-21.57463465092301 -200.35529289591912 -8.086057234582936
-17.788774338224293 -181.02930151370944 -8.066017523527488
-17.58592400175724 -179.98860116035644 -8.070495976441995
-17.437343071648687 -179.35963480093108 -8.06486044596709
-17.385727271447607 -178.6230482397813 -8.039661676512706
-16.47512734041797 -174.4279610564444 -8.082652603010061
-18.22488797823331 -182.62250715439862 -8.010811202141058
-17.667695524548034 -179.8601979558312 -8.060645149201422
-17.69716118023019 -179.74514107915843 -8.05530473800693
-17.63511479111174 -179.50415261667726 -8.05358278044379
-17.622314873253444 -179.4190591705272 -8.05200843998589
-17.41295850316123 -178.56312369308833 -8.034969779565778
-18.017220789006934 -181.19684873315535 -8.046203900482043
-17.994799089527685 -181.09776315612467 -8.048086631171781
-17.515638730254757 -178.51603673062786 -8.02530717446392
-18.301133753936504 -181.98430721355538 -8.015915380057733
-18.22266433436242 -181.74620665727156 -8.025499610496247
-18.109210891035243 -181.0743945264813 -8.037954749287133
-18.187414315924336 -181.01769429286279 -8.030950672300436
-17.981067038170863 -179.9176336461386 -8.035623563736735
-10.705481273467168 -142.81030701613625 -8.07075397817914
-11.027818782090497 -141.38825827990712 -8.057295636609355
10.420995579923028 -201.85888859663277 -7.9000592256185245
10.87973993510616 -194.35945154655556 -7.961378270391068
9.904600479771505 -198.23920558008274 -7.9438645128729535
9.340304348211584 -200.10574319331312 -7.93452455332476
10.602802620433353 -193.37040059401053 -7.973694748582991
9.595457134503638 -198.38269660341058 -7.947702206746116
9.465135710262045 -198.5332777405941 -7.948330567334146
8.470768065105451 -202.68982103351505 -7.9197041046612275
9.388728145517375 -198.3520890191743 -7.951003645769526
8.9448202772265 -199.9089067353805 -7.942826994160315
9.360298653518386 -197.72264098370914 -7.957605287891438
9.44149550329506 -197.18643757428225 -7.9609420541791085
10.068471716573152 -193.20425858288874 -7.983841858558911
9.901104314997939 -193.42529178626071 -7.985180014588341
9.984452271354575 -193.26355940273908 -7.985012305609067
9.124726619360816 -196.85019132454588 -7.969334567904345
9.19908168008026 -196.55706887345616 -7.970513112864133
9.66263402383973 -194.01901575965033 -7.984340812661581
9.812164723118359 -193.47901368060786 -7.9860770422874765
8.890955544400603 -197.61995655011663 -7.966046814694732
9.049836815468646 -196.68391313094102 -7.971788115052843
9.058492793814603 -196.57554545004822 -7.972856276399992
9.704654096558555 -193.22191003209954 -7.989882150407522
8.203224012185162 -197.69886060466348 -7.975937648710606
5.71672876865186 -204.00713548640599 -7.941748731694321
2.4443333850282496 -204.13602652959347 -7.980673445818356
2.3198565470470616 -204.12936967869817 -7.98195474728216
2.2476403836481413 -204.19792565097234 -7.982093565032019
0.7506362316066131 -210.56338249394224 -7.90570058002609
0.7827688896143332 -210.37031391578094 -7.908575291712401
0.633373807341215 -210.57945015376913 -7.906775140920589
0.40600409393954173 -211.1798474683442 -7.899696755981835
0.4579942148701157 -210.47220835596903 -7.909683106090674
0.23794415168290683 -210.2661601165178 -7.915000405430178
0.14620215767936706 -210.33966920482314 -7.914424457163483
-0.8241639871829562 -211.20041101519485 -7.909654553505529
-6.258225145685101 -213.62065283578048 -7.904777622883422
-6.382544793646428 -213.59011404400437 -7.905605822413158
-6.49225084025147 -213.625504820209 -7.905126997426349
-6.589991282805715 -213.70707837572508 -7.903971252576628
-6.911618274051282 -180.4776164794742 -7.907309894205897
-6.992202500516044 -180.43311356702748 -7.913933342995021
-7.034675678883901 -180.3735420734974 -7.9170394294648565
-6.968801322264829 -180.04845603664185 -7.907275342441612
-7.044628634671916 -180.3208359233857 -7.917332335112363
-7.079174407069456 -180.2610713392438 -7.919644582449588
-7.059148061011688 -180.11229237547792 -7.915989341445
-7.120223572321407 -180.20236889524023 -7.922483066886862
-7.1150636958951035 -180.1568590001313 -7.921438097214264
-5.625406494066312 -172.5924842000535 -7.905041489965076
-10.813072459686122 -190.3331411499274 -7.986096619617486
-10.860375146185614 -190.28380489710446 -7.989319758793859
-14.53126477783823 -187.34573511109807 -7.931580606176219
-14.558798897511878 -187.2253414364366 -7.941286039910884
-14.580017735451253 -187.17754126779639 -7.944878751566257
-14.631571765382395 -187.12633216675053 -7.948066876538459
-14.715111604071208 -187.07916615957984 -7.9500703701735205
-14.79669831425306 -187.05399160356157 -7.950130324738431
-14.810372134556065 -187.03962871273453 -7.9509987837935245
-14.906783572245917 -187.0390438730559 -7.948464354969993
-15.014500951051684 -187.11140244363096 -7.939406096717184
-15.000566553483452 -187.06558828816497 -7.943600312092336
-15.249733713719916 -187.11534771650244 -7.9319702071025935
-15.255837910040118 -187.00853125857125 -7.940574460227875
-15.269264408331459 -186.89303906827877 -7.949628004654011
-15.302417365909637 -186.83951745402243 -7.952898208597705
-15.431820914809117 -187.03313149204666 -7.932704701697073
-15.431713049197528 -186.99315115862893 -7.935941101779171
-15.51415441440214 -186.97831833797258 -7.934254314406169
-15.644116235358247 -187.01313825328424 -7.926714089633028
-15.58568973508345 -186.98596693878795 -7.93105417218513
-15.744491992996274 -187.08571822240089 -7.917121175163295
-15.807057113714439 -187.09169890922777 -7.914234199882441
-16.414739610633465 -186.9680692479161 -7.898109212070918
-16.4294255943751 -186.9044587211332 -7.902222778299468
-16.46566428009279 -186.85793631052601 -7.904038069544562
-16.473136873481796 -186.76070864611634 -7.9109799376909695
-16.49415079752447 -186.66781559802402 -7.916886615936407
-16.577195495836026 -186.6589742744416 -7.913461076469327
-16.656422393407265 -186.62104433060054 -7.912274301412676
-16.675466918541844 -186.53330910227692 -7.917695644599322
-16.7518460531289 -186.5482815813761 -7.912668619766579
-16.857873097901102 -186.56607389616258 -7.9058166293094345
-16.947110790125663 -186.55928724746076 -7.90153784956607
-15.152873551542504 -176.22314529489205 -7.998391941532162
-15.063975615789218 -175.78998312988892 -7.965343897538179
-15.03229726912288 -175.75762947420213 -7.9634284587781705
-15.023617869051542 -175.68371580617196 -7.957551352794998
-14.99870437375974 -175.5590542417003 -7.9477779590355215
-14.952673668529041 -175.41435685792734 -7.936773798540208
-16.241257393291875 -181.07704838803798 -7.988427708206183
-16.016750149834845 -179.93113322594283 -7.975804473743352
-16.0010816906433 -179.8463970388723 -7.972030596082166
-15.961807147499673 -179.7803763471626 -7.972552471790544
-15.945929329978442 -179.63861986554275 -7.963557076142707
-15.921541654778506 -179.53487734584607 -7.958108333425143
-15.880864919847268 -179.4340227235829 -7.954560639884822
-15.87446074729653 -179.32432386150347 -7.945324206998473
-15.840169660256624 -179.21918890833456 -7.93957039796045
-15.825003568936836 -179.14700934544584 -7.934292845699915
-15.815436647373886 -179.04431821129685 -7.925037384194937
-15.795178040401737 -178.95621740458276 -7.918238032261854
-15.781320522500963 -178.90267257042834 -7.914152580597469
-15.750009356655106 -178.77554450260868 -7.903859362402586
-15.6228641605956 -178.31077222797907 -8.000380078765843
-15.564407104328755 -178.08078156466556 -7.982609966328537
-15.554882837401532 -177.98423907310502 -7.973799534105101
-15.517560471779952 -177.60939208420328 -7.9385368658893745
-16.9083161872623 -183.9807501299932 -7.907176396349565
-16.832154297005314 -183.84192312559497 -7.924850092508947
-16.82454901453425 -183.75008223836204 -7.932019064044331
-16.81138830966006 -183.64842871689802 -7.940306632411353
-16.76841119846444 -183.55081389152397 -7.951293023138037
-16.76502714654323 -183.44950391121606 -7.95819626377496
-16.74650413860286 -183.36592155234035 -7.965425148644289
-16.729214831194664 -183.2600062499294 -7.9737318705433236
-16.70808359765307 -183.02051690194466 -7.989706075031106
-16.682832791070854 -182.9572474695287 -7.99591893234029
-16.60357557201577 -182.43877624592758 -7.903280308843388
-16.594396508079463 -182.37814929300538 -7.907625469519098
-16.567147849742568 -182.26622007585857 -7.916857839738003
-16.552677329537428 -182.1485904691066 -7.923904254522273
-16.379608187056096 -181.5129745081509 -7.966806970877637
-16.347605093498 -181.37066033664607 -7.972825546856139
-16.31944183020577 -181.306606352335 -7.977400177376998
-16.293940023865055 -181.20532490425757 -7.981145430282336
-16.27276363101024 -181.10409958929657 -7.9837312329819206
-16.257905230962827 -181.00580577389115 -7.984837689128334
-16.23079784894976 -180.89749904975227 -7.9872189206597834
-16.241010505721956 -180.78552021775516 -7.983033435231439
-16.22548450800211 -180.69733764148907 -7.982976912860591
-16.194399044616446 -180.61148076616877 -7.984949536609526
-16.176624265463474 -180.51353807048287 -7.9840052699427915
-16.139347891568942 -180.4144159904305 -7.985484609099897
-16.105410853280457 -180.3418959895804 -7.987181253508141
-16.05042791203288 -180.022502049832 -7.977046847230675
-15.981327117027206 -179.73147233029232 -7.966151136786969
-17.406978172490323 -186.04177170384946 -7.910305332263185
-17.38921655615776 -185.97203235467506 -7.915947829433604
-17.377793360417996 -185.89621966768277 -7.9215728432987405
-17.363309733342813 -185.80104304652795 -7.928611514188346
-17.318067491472597 -185.6031885817428 -7.944070723208081
-17.291839030399366 -185.48868128228688 -7.952953507333073
-17.268443279797943 -185.40800965437714 -7.959484380976344
-17.256473005452925 -185.3125283945701 -7.966185748632344
-17.223201120223106 -185.1984172357713 -7.975336861883774
-17.219238243531485 -185.08901173755424 -7.982238545698765
-16.94069424344481 -183.81388735970114 -7.915570964762808
-16.897580765690947 -183.7674947828736 -7.9232368950850836
-16.843265867847567 -183.57286068210928 -7.9419230113007915
-16.81294223101449 -183.21045159897903 -7.967432045147382
-16.790549366787918 -183.12902470347893 -7.974526047650881
-16.732718526240447 -183.04729381051308 -7.9854938323656235
-16.78908872330788 -182.90924422468413 -7.986361932831214
-16.593846881280875 -182.32011132341205 -7.910396211659533
-16.584109681076722 -182.18083251870092 -7.91776882715999
-16.56059602410747 -182.0772367380549 -7.925297652705616
-14.115067165527364 -169.31153891551878 -7.923607297818571
-17.44903086237928 -186.12176708141715 -7.902562807309478
-17.39495120874568 -185.86690400840124 -7.922424433368792
-17.394396576279053 -185.77366957605577 -7.928444441726172
-17.317766802343158 -185.4149294580902 -7.9558999216490935
-17.266177234279716 -185.05376775612146 -7.9812372088131776
-17.28729223527476 -184.99672048593433 -7.983211541331161
-17.54732817302562 -185.14773794618193 -7.95683757565882
-17.57351134072946 -185.1185401392122 -7.956749381514523
-15.969664490249492 -176.08742898060126 -7.960994189908201
-15.92870106806265 -175.98474792314153 -7.9546398231095035
-15.743839898144444 -175.3502571025673 -7.911168871165024
-17.186251383212046 -181.80294311351807 -7.9757912533848465
-17.095940660219192 -181.60307218248767 -7.9895302091215745
-17.080316193879383 -181.26753784152078 -7.993133720516555
-16.93602167180822 -180.46945717156913 -8.000961952233213
-16.628600304965218 -178.98153565620964 -7.9651050271584385
-16.062969993412572 -176.22736576661748 -7.967979141987568
-16.04412911136915 -176.15253045072006 -7.963082305207513
-16.03328532809084 -176.0961890521706 -7.959233094748981
-15.975549183145 -175.98504701580578 -7.95296215275004
-15.944546396662364 -175.85790594875715 -7.944314977962943
-17.287505427002557 -182.0308516971829 -7.959021078601617
-17.298210826952833 -181.93850848027338 -7.959647311069304
-17.23395950601053 -181.50099007628197 -7.973378851335372
-17.226040356783276 -181.41653045957818 -7.974835287537936
-17.170810578288407 -181.36768493584995 -7.9818265923625455
-17.10854433139857 -181.2874409385343 -7.989653778000654
-17.148257286381977 -181.1019274435167 -7.984314068257704
-17.088571321824027 -180.71124186020498 -7.9874893572466465
-17.02168065574166 -180.6460023182928 -7.994444547237991
-17.03370115490831 -180.52222757407466 -7.990444578324121
-16.94174295082327 -180.0692496978295 -7.987947033297334
-16.822460132820137 -179.71100765297123 -7.986489984429896
-16.816267926854128 -179.49898148372333 -7.976520553640412
-16.765690731706304 -179.3576799084095 -7.974200481261945
-16.741636044437794 -179.11514061861257 -7.962222033671125
-16.66886866355891 -178.98301018888316 -7.961091760395405
-16.66361263671135 -178.66180869768377 -7.939273057534175
-16.68066394435836 -178.6289199091838 -7.935205515076841
-16.531448773422426 -178.06906396782017 -7.904895146247496
-16.198160313877054 -176.32345097207136 -7.969545763962955
-16.1411088264256 -176.23992812496138 -7.9657878153533455
-15.223084682240433 -171.22378992350338 -8.002350663657992
-15.183942560678865 -171.03740301075777 -7.994481223261243
-15.130762042642909 -170.91599613424347 -7.989585325392776
-17.501456889256794 -182.37510401848556 -7.923997806608596
-17.395840239396648 -182.16756040271983 -7.942578746426681
-17.419374249329703 -182.1499482558241 -7.9401669148117495
-17.35378428311565 -181.99050473114818 -7.951803753184503
-17.352235742770624 -181.90952701505137 -7.953579167924378
-17.3829366806223 -181.84758842824388 -7.950910297990964
-17.295133236357046 -181.658561491337 -7.964369194230235
-17.190517323475998 -181.1820703305993 -7.979417255655804
-17.230036321892243 -181.10593881161043 -7.974267164122029
-17.221571359798187 -181.06909802969838 -7.975103904116901
-17.188704467776805 -180.7862005510367 -7.976386549693222
-17.14100604166525 -180.73050331334463 -7.981379076200012
-17.08157326378364 -180.6709269075616 -7.987626064576883
-17.067089064563234 -180.53563422934945 -7.9866993701573
-17.052220923371404 -180.32802715095698 -7.983290301430555
-17.04294605187433 -180.14387585481217 -7.978700314060069
-16.979896007578496 -180.04318280987954 -7.982532595545497
-16.984881400674414 -179.9575674897619 -7.978691809805495
-16.910827042429112 -179.35111356205982 -7.9582196235333456
-16.783111116132904 -178.98252854211705 -7.949475549772096
-16.67367162826512 -178.41490171102583 -7.919843093141446
-16.643505996009754 -178.27274996384912 -7.911531778722443
-15.225983720286468 -171.0128179795479 -7.993050689213552
-15.181915125570512 -170.8420393257884 -7.985903443875447
-15.11142106215288 -170.11195202900103 -7.954066457326701
-15.076673580367817 -170.07598445608474 -7.952799200688271
-17.54291020769213 -182.37695290625396 -7.918964007961611
-17.540390699215454 -182.15039589934426 -7.925451233295517
-17.416624469065695 -181.75470245356746 -7.948188896363608
-17.388662623882887 -181.70890801512041 -7.952242977699558
-17.207258111664995 -180.76239398039 -7.973773551955385
-17.115100590707126 -180.28193799842416 -7.974507856356829
-17.17228218241796 -180.22152370639066 -7.96589651540406
-17.133741855728175 -180.06989574234512 -7.965545168105022
-17.09361079635921 -179.7776237181688 -7.958838458104694
-17.005652018657308 -179.50649818243915 -7.956050960896036
-16.892447364129982 -178.68137818670678 -7.918229286113028
-16.83213319904616 -178.38657724299415 -7.902779424854483
-16.722058650015846 -178.26669630617488 -7.903856854083809
-16.493492785267716 -176.92498599777724 -7.998082960067695
-16.416752571299448 -176.595721292352 -7.979090779418324
-16.418631869262448 -176.465514239897 -7.969819677778503
-16.39425465284219 -176.33460701932313 -7.9616173615569075
-15.37618103643027 -171.18926051443378 -7.999301215448975
-15.075129389367095 -169.8268712398454 -7.941672365446054
-15.075963557261236 -169.55002264638196 -7.929400345360806
-15.056888144611884 -169.39552123631427 -7.9225990564120155
-15.019062427428482 -169.22235759908932 -7.915174979210091
-17.656219610468604 -182.52595072902994 -7.900640691546889
-17.618744234214038 -182.30641192166422 -7.911860083600438
-17.387437860925434 -181.18733541071242 -7.9551574437601795
-17.058523982700414 -179.0040333885953 -7.922255784391426
-16.953910141766865 -178.61745232796568 -7.907670700266304
-16.874551962059698 -178.4547673823688 -7.9038129914148
-16.568553977193236 -176.75765480195176 -7.982852155069531
-16.475459692942813 -176.4719322678453 -7.9675958730226935
-16.478360490508244 -176.37369391639544 -7.9604941312486925
-16.446780300321297 -176.3270798462104 -7.958647093811643
-15.252100085235725 -170.00212584173292 -7.948075819014034
-17.253180294780744 -179.69587751751763 -7.937087473683866
-17.238780737602788 -179.62854084330095 -7.93576713179286
-16.993353950791192 -178.62771719682792 -7.9044634338459225
-16.640993976294556 -176.62314400954295 -7.969959817224568
-17.35906107181138 -179.80192893833805 -7.929360235206147
-17.306887491523263 -179.70657275110233 -7.931412810275443
-18.43576804441388 -184.9893244368671 -7.902686553212979
-17.526419722015675 -180.05402145751995 -7.918782380000891
-16.85295657684632 -176.5443018806816 -7.953734201386626
-17.68299616136657 -180.4601810069712 -7.910665004294024
-16.836673984574787 -176.24126936521944 -7.933910064886328
-16.823147927967394 -176.06702476025035 -7.922440567788954
-16.88431628665532 -176.01707329030666 -7.916004159583188
-18.428784092144262 -183.14650888714098 -7.9794119713710066
-17.45424407197457 -177.77474935436618 -7.992932906260487
-18.633739631099704 -183.34358162270115 -7.956180975179327
-18.52372607958028 -182.7561946217922 -7.982039583495075
-18.758268706463078 -183.35656031335893 -7.9454072287712885
-18.704577569179566 -183.22025683224606 -7.954089806375034
13.33450460255663 -205.5293137429662 -7.818064325717272
13.151355119316035 -206.04401223748843 -7.815173963718973
13.185830763918323 -205.9042464031229 -7.815861996974642
13.212465555425 -205.75756896816782 -7.8173932487931435
13.238220343959439 -205.61121715355137 -7.818273970450131
12.968413632536736 -206.3922720097418 -7.813674160689602
12.900232287900137 -206.15340915938214 -7.817629598468397
12.947079378811681 -206.02512358266233 -7.818028615731069
4.308793089541764 -215.81253818002745 -7.7949606913960245
4.130679298431071 -215.75944076732034 -7.797095117511917
4.008935581394306 -215.8162221603696 -7.797710318605164
3.8310652082613483 -216.0630781345241 -7.795671219276306
3.9027970434973884 -215.90493929095004 -7.7970511348963
-11.790908306092215 -215.53457603349472 -7.873196078164298
-11.913105522343761 -215.53148909729867 -7.872995270463705
-5.452800266699744 -172.61085926928104 -7.899076288553109
-5.559713952547042 -172.60856736627846 -7.9030341072194465
-5.642418454696772 -172.551396400302 -7.904256913360215
-5.640076227121554 -172.48772040687575 -7.902244935856227
-5.642040593500763 -172.4283020847025 -7.900301578786946
-8.616436863766161 -187.0974931960324 -7.823424477508219
-8.748393872833322 -187.11611855915973 -7.8296275420434895
-8.692629334637164 -187.10586780963274 -7.827153692561817
-8.823274948866931 -187.10285966377543 -7.834640015533184
-9.013980660327782 -187.53389063709528 -7.81474731836402
-8.92172374059566 -187.09957979224535 -7.840283909382933
-9.063588572765397 -187.3719043566168 -7.828812913090227
-9.044982949907107 -187.31332090462246 -7.831939512833028
-9.034383522152442 -187.19871319290806 -7.839455715884866
-8.990434321631295 -187.1302950968754 -7.841864892662309
-17.566451195612313 -217.96316707646022 -7.814142119287849
-17.68049593442715 -217.86280803684934 -7.815272785811579
-17.803691060727843 -217.81338288945767 -7.815698664031294
-17.930878436530566 -217.7991519733273 -7.815263629706141
-18.069858109868278 -217.87177951943278 -7.813481802170459
-13.338237911211404 -186.6060193463471 -7.826817434703765
-13.391461748432393 -186.56693849056413 -7.831334583537171
-13.518630548149181 -186.58344755936025 -7.8283392564579755
-13.48533470481344 -186.55845584710423 -7.831697501921874
-13.59667679900128 -186.57580251758188 -7.828479577794982
-13.600203089259644 -186.53719603834438 -7.833193683467237
-13.736073344746169 -186.5670069579204 -7.82781169834627
-13.678853401523487 -186.53701923956737 -7.832265882365478
-13.80225682998768 -186.59039301799768 -7.823958444636469
-13.890030551243076 -186.63583415701322 -7.816944175862187
-13.867840670110889 -186.60259406048695 -7.821409834163904
-15.570478848697343 -178.17624874584033 -7.851285881377102
-15.348815207116026 -177.06307505211558 -7.890220612774937
-15.322016997499077 -176.96612942483446 -7.880993557410736
-15.299816634423648 -176.9336649403747 -7.878510321134811
-15.268829961929052 -176.75363989742164 -7.86011146420312
-15.22044665284555 -176.50406191231983 -7.834367890240951
-15.193213675180672 -176.4244280091613 -7.826562403800046
-16.276130595890827 -181.27411159115152 -7.8749267697435394
-16.267752413811134 -181.21105695089815 -7.876253831319543
-16.118945281609903 -180.4472520233521 -7.8813690621326575
-16.065059022188354 -180.24198229237692 -7.87869459302286
-16.02037171426358 -179.95865043102637 -7.865185203741341
-15.993866307350185 -179.82413291492014 -7.8580050990977774
-15.955721277458792 -179.7406953198998 -7.856630540809166
-15.932187566284924 -179.64311357885114 -7.850953582075124
-15.913063068897678 -179.52114534858453 -7.841429037739045
-15.87678078760977 -179.44648512966475 -7.839079252156484
-15.872725548574891 -179.33886044973454 -7.827581676452721
-15.828258802962184 -179.18903789565954 -7.816652758413444
-15.797798955870459 -179.06662518719156 -7.805920390152062
-15.723166167028536 -178.66551661902253 -7.8944311085791625
-15.692600771304882 -178.55509657180747 -7.884995267292265
-15.660345082032142 -178.48409489267465 -7.880002134523514
-15.625726638369446 -178.27262554786074 -7.8579724775112005
-15.617439660673927 -178.18285256559216 -7.847695665829175
-15.574116055981555 -178.06530071827038 -7.836994358049935
-15.555111587532537 -177.98186656200926 -7.828092642066601
-15.52316585274631 -177.88869394408846 -7.818895773021402
-17.03484475695257 -184.90197753039297 -7.822690111352112
-17.057331063329396 -184.8363137759071 -7.8260956487544995
-16.738108917706523 -183.44844138990683 -7.8162540752935055
-16.687293148745812 -183.1140448872675 -7.849266141126157
-16.68101210578164 -183.0658648705235 -7.853616523579299
-16.693342718210793 -182.9862187304945 -7.857413896169459
-16.645566670545165 -182.83830066481593 -7.874188052547497
-16.64224884630253 -182.79434533864068 -7.877464487191194
-16.662500874790247 -182.69922078895604 -7.880248034781659
-16.62029983423256 -182.56877526762912 -7.893963664044432
-16.60304067891189 -182.503835558063 -7.900040478888751
-16.53402673599883 -182.18572431305458 -7.803106815637687
-16.524328240930362 -182.07807642390546 -7.809896558454303
-16.492971201172736 -181.96768122427335 -7.820382932432389
-16.40077687438012 -181.66244782165555 -7.847111794256847
-16.389365295326535 -181.61223787176016 -7.850291761595329
-16.34881560501455 -181.5431590637564 -7.859270386871428
-16.32821125264611 -181.4018512258834 -7.864623479636712
-16.30094871149675 -181.34782084927122 -7.870118022351063
-16.2845965631745 -181.10751498008267 -7.87190998152622
-16.24881280847958 -181.0057711131548 -7.877180659467563
-16.243942570247185 -180.87273512468064 -7.8751223433039
-16.213705675006203 -180.80025498479796 -7.878743706899116
-16.200393192074397 -180.69817549919162 -7.877702654646195
-16.173002670761196 -180.62020996850825 -7.879701937893028
-16.156679565888197 -180.51815867976055 -7.878025529266909
-16.117177253002225 -180.41993820221325 -7.880122291412791
-16.10416929581525 -180.30632366073013 -7.875756983430026
-16.066304169108843 -180.1617297608949 -7.872849998674658
-16.018296054127397 -179.8858719929983 -7.859321314515936
-17.54450784848859 -186.73738805853793 -7.855873852439185
-17.493398959679112 -186.59838979923177 -7.868233397544991
-17.17177498284909 -184.9906379842394 -7.802631283553775
-17.12646899324957 -184.88309349439288 -7.815783648366589
-17.140903644678417 -184.8262326720387 -7.819123113285295
-17.11015073007935 -184.7095791490133 -7.83150102729316
-17.12486770337681 -184.59663300787295 -7.839130461611185
-17.102839681134764 -184.50243380245885 -7.848661019200067
-17.056412953845356 -184.38724184781861 -7.8621110571481765
-17.053356697259854 -184.33257038568175 -7.866588893034564
-16.999783958192623 -184.22842927531227 -7.879758102448866
-17.00634812397777 -184.1097223775814 -7.887893570090971
-16.98773165220597 -184.03668380418094 -7.8950559669760665
-16.866852429553973 -183.3826413994703 -7.803640622831306
-16.810134394147052 -183.32992266407697 -7.81566924667659
-16.804856608099534 -183.2452608452135 -7.822851783528371
-16.745001149813735 -183.08215165100796 -7.843291363011413
-16.732006283324218 -182.94223636513456 -7.8547705905906104
-16.703185250510174 -182.90012507741926 -7.861750469856725
-16.531952073838212 -181.90387492736903 -7.815150124480298
-17.71431856692541 -187.40668739138144 -7.800059878133187
-17.679547769400255 -187.31836643194262 -7.808190440183498
-17.66942540267658 -187.2198501605203 -7.815578245513685
-17.64258017531169 -187.18406814975467 -7.819600471383232
-17.654743084154003 -187.054627753487 -7.827854363328608
-17.646897979575673 -186.9436954561871 -7.835931526229164
-17.586508453865562 -186.8287735943458 -7.847202324997988
-17.59103591326208 -186.64286722799585 -7.859560859687513
-17.565995683621686 -186.5195617447808 -7.869270336865692
-17.542711622274137 -186.49110511142467 -7.872552771690548
-17.54221744520701 -186.38425589253288 -7.879680317508868
-17.490691111540293 -186.20190158544412 -7.894766831700477
-17.20521851834904 -184.7978384994906 -7.81536708528477
-17.172750858802907 -184.72285821412535 -7.824496117888618
-17.159325085149742 -184.6400998565832 -7.832373348380437
-17.11235709676575 -184.46520530483406 -7.850620581083508
-17.027814829174215 -184.04556368385215 -7.890354134639858
-13.909304961891667 -167.85420744128265 -7.858392385650539
-13.874668851512343 -167.5465239813137 -7.844482328074074
-13.833056621339836 -167.40678053622835 -7.838307251265565
-13.79675217068133 -167.1033720489507 -7.824566495030835
-17.599725042600312 -186.3976914844121 -7.875324352721564
-17.62162758192876 -186.38657127103002 -7.874766858800646
-17.21207774743221 -184.34580006538258 -7.849820459510511
-17.214179578507927 -184.31462255738583 -7.851915675149285
-16.78977425886285 -181.88409435880237 -7.895198860812773
-16.800893738120404 -181.84762423184833 -7.894329541139936
-16.864075578809196 -181.83686120839442 -7.884613391802905
-15.406320245186226 -174.38772700734293 -7.841896934582925
-16.93429644177982 -181.8921656887434 -7.872219952014695
-16.953545847671645 -181.7628604104815 -7.872020830835746
-17.050777837438257 -181.73236714336656 -7.857203291546362
-16.95652396585655 -181.2039932582726 -7.875912310529098
-15.739747002471693 -174.9892883439936 -7.882426103240303
-15.674020318000776 -174.54071520937504 -7.847934051435681
-15.629149768777905 -174.4002851051635 -7.837644943722924
-15.604681313134295 -174.35187648148704 -7.834311488823635
-19.172476182875698 -192.23966080756028 -7.805061604777196
-17.062445811685308 -181.5794968009429 -7.8575861551865165
-17.124420013574532 -181.46156949033775 -7.8487853936319105
-16.995676944573905 -181.16334932095705 -7.869492662679758
-17.026485332583224 -181.1086023731399 -7.864247039137054
-16.98424279118875 -180.83409859904359 -7.8674359028072285
-16.927055914362413 -180.72378824229077 -7.874140286396449
-16.61537567667342 -178.86513514601373 -7.809175528877082
-15.915184373081217 -175.26783238130363 -7.899228449782712
-15.801459914520139 -175.15186384568062 -7.8935802583074395
-15.814055269573675 -174.9962091938148 -7.880790548090392
-15.792865178372676 -174.92029346623903 -7.875318081011773
-15.781807835889467 -174.7821189205084 -7.864543539390983
-15.71510175017837 -174.47656013818008 -7.841648708288833
-15.672917578757556 -174.39440730717706 -7.836040813683649
-17.298894630718806 -182.01704727127708 -7.811583186602764
-17.247097691628376 -181.92271011050812 -7.8221725172790535
-17.151699711106392 -181.43479806795668 -7.8446180415428
-17.175067731243633 -181.33186324958155 -7.841298520474509
-17.17198572561442 -181.26388652949876 -7.841794968545002
-17.11872380721582 -180.9395469719381 -7.847812723838696
-17.032926135085262 -180.8474068867879 -7.859983838454731
-17.01495120502813 -180.72221845626643 -7.860344861986865
-17.02562670130855 -180.65279582393475 -7.8569843204927405
-16.98544704577819 -180.4419266804095 -7.857044919020631
-16.85615737522387 -179.94624244373594 -7.8549009139016395
-16.778068786772806 -179.49365703034874 -7.83808181803709
-16.726921734636484 -179.0624202734014 -7.811832892907082
-16.702624362820846 -178.96391519341384 -7.806686589590231
-16.64282658342862 -178.90799993361617 -7.809519420587465
-16.50998552549909 -177.97527524286917 -7.898787233607956
-16.478216640623927 -177.68838892940443 -7.876401792407219
-16.469098755420518 -177.56981376248112 -7.86644880341635
-17.319151343309464 -181.8748744735119 -7.811911473636944
-17.283742142773782 -181.23308824853137 -7.823976300002834
-17.15848197543032 -180.92157705950945 -7.841310801134454
-17.15799093855501 -180.85146095209032 -7.840311224805208
-17.15409466943384 -180.7409184770813 -7.838872676845903
-17.083427096173978 -180.65527362989982 -7.8480449521759
-17.08464400013826 -180.5490951528761 -7.845007978422595
-17.094839325562926 -180.45779751485412 -7.840668806849047
-16.966121786369797 -179.56450847033656 -7.816156518355285
-16.837050113454602 -179.24166602090094 -7.811363723909999
-16.60244167136446 -177.78062900055357 -7.874233188724582
-16.50594634677705 -177.68385606664458 -7.873724071146023
-16.468066723124338 -177.46234554674643 -7.856730947115427
-16.464456037662657 -177.1641250792037 -7.829210882704814
-16.440982249163117 -176.96259195342256 -7.811641839099821
-16.364172746772407 -176.94143716959871 -7.815050786577526
-17.392879939267818 -181.72173725496972 -7.803156304882748
-17.167243647057703 -180.45524427937644 -7.829341053868345
-17.066834639949306 -179.72496042622706 -7.811500356089189
-16.990188809637342 -179.56903990884894 -7.8130276303461805
-16.968808637053606 -179.3682829545709 -7.802441091297982
-16.739811284749923 -178.02725628414802 -7.883094111341589
-16.66865962410062 -177.6603454741836 -7.858267999740164
-16.55516142289604 -177.14268342674515 -7.820383103314523
-16.512874897520703 -176.99375655054754 -7.809421398778795
-17.853704971759715 -183.22812265938438 -7.848919850973398
-17.75061030052123 -182.87652740570954 -7.876453976951824
-17.262667235362997 -180.11738625000612 -7.8021240480833995
-17.166339443730145 -180.02692942166678 -7.812620906304382
-17.164122517782793 -179.9347298295044 -7.808495074017301
-16.8752474713601 -178.43337749959198 -7.902147513918393
-16.882395766589582 -178.36643086079812 -7.89652533958781
-14.991891944284239 -168.6253352711689 -7.88867545258007
-14.965982006706547 -168.47675558521672 -7.882267433189873
-14.920184217883122 -168.4767792939278 -7.882483995251641
-17.909315186647724 -183.1683444578033 -7.845309128672393
-17.794603721065204 -182.75148301222734 -7.876164481044472
-14.926803769610927 -168.05470443291034 -7.863632479917972
-17.921989571006865 -182.5443305954355 -7.86818814469318
-17.896675056606938 -182.31529474143306 -7.877988389695258
-17.84281853385003 -182.2708142550961 -7.885690823719105
-17.104100153018507 -178.48654249296408 -7.883710994405507
-18.23707134451938 -183.21599708511354 -7.805162475897312
-17.673196779078133 -180.05999158739073 -7.901635502826934
-18.247510165735196 -182.96596762966934 -7.814388235930205
-17.649604455087466 -179.58502210284374 -7.887097126924787
-17.799968275164115 -180.00558246884225 -7.88491329841966
-18.359209807518546 -182.39130167046042 -7.819904307143943
-18.375332061825016 -182.2848249125696 -7.820631643445484
-18.252820101003405 -181.8510291425664 -7.844005046904311
-18.18844032105652 -181.6194734345877 -7.854651088030554
-18.074289580298068 -180.614680966246 -7.865797915100479
-17.818910395770565 -179.6008622616856 -7.8682851729512535
-17.95519368213039 -179.82588081837014 -7.8607807042393185
-17.18326977806641 -175.6229016548419 -7.873916939320551
-18.988644143508175 -184.3623951343162 -7.889644551796558
-17.368620557407425 -175.97514529020566 -7.88854182336687
-17.3396031287077 -175.61102616831693 -7.865366704488049
-17.427935027462922 -175.33546990912166 -7.841939406306885
17.934380516183637 -209.1163356444253 -7.711187372982107
17.84646797184805 -209.23286675277933 -7.711632367993952
17.662881374038463 -209.26365127351494 -7.713643736203404
17.353484200836313 -208.40902474121413 -7.72771625018256
17.18664269649679 -208.07798616750534 -7.7333178957320925
16.001062223124357 -206.50612029386025 -7.76791924861947
7.6069282887753555 -216.08150855226893 -7.75800738610692
7.262438303113006 -216.05408603880548 -7.762028904682389
4.347656062310369 -222.38751592009055 -7.694993307706801
4.121378734146832 -222.26231053921478 -7.699130552851913
3.9645253040366892 -222.28956053003404 -7.6996277149850405
-4.286943108381216 -225.64987843815533 -7.695137532912515
-4.464199852411342 -225.58754260300148 -7.696597672078564
-7.139769093858633 -223.5837639444722 -7.7340628266678975
-7.2891175442846885 -223.564706810288 -7.734575726804929
-7.447107894750266 -223.47967366749066 -7.736033045729385
-0.010195069879891605 -183.71549945299307 -7.750706171139126
-0.0815052597365753 -183.7516471974152 -7.75400493402336
-0.24636611612325865 -183.9325166397306 -7.76068133398538
-0.24993053698973178 -183.83959440129573 -7.761908218399264
-0.2176616249673362 -183.77517376767554 -7.760949570028875
-0.15481741133787352 -183.31961919254013 -7.762206908226001
-0.276139047427721 -183.60044261416516 -7.76582885186264
-0.3964699502837945 -183.49016773965644 -7.773263045459506
-0.3411759223164701 -183.3371793914794 -7.771807015973127
-0.4465501305564441 -183.36608196094278 -7.777137197511662
0.6830625687137477 -176.51961426703411 -7.704026162482551
-9.714755566811576 -221.46781353231893 -7.771118082857436
-9.853449355930255 -221.49584430327394 -7.770661974591393
-11.989929131050456 -225.3619751336306 -7.700739637120055
-11.859532917207012 -224.63380295319723 -7.713585235610743
-12.27393277715342 -226.24118327888104 -7.684863348129031
-12.58226521131854 -226.59072030686428 -7.678188222849945
-12.432956922107408 -225.90226322057129 -7.690403739391184
-13.059202338306928 -226.56904036817147 -7.677526586038108
-13.527295550127805 -226.41249022722178 -7.679390677086981
-13.675860698557788 -225.93130801231786 -7.6873651089020445
-13.831208691628794 -225.90953925870733 -7.687505994986056
-13.980957823108675 -225.57924550451077 -7.692814390560763
-14.13147389113723 -225.38449462953596 -7.695979572007225
-14.428139323786322 -225.14138435852067 -7.699474296121865
-14.580186406361031 -225.23697001059853 -7.6972713382055495
-7.137968954358231 -180.22887596379226 -7.70446810451625
-7.127451357624799 -180.17146132806286 -7.702067141386786
-10.6266218350237 -195.35114531379494 -7.7287241533860165
-10.68532567064044 -195.31329332652783 -7.731161976860073
-10.747176578445284 -195.25343483903978 -7.734679413761208
-10.821955545307652 -195.24434477279337 -7.735707235055775
-10.919024778626289 -195.2669838463971 -7.735205540780694
-11.015319734145852 -195.44651906487834 -7.72651475000616
-10.98650989787046 -195.31454216638645 -7.733207194332526
-10.762683602420768 -189.61357504928395 -7.719514108112541
-10.744308097981955 -189.56842593796017 -7.722845558665406
-6.335186571464868 -167.09832284503534 -7.727237982156254
-10.845984541913374 -189.65061158151224 -7.718634127266533
-6.4280466280460695 -167.0991806814972 -7.729551101163346
-12.213289925244176 -196.0926165763074 -7.697529786374791
-11.00404478055777 -189.75663801453095 -7.713618566118879
-6.520902968531454 -167.046461836081 -7.729786162104161
