ply
format ascii 1.0
element vertex 824
property float x
property float y
property float z
end_header
8.080975433122138 -169.17994871851116 -7.649271555304277
8.166479948946208 -169.054209311382 -7.651155833130939
8.88385029275306 -165.56369593601363 -7.678365626320553
7.8323689754840125 -170.1270859756521 -7.639193082174253
7.877120628671314 -169.93026743303062 -7.641072903074453
7.977645659315318 -169.29337121528826 -7.648088783145494
7.714683299942035 -170.223070750778 -7.637198204973053
7.896463741651761 -169.43714872754043 -7.64598575783121
9.120850167252524 -163.53605256746698 -7.687853462046877
9.75985862659714 -160.7598555554883 -7.690162519218139
7.543583655016576 -170.24092446141645 -7.636339891658663
8.65811044858102 -165.52176368150515 -7.678940227941003
9.471662228230517 -161.4059332969497 -7.691114602103456
9.996440038747942 -158.37688414459606 -7.684085844853663
8.155128310546388 -166.67564753748016 -7.670735035848041
9.772465968606607 -159.35966212605115 -7.688764849562909
7.206652457935242 -170.82480316181653 -7.627849900844001
8.236234503226708 -165.88902632582833 -7.676362335665456
8.28609459652353 -165.7391692630589 -7.677058646930571
8.699551872169714 -163.69486981184122 -7.687757593546699
8.792142431931694 -163.38420799922872 -7.688797554760945
8.936951568395575 -162.57080705019916 -7.691448351664441
7.218560146279831 -170.0437828036911 -7.6360930744632025
8.618688612814193 -163.40408515027295 -7.689432370036793
9.68013187289727 -158.7785413854311 -7.6879200959643015
9.773463794920811 -158.35574702051852 -7.686327612989231
9.803625919478481 -158.05268825688395 -7.685056578987501
8.49382490944689 -163.86781754333043 -7.687309367376576
9.552387817459397 -158.9982780794017 -7.689405247111672
9.53791285479091 -158.82029092460957 -7.68950056049044
9.568918576505254 -158.51541463771883 -7.688517810859344
9.63343151598503 -158.40321124514833 -7.687310246241069
8.216925984863561 -164.5921126795034 -7.6842287798411615
8.294745295622505 -164.2634698131724 -7.685940530267576
9.6557126550987 -157.6107646889079 -7.6847754989786825
7.978559910327977 -164.95160706100881 -7.681788493354598
7.88478432873756 -165.05603651190276 -7.68143747779907
7.702537858356671 -165.46535288412306 -7.678226426584822
8.611732141836342 -161.29477313145958 -7.695207666400467
7.595262250762975 -165.55515298225978 -7.677799251824704
7.926444164990148 -164.05600048121337 -7.686881149125702
8.008076440160764 -163.73874637692015 -7.688451723689868
7.93801704462221 -163.45960777697778 -7.69020884483444
8.1115820677615 -161.908539315872 -7.695543382094582
9.362610675835416 -156.2643439492459 -7.680947029335597
8.314901377860405 -160.82133720872696 -7.69761548252552
8.98018356850569 -156.27751932552547 -7.685040610159967
7.583166753781846 -161.54265051357172 -7.698510977872666
8.694601508536227 -156.51144287996448 -7.68935985838242
8.692597449571274 -156.35505446129253 -7.688328517894814
8.787835542765997 -156.27801076980475 -7.687350800476164
7.492253628906916 -161.62958926537019 -7.698123062436213
8.796319402733769 -155.08536504255764 -7.680375438333155
8.779374811095167 -154.92180641642878 -7.679105943030652
8.935239590922656 -153.6156828136521 -7.666596457748694
7.967421375450208 -154.6028479001511 -7.686360892147789
7.912373921720761 -154.7011151455449 -7.687928265160856
7.890287477189695 -149.70994318379732 -7.635207695573657
7.7191045511045004 -149.2589547648275 -7.630763635632616
7.755218354366878 -149.1617338253894 -7.628859222592184
7.64516625686991 -149.33282851624654 -7.63357395152855
5.8154579430119355 -148.62364674013287 -7.654070829007741
-2.994298102331511 -164.00349440672625 -7.608394555144777
-3.253571566782785 -163.99939835143246 -7.604163242530058
-3.178524719838334 -163.89589600235325 -7.607387284186994
2.811160931690921 -134.67592405182995 -7.70100115730864
1.717426623293008 -134.4750992649941 -7.695633303280886
1.3076348087693077 -134.07431903416213 -7.671281973759421
1.1286291544721543 -133.81333651043215 -7.654529971741809
1.2274934056525346 -133.53838520929685 -7.634590139728988
0.7172813867348147 -134.35683111230966 -7.694892320004879
0.7640981529574518 -133.8951772202059 -7.6626915202851436
0.7957308476244513 -133.43459047712412 -7.630369583389188
-1.8394489354518946 -143.14026599445378 -7.700563694697344
-1.7490287708452499 -142.68846378816696 -7.6900883248939
-0.009611940555846132 -134.24511596139968 -7.692561582629385
0.04052009930504852 -134.18048713338302 -7.6876211544852495
-0.06393354846805366 -134.3094823065968 -7.697200301983085
-0.06432411283311268 -133.9948249886646 -7.675742224398405
-2.0164132265243424 -142.07936098254638 -7.682248047655197
-2.2199902339235766 -142.2557923188207 -7.690345944083274
-2.2206441570967517 -142.15390368764946 -7.688251615977485
-2.154767850176155 -142.08339614143512 -7.685430388505963
-2.1905629786830367 -141.79910534727065 -7.679713565053394
-0.44906992418944114 -133.58150694945186 -7.64951393296497
-2.3978962564968285 -142.23852829277638 -7.693804587531761
-2.304636442130384 -141.81425675813324 -7.682296190198166
-2.3213799010575844 -141.6747942584463 -7.6794030022991695
-0.6451684846519257 -133.71374527871356 -7.6602163683566715
-1.814493931780465 -134.1231002536057 -7.697144131348081
-6.811376896877887 -156.43742654091847 -7.6737014022458245
-3.9923959321350786 -133.95919507352664 -7.701642562261767
-9.005804534068787 -152.84081374483148 -7.698366371455125
-5.019559289053683 -132.72530904796278 -7.619238762740979
-3.9360611089258235 -126.88849416961139 -7.683821953999775
-4.2554223755471625 -126.68209217966871 -7.658092898179162
-5.1764895367308625 -127.03706975329432 -7.657470265960081
-5.467734725537948 -127.09188431266777 -7.652766522634372
-5.402273774598671 -126.56199976525049 -7.613350698014239
-5.826169141091029 -127.87608741127087 -7.702640929841689
-5.730473626479133 -127.4794112381463 -7.674833018564644
-5.591278438569651 -127.04667776310393 -7.645422667241804
-5.839715315852054 -127.65761176637865 -7.685312569644253
-5.855750772925047 -127.49519905040165 -7.6721430862466935
-6.107475444545935 -127.92259284007964 -7.69765700925835
-6.067001155618772 -127.84414491258757 -7.692749166223014
-6.094556293234376 -126.94970307465186 -7.622126916385154
-6.166542194343078 -126.81796399044097 -7.609576028327535
-6.642025599511269 -127.85545950179561 -7.675988498166631
-6.667503596393381 -127.6521526128228 -7.659341377253314
-6.706204289109129 -127.50741868812914 -7.646873006523262
-6.77196170659591 -127.33123948765125 -7.63100239873232
-6.984477000566322 -127.62883147778486 -7.647669799922284
-9.344828799800869 -137.42081782525827 -7.633656009964824
-7.738851273614674 -128.26201115697117 -7.67387180380294
-7.697647649892806 -128.1846336379716 -7.669038203094245
-8.036322931234745 -128.59116714662719 -7.690320529693741
-10.186714311175653 -137.19284381268028 -7.656387701419881
-10.28812451078484 -137.24926397568564 -7.662537834194943
-10.425277832344737 -137.5054510109393 -7.6776551348611
-10.363320034061442 -137.37576735711787 -7.670433077986987
-10.371048025144844 -137.34234528730286 -7.669384060894895
-10.317796980978592 -137.26972544443237 -7.664515939336906
-14.80256488487198 -150.08935280747917 -7.607541194361012
-14.767704335428832 -150.00385095841602 -7.6108074267642305
-14.86955719298593 -150.03831317575455 -7.606366288025424
-15.417540339053845 -147.93436702521905 -7.636928086174624
-15.630730631206108 -147.1248348428689 -7.648583305660691
-15.828889398719092 -146.35691689813862 -7.659773885813126
-15.881643640256655 -146.3021709863528 -7.659142064309671
-16.22715582665006 -146.97625037343565 -7.629243818510843
-16.01340712930505 -145.83474363185255 -7.665517928619738
-16.30303935922642 -146.76749437900105 -7.631344105088218
-16.095605121210443 -145.61023478248708 -7.667870547638526
-16.174881342516244 -145.38904003806752 -7.6702322487021135
-16.251087442552162 -145.17536805011463 -7.67252606422977
-16.485634436702544 -144.4532482695242 -7.681081523957284
-16.53947203300669 -144.33869760295764 -7.681780670681388
-16.580629856340234 -144.29279571532513 -7.681273793607738
-16.666197141897502 -143.9684205126898 -7.685859319776408
-16.846701919326158 -143.64616543454613 -7.686506064130622
-16.829131385590262 -143.54850925841106 -7.689645717977094
-17.227385716663463 -144.60385045010614 -7.645915630566741
-16.940931495762086 -143.2031376089556 -7.693619471717734
-16.99440133088253 -143.03099849430276 -7.695689306918351
-17.174902553021543 -142.53049750980043 -7.700565443448134
-17.523798539654173 -143.8196130896441 -7.652108295973809
-17.498440923791527 -143.7355835593989 -7.655442248483816
-17.202911089497558 -142.5278800942462 -7.699418002775903
-17.589931299349058 -143.73981181979764 -7.650990217986272
-17.56409020819948 -143.66799149164842 -7.654049227182127
-17.40867029101215 -142.11224939616812 -7.700839846435708
-17.440968102797292 -142.04717707112246 -7.701042730068589
-17.57312512315142 -142.00467317493323 -7.696049653569232
-14.296139120925307 -126.93980769115419 -7.652076251846233
-14.309926445858324 -126.897454197469 -7.649018237393117
-17.556130862562064 -141.90100035821854 -7.699486045262244
-17.611683117187265 -141.83323489113715 -7.69862379817771
-14.994101230810438 -127.52289584402706 -7.646209216937343
-18.03662715551247 -140.96616039301986 -7.699939799893041
-18.13299152658084 -141.12621600990394 -7.690779645471741
-18.069311168956517 -140.90574228223153 -7.699806135529454
-18.155605319880973 -140.71643078284865 -7.700137879079737
-16.37676532630213 -132.34272542497817 -7.6173991537093375
-18.277924819310254 -140.65322618314852 -7.6951491596077455
-18.25603973630425 -140.56361727190614 -7.698642300764116
-16.46508493206158 -132.3253943266378 -7.614330305982561
-15.361205789206291 -127.13629104719057 -7.607544880695388
-18.31516053190327 -140.47235607181375 -7.697744210682149
-18.292442463023665 -140.37290563833562 -7.701546330215329
-16.509201150189494 -132.28119572136774 -7.608844747439962
-16.50898314207115 -132.2622928663715 -7.6066910601911415
-16.499136607874203 -132.15339094118798 -7.701793271106035
-18.741372308039967 -141.735669935167 -7.640690963503781
-18.630154814416514 -141.5497127017536 -7.652061712465322
-18.773971249171826 -141.82715328023585 -7.636378598405273
-18.797966684707987 -141.30502096799623 -7.6481933286466965
-18.8265345104839 -141.2519052289509 -7.647774396422101
-18.93092510318861 -141.4637312686372 -7.635914772045102
-18.919030386729982 -141.42272981381635 -7.63769118122705
-18.926179440956638 -141.2288552994728 -7.642148141422677
-19.015030189178397 -141.37592000197347 -7.632809672581622
-19.048147738006296 -141.27575389828823 -7.63317547751136
-18.99294114847362 -141.2024257230268 -7.638555817236522
-19.113442663457914 -141.24226509550732 -7.629773421277653
-19.058768760750745 -141.18756083101715 -7.634711475007094
-19.157895338270883 -141.159752619672 -7.628905059599465
-19.268751849271688 -141.0014852523742 -7.625384301664509
-19.3587478153987 -140.9991050939386 -7.619287521932862
-19.348547799331303 -140.94706174650847 -7.621249000477713
-19.269158548859078 -140.8135909802141 -7.629958847119575
-19.412229897968974 -140.86729693186507 -7.618771172814639
-19.39935747226781 -140.80662042240684 -7.621106387947437
-19.39544888683875 -140.5768245352432 -7.626924888580516
-19.03078822020098 -138.57812895917593 -7.7004958155661765
-19.014220917550574 -138.56951641541193 -7.701869741293903
-19.415452187102705 -139.75808470790625 -7.644837627314744
-19.103056900860473 -138.31163305511438 -7.7014568854040615
-17.12689970412821 -129.17107276555004 -7.623841138549028
-19.164827950971116 -138.39090589188834 -7.6950107760893705
-19.183657444940767 -138.26452837769452 -7.696438996689081
-19.17781712463853 -138.19852774356755 -7.698368515882463
-17.14814281517293 -129.06176483756792 -7.61724752428165
-19.210913023055046 -138.17725400419124 -7.696291562952363
-19.237956911013875 -138.0750168659513 -7.696427332363332
-19.3291641121402 -138.05837402650843 -7.689505329229432
-19.32965866938252 -137.91641301222916 -7.692434745387771
-19.348749701268027 -137.73710369836104 -7.6945136922734685
-19.488734869932333 -137.74704351597057 -7.6823635037152265
-19.45543561476911 -137.53652127674107 -7.68918531066299
-19.975218822342754 -139.5562239013745 -7.605555558702355
-19.918154128097857 -139.33001653406177 -7.614882167433533
-19.91677220278328 -139.13755147116373 -7.618862542889661
-19.856082771919745 -139.0284196350258 -7.626159069152395
-19.55907804647138 -137.87757846249994 -7.673818829452436
-19.506639032547948 -137.42340372738502 -7.686594198846789
-19.927630559718164 -139.01351575129704 -7.620395655841939
-19.946593252109942 -138.89499987541208 -7.621053674656133
-19.788981889303727 -138.1255557994793 -7.649019162947726
-19.757720906180715 -138.04535073177107 -7.653218733307388
-19.556158437612645 -137.28284170753776 -7.684347820717185
-19.582287377822883 -137.21572698775412 -7.682911161208429
-19.97757568801201 -138.90665571065665 -7.6181677159811665
-20.000484031468183 -138.80253949448868 -7.618109578816659
-19.847833814318157 -137.86057695023968 -7.648109616273638
-19.774036741932616 -137.76077123754075 -7.656534340181815
-19.634031957029766 -137.15901311348225 -7.678775992309639
-20.04610199778929 -138.75296022651642 -7.614986203501216
-19.92862398766305 -137.8776620745387 -7.640268313143793
-19.874097169453336 -137.80524143028904 -7.646518141550918
-19.702892104876288 -136.92026981607032 -7.674898852243327
-20.153627263807245 -138.5931780142632 -7.608023202201484
-19.99531146507595 -137.60757599670643 -7.637629295341273
-19.91606724955118 -137.37825781633103 -7.648315780033372
-19.90429938379407 -137.3468989714795 -7.649844380890524
-19.758322647661643 -136.81228177928762 -7.670235182867578
-19.799988711343783 -136.71071739323128 -7.666646841152262
-20.233481841774967 -138.26435092618846 -7.605640440281628
-20.006410793071545 -137.60287392878755 -7.636614809168225
-20.0376483445567 -137.3380314045851 -7.636477405151665
-19.839643754254006 -136.61358235411313 -7.66290329399782
-20.145157449595196 -137.4416231683273 -7.624437508272105
-20.08900925284208 -137.2484258503807 -7.63202605826126
-19.90332922838056 -136.4828756129989 -7.656261623078902
-19.93261798646002 -136.39033148371988 -7.653009920634363
-19.96555764229368 -136.36731907005552 -7.649174726374433
-19.979134773920322 -136.28712041167137 -7.6473940852133735
-16.00407690240739 -117.83354471333303 -7.697396266937693
-20.03337444969121 -136.27610234901178 -7.640961453257885
-20.068069178704153 -136.14533704262527 -7.6359884988440125
-20.071280849270355 -136.06263473441248 -7.634861224214264
-19.067242357902195 -131.43275531046044 -7.64802728500994
-19.05959895127556 -131.3943883647194 -7.6463621333192835
-16.143515773529757 -118.00179351146322 -7.692792615285278
-20.12423747013101 -136.02990774623746 -7.627980661823376
-20.12032005399187 -135.930057736746 -7.627108785857304
-19.112361708166265 -131.42729343971743 -7.645813190816253
-16.889545310776516 -121.00176408811599 -7.702173494185664
-16.194386352567996 -117.93135330183503 -7.689218949023614
-16.236578741651464 -117.77963990667692 -7.684381026883084
-20.17034028208612 -135.90825928934254 -7.6286797059266505
-20.198937580042845 -135.82377025470961 -7.6259663164078875
-19.296350172557627 -131.48153343083814 -7.640793351649451
-19.259378725349332 -131.42231103305645 -7.639284451649922
-19.23870592803708 -131.3501715053223 -7.636460946918529
-16.332752894112573 -118.11505108992219 -7.684971004000397
-20.67651811883392 -137.44283778120413 -7.698883030788938
-20.245653293469758 -135.78352267860672 -7.622019106017017
-20.2246849991938 -135.7436160946859 -7.691855776413111
-19.35584077169886 -131.51121722752637 -7.639798306726448
-19.294330365116526 -131.45122632873404 -7.639273232432801
-17.21234375169978 -121.54950270494274 -7.694568437565726
-17.154127227533117 -121.38524329381664 -7.695046793975101
-16.4199239968075 -117.82235069483374 -7.675794761363367
-20.702394317538204 -137.4323911451052 -7.696394396233423
-20.6689954245493 -137.3041642256609 -7.696370627578459
-20.699185035084486 -137.26020410605614 -7.692707365510422
-20.305544823591255 -135.5501652780794 -7.675592723209477
-20.33919368037698 -135.50255604786022 -7.670030228125425
-19.466267411719247 -131.54319981621603 -7.636829612213048
-19.41882967766585 -131.53210821632425 -7.6382153076882044
-20.74717981057907 -137.2058275898365 -7.687179612774668
-20.748347442551875 -137.13783243782194 -7.685389778643367
-20.363598896161612 -135.459748647995 -7.665556447897105
-20.37416840587419 -135.40738863824353 -7.661974071790477
-20.267568558402466 -134.56294130297067 -7.698890327718032
-19.534983746462682 -131.5352205325637 -7.63354077942903
-19.579945109204942 -131.49393064007847 -7.62955192200978
-17.863092186221348 -123.67816475406482 -7.696331388910604
-20.912702085881353 -137.25734882816406 -7.673711799031093
-20.892703979886093 -137.2269126046185 -7.674748576395514
-20.438762599516803 -135.26000148224693 -7.647927314801764
-20.47696047504978 -135.13209346163305 -7.6371133228550905
-20.3326561518742 -134.54928321145698 -7.623625174025627
-20.323544436520162 -134.50587707454693 -7.614047443246756
-20.030067776237985 -133.06051219215897 -7.694621708923044
-19.99264722739116 -132.99486197522225 -7.654661875665358
-19.961276772986544 -132.95050965966246 -7.691275890511269
-17.940970463794525 -123.67648400569288 -7.692569748474225
-17.979570998365457 -123.54990377809585 -7.688606740508075
-17.713070231603968 -122.65637359229771 -7.6873523909398935
-17.54787774169958 -121.84044943807459 -7.682699823524759
-20.961652162189342 -137.1691599233944 -7.667072595168442
-20.934296502908392 -137.00360466715622 -7.665149983447598
-20.895030271305032 -136.62367263126723 -7.657851188887132
-20.6371787541149 -135.419840147078 -7.635524603182059
-20.511717326562817 -135.1177662663587 -7.632687049493055
-20.54905720058525 -135.01843623812476 -7.623143794330937
-20.487465283260583 -134.7189947387132 -7.61122118721822
-20.475531292892942 -134.62880866322345 -7.606514190199715
-20.420521082660564 -134.5492513820101 -7.660807687070683
-20.39905099415735 -134.46508083809545 -7.67435917128191
-20.141280967352085 -133.13993670471794 -7.632340845470235
-20.086190389054675 -133.08836811730686 -7.647599048988165
-20.045724381485723 -133.0372342544663 -7.603703746289748
-20.010295630284023 -132.77908542318886 -7.6801260582789705
-18.03734745749188 -123.59321659260581 -7.686615509751526
-17.729875856535312 -121.8594120295598 -7.674133300790176
-16.756067014582555 -117.61298836680078 -7.655329534827494
-16.611957989295853 -116.94774600273642 -7.6519599845472825
-21.008907973228197 -136.95105453105344 -7.6568528261241635
-20.687128861004197 -135.39626804130182 -7.629191813055904
-20.64898735715315 -135.35780081900242 -7.631182921640244
-20.633228991924536 -134.9875757540206 -7.656422213920603
-20.611223641737862 -134.91327545098076 -7.627663073239059
-20.544192718995753 -134.72324992807248 -7.631475075258423
-20.51909292874264 -134.62313944433203 -7.660286622208557
-20.521559587470122 -134.53784689716238 -7.679478873931338
-20.212802442519727 -133.1418577012205 -7.667500256904601
-18.993782994101206 -127.28692062737431 -7.701985181259698
-18.348351140637003 -124.40678209523833 -7.684946747489473
-18.132337947342545 -123.61075397060014 -7.682355291403528
-18.093092526951697 -123.47082340021963 -7.682126123403922
-16.798861864774953 -117.39098315379165 -7.649438542810122
-21.113967823249055 -136.90420368039028 -7.645817704391764
-21.12556868701965 -136.71088960552947 -7.63886452943154
-21.077911468337675 -136.59059743274665 -7.639561089944217
-20.72859920019086 -135.05964128202461 -7.698487042655746
-20.70312876442259 -135.002436435956 -7.660851926213075
-20.714705515744285 -134.8864773026863 -7.688590470898663
-20.64456481020178 -134.7772733806352 -7.686516776129253
-20.63375614214307 -134.68528369631085 -7.681316049747366
-20.580718929421426 -134.52528502670953 -7.6744939159504835
-20.33964063107656 -133.29219825948152 -7.603824341364569
-20.31060845657848 -133.27474447792127 -7.604458691389525
-20.308441707566693 -133.139296731508 -7.68836735827626
-19.0681421295162 -127.33011735681752 -7.6995066493475495
-19.065051001743186 -127.13627864081023 -7.696594226429303
-19.045820868875033 -127.06956510072561 -7.696254891414451
-18.42137772388835 -124.36447828656789 -7.680817226831427
-18.353302699456695 -124.162837803654 -7.680765301750279
-18.2841236573323 -123.83568024873549 -7.678814161768053
-18.230326476469557 -123.45713251770438 -7.675420337761513
-18.17225695074936 -123.20681279383541 -7.674259166990448
-17.857886046334617 -121.63598659127409 -7.664316144142581
-21.1908112533527 -136.94462430158094 -7.639839543570022
-21.262062298311925 -136.8191467248302 -7.629410405444132
-21.195287910017708 -136.50604945030727 -7.625293604932215
-20.76361721249353 -134.8625049284552 -7.683644476743445
-20.72864533618599 -134.63161817288184 -7.671183049691245
-19.110647652476235 -127.2064804410647 -7.695830827734134
-18.53253582171704 -124.30203184603027 -7.674886818989387
-21.286216117673582 -136.70197703687307 -7.623403630448991
-21.270253429599464 -136.50736813888423 -7.618023962382555
-21.275590035860496 -136.403704994071 -7.613637033631087
-20.89082072453244 -134.84648660608244 -7.67371431146692
-20.78997897349174 -134.37985994537362 -7.6501311794019475
-19.23413551952175 -127.07999420970731 -7.688734811185373
-19.183968818708617 -127.0562386435489 -7.690350017526621
-21.33583476087108 -136.62706767874198 -7.615987546266572
-21.301525240930392 -136.48932773715254 -7.614313840450231
-21.308631159936137 -136.3766357842197 -7.609335287587555
-21.295677821435667 -136.33720459805036 -7.6091068703381675
-21.19927381206435 -135.9709590277819 -7.603674170882357
-21.064498701354886 -134.94737174904927 -7.667988287049922
-21.033888672215213 -134.81379733505324 -7.661610059823316
-20.895722006467604 -134.28884381853567 -7.63658656188567
-21.11933714063885 -134.96245628046557 -7.6650888731765985
-20.939378159953247 -134.11162043073787 -7.621409801814443
-20.97109687282702 -134.05375052901806 -7.6151722080450455
-19.688238322320878 -128.39624245866128 -7.692916994333189
-21.0109665513659 -133.9906430713648 -7.608031047877249
-18.93580490595594 -124.26093307690446 -7.656223167266042
-18.88479729347935 -123.94646792515194 -7.653465689001961
-21.52724619657846 -135.9625989828968 -7.696857583393765
-21.506139742949276 -135.81068845261163 -7.689532392323884
-21.51889059394811 -135.7053957879125 -7.682482655625721
-21.495096394691636 -135.59718495547253 -7.677733906234526
-21.482714266707514 -135.58141110206103 -7.677670807243
-21.093291909377196 -133.87109582297535 -7.701548740311223
-19.122695852415426 -124.64044160357838 -7.654188551112935
-18.670318054380573 -122.87473365416758 -7.646185768138473
-21.58769155318889 -135.89747695812227 -7.688956482480923
-21.587794333958904 -135.72595623237254 -7.678942452645851
-21.586784134032737 -135.64100996955415 -7.673989701557621
-21.562786441206576 -135.53250738926545 -7.669189530566011
-21.1288014769951 -133.7359630828241 -7.692103821863393
-21.16408773371703 -133.6483615216238 -7.685610235980346
-20.964132245467265 -132.72367231525013 -7.640692968343449
-19.158143946136928 -124.63185865982443 -7.652641283607885
-19.045681132302544 -123.82235779575572 -7.644494085209913
-21.660328116483925 -135.4862621652635 -7.659623388375005
-21.668209990405703 -135.4296503437911 -7.655666196946907
-21.21017452469869 -133.55358604359327 -7.678323938909275
-21.04273239845213 -132.72103213548178 -7.637578068098188
-18.559940777929512 -121.04556474404144 -7.6223842144646765
-21.27257849871861 -133.42949986893242 -7.668739997841697
-21.313929357233103 -133.34802154005632 -7.6625844437688535
-19.26092279343012 -123.97107177844707 -7.637644762977734
-21.794014649274917 -135.06010342609088 -7.6240849642530755
-21.524181166726617 -133.78744148564604 -7.681184362205909
-21.348814155413105 -133.33334701779424 -7.660466112736418
-18.63193484060134 -120.33767741549696 -7.607814041486643
-21.8245691348689 -135.07607413279584 -7.622932007873631
-21.623172057384757 -133.74817425388488 -7.675315176887018
-21.42907665680383 -133.25765666198708 -7.653210531914372
-22.36478676092779 -136.7365307777176 -7.683306126770285
-21.638343216966312 -133.63738066134687 -7.668071785828822
-19.410545120792257 -123.31347349561804 -7.6208233876611144
-21.72429970536038 -133.62476541877868 -7.66422971442651
-21.956545678444115 -134.27606308683946 -7.696271913661578
-21.914502850051264 -133.723237628448 -7.663494703436568
-21.753066837010827 -133.09207469599713 -7.63186048888988
-21.73803661862319 -133.04612131083465 -7.629817619978656
-22.075288511792674 -134.27655726713735 -7.692173742210496
-22.11805644494229 -133.36919338072136 -7.634873954282481
-22.117439877428676 -133.3068268302773 -7.631166294081813
-20.316332253818278 -125.25548398326296 -7.616693816385744
-22.416802032617433 -133.87423120012565 -7.655064453565282
-22.37583851734019 -133.81433897334577 -7.652791061763977
-22.42972248990846 -133.71699342927695 -7.644921135019541
-22.585643779091093 -133.6474679633263 -7.635159530397861
-22.601199832288366 -133.59412709135987 -7.631315735866048
-22.504257151271595 -133.4230948854894 -7.624349412621332
-22.518725270996526 -133.25105386600865 -7.613476342261809
-22.690541123182506 -133.83752306927232 -7.643140378736563
-22.667207079737622 -133.6110977194438 -7.630021315750385
-22.58993118624057 -133.43115242993102 -7.621798575832381
-22.614861550261374 -133.34753865053025 -7.615877066188547
-22.59207028411391 -133.29497688997057 -7.613502081644942
-22.764776732761025 -133.25789178570844 -7.6051601520828385
-23.261350821048865 -131.5267990111073 -7.698870618998708
-22.9527447694906 -130.02481628048352 -7.652537523035576
-23.444589564505144 -131.43913493333795 -7.69418435824533
-23.3904026009649 -131.24001016600172 -7.687346706824517
-23.5612988433816 -131.64749786256712 -7.701222689970153
-23.547169825654183 -131.41503937983364 -7.692504485163512
-23.463811463350872 -131.19140405123682 -7.684986438020307
-23.61852056440598 -131.4753138849137 -7.694234383895394
-23.568736279359918 -131.3095491099729 -7.688416398082194
-23.3082647183062 -129.78284907253067 -7.6405192308742125
-23.27950151773338 -129.75871092989843 -7.640201126532022
-23.702928146869812 -131.3730070207246 -7.68975299400361
-23.73298091799788 -131.1801731670855 -7.682358103014893
-23.72903544182054 -131.1554165211572 -7.681472206974021
-23.7629001637346 -131.09160616496476 -7.678872921250978
1.004787077166597 -173.03096454889436 -7.521228467651688
0.8799242599691048 -173.10646804530379 -7.5179856518727055
0.5325036126925404 -173.76057224136332 -7.500080657797611
0.5884733475950981 -173.53846741361534 -7.504845869562942
0.6216091513103876 -172.9128502137648 -7.516542093970939
4.004405900597796 -132.3248752987003 -7.527870682370721
4.013006831591412 -132.2043437981262 -7.518913819638765
3.950118697463612 -132.13172560712374 -7.514191616872422
3.906874002036737 -132.05711421534244 -7.508826230049163
3.2656240874036975 -132.66408567409053 -7.557744773355033
3.329669728677068 -132.58062656099295 -7.551082473462856
3.080945762184726 -133.2038306735157 -7.5975237635417825
2.9976402435090286 -133.13592198760122 -7.593468944447278
3.071636329909328 -133.05612836999546 -7.587090875678764
3.079232790186314 -132.9069390988321 -7.576369303562916
2.955970792107415 -132.99142175874056 -7.583460857963264
2.9989547142213553 -132.83975399142193 -7.572287888916281
2.3694735818009107 -132.6077108597648 -7.5599410841569314
-5.036405742613251 -164.19088749104552 -7.567476502422566
-5.1435786195596975 -164.2252651452395 -7.5644065221609145
-5.268833996330189 -164.21900192062412 -7.562071468537869
-5.409366553302469 -164.17545050272005 -7.559733194284072
-5.5388027439366585 -164.1570795112824 -7.557474734976922
-5.647266230252237 -164.18596570466084 -7.554365521802503
-5.755391278225819 -164.21636071558729 -7.551557577087993
-5.868803794052059 -164.231302053974 -7.548547954359034
-5.955381165578832 -164.306065606969 -7.545280799557941
-6.127890000284477 -164.46718720884712 -7.538099679203985
-6.047015817891701 -164.36964029527942 -7.5417484272809885
-6.297026075763332 -164.95209599194706 -7.5241350599644745
-6.1999929544561905 -164.58673043053844 -7.5338370008375275
-6.3615071790272975 -164.48307363207454 -7.53227932130475
-6.539068622967537 -164.64073475387409 -7.524801188084984
-6.655135582101261 -164.64912613389995 -7.5216246061821455
-6.769393195755432 -164.66274733335112 -7.518685903656796
-6.887416403292583 -164.6646452227326 -7.515533670944368
-7.087592248638092 -164.76470533097933 -7.508371814076772
-2.080801667194109 -141.46381794153365 -7.516133730396434
-7.273026118233837 -164.581252632721 -7.50760402208147
-7.355005932275539 -164.67904619996156 -7.503247517763992
-7.452035202405552 -164.73711808439657 -7.499620354962497
-0.6776733999716029 -132.495634176841 -7.572673118422746
-4.927416664340843 -132.05092662042873 -7.566919636728745
-4.927480332957968 -131.90490346160908 -7.555378774606052
-4.924241189648278 -131.80780213216266 -7.547702814510433
-4.91290320568468 -131.75804800518452 -7.543798862710202
-5.09926201992967 -132.180103411504 -7.578043655872029
-5.023965165456785 -132.1179944525437 -7.5726484383621555
-5.025024367066472 -131.99893996193586 -7.563400861238127
-4.974646131405356 -131.8669243508465 -7.552768168122999
-4.939629939867277 -131.66882582182237 -7.536875027025119
-5.208822713879652 -132.40744468514572 -7.596238802897679
-5.212759764170109 -132.34176277668254 -7.591169618458485
-5.0537413915000915 -131.74308094288835 -7.54334912953401
-5.077865845168919 -131.6060703187512 -7.53266733678154
-5.306024275674108 -132.29000992675114 -7.587809357733435
-5.224845557575197 -131.6876580744486 -7.539937443264201
-5.343160583108148 -131.5530302605568 -7.529877302813408
-4.96250115303074 -125.75621527676182 -7.563690985198097
-4.896323521647293 -125.02344704746668 -7.50766193753163
-5.105991595089051 -125.78741843430211 -7.561563604083794
-5.101398671418378 -125.65017229992205 -7.550845367420543
-5.242813223995835 -125.68184634998723 -7.548941133971626
-5.218285997505902 -125.52978198334057 -7.537654589690522
-5.4735198387956885 -126.42313738919061 -7.600148868546537
-5.350082459028304 -125.28749378601547 -7.514115480429602
-5.593190783430659 -125.6661004297082 -7.536547186230602
-5.665900764476971 -125.3825296429127 -7.511563820906447
-5.968338504105839 -126.50316114503111 -7.590923551017657
-5.972837978460191 -126.31981220386459 -7.576349089172866
-5.911256133283821 -126.08723723181994 -7.559813497393004
-6.106720449798017 -126.68783505593082 -7.601169426800776
-6.254548025595563 -126.20524495706893 -7.5582649984450745
-6.283609078858284 -125.59145294658624 -7.508374696174492
-7.110124856241672 -126.52616532147697 -7.5565290740392586
-7.401156289630002 -126.33026992936878 -7.531423372401899
-7.352894993690352 -126.23321565551875 -7.525252970265534
-7.469338519174505 -126.08167972819082 -7.509275707118248
-7.79951500433563 -117.94335072716919 -7.522891516605034
-15.466722060707554 -149.78458401723276 -7.590258373590805
-15.504282314739518 -149.87246914738608 -7.586659766529511
-9.378177175421754 -120.39305860346778 -7.568238759355289
-9.819504670117498 -120.90198073408972 -7.571603248166974
-9.767330571016842 -120.25979981780127 -7.540456900430381
-10.176330011491594 -121.90467958328907 -7.605354245513908
-10.477412282352734 -122.09315675484453 -7.599043823565392
-11.967850396636674 -128.2073452046693 -7.5317286265168395
-10.669129285899592 -122.22060066719895 -7.595615871053012
-10.678157075412201 -122.03870469798555 -7.585612792258644
-12.075953504597086 -123.72583306899718 -7.600366150670016
-17.8709760523782 -140.58903756866158 -7.511054750762511
-17.825748746223343 -140.50005009536144 -7.518573667985276
-18.02409748023339 -140.6122402674362 -7.502115299646699
-16.39235656096035 -132.37886814237712 -7.517921386256795
-16.464624818301367 -132.33116261224745 -7.5118130727781525
-16.493461869393954 -132.1998987792976 -7.600016422383875
-18.319978963738738 -139.98684889489206 -7.524176119056213
-18.470987796547195 -139.62075334016686 -7.5374574438208946
-18.557435461169284 -139.4260328517502 -7.5438497661285036
-18.717001309335437 -139.12188627568253 -7.55162587578386
-18.824768625963756 -138.87134294445534 -7.55899066413506
-18.857037550062067 -138.84202928908195 -7.558383909698795
-19.085794251832233 -138.2091866858897 -7.577247505394187
-19.149126655953292 -138.16604539176382 -7.5742936289773555
-19.17360526662491 -138.12213043554257 -7.57465327327817
-19.31062933972354 -137.7854497146628 -7.580567570264929
-19.340755129980728 -137.73536198414823 -7.5803291569222635
-19.374497047146225 -137.67011124416456 -7.580430904816762
-19.567249989994583 -138.01047435846482 -7.543689510145674
-19.55513068146237 -137.95061147384592 -7.547990973533443
-19.47112997823179 -137.61504815251743 -7.57352342126204
-19.430131374629855 -137.55053731985248 -7.5809840509282
-19.523573561290053 -137.3686450368919 -7.580106611075477
-19.697911167756853 -137.99735508946586 -7.531004406110744
-19.707008316951764 -137.87351243525714 -7.536157711071659
-19.82697489706259 -137.89265143661126 -7.522357153622277
-19.63467969461401 -137.06181269044725 -7.581517399744708
-19.64951806175627 -137.00184522728645 -7.582296396122579
-19.874679117841158 -137.91566457326297 -7.516048268677819
-19.893195041270328 -137.84900442867297 -7.5170876528945
-19.910985789155184 -137.7395371339296 -7.520061542640564
-19.824882582276555 -137.54459459111203 -7.538554493791877
-19.697151990997114 -136.94028866648853 -7.579091236383237
-19.700341600296383 -136.8923609216682 -7.580602996592831
-17.720505228449955 -127.58228566119982 -7.514608119318073
-19.977956576950014 -137.69745326355152 -7.514257670489739
-19.887748938814003 -137.12273268279904 -7.548667916488549
-19.81495771565017 -137.03784404689452 -7.560879713699895
-19.784120686487746 -136.68735732602468 -7.5775026257821345
-17.779849169497744 -127.51766643883948 -7.508560924673007
-19.985680795953996 -137.1865164843142 -7.534104975771884
-19.914280378517724 -137.13292816741819 -7.544994801394853
-19.83577450021656 -136.6801665149575 -7.571029373768412
-19.850152065886057 -136.59893744504885 -7.57165593018664
-19.863957046269256 -136.51240752030154 -7.57232740124228
-20.336283544551137 -138.28181200714212 -7.5954880101452495
-20.323552138728047 -138.15340886121172 -7.598444250446675
-20.08761773351621 -137.26910423962548 -7.518302341244089
-19.8738504574929 -136.5042816370982 -7.57121827430248
-20.474540650777982 -138.823594916712 -7.5745393612593395
-19.94905523408727 -136.39211776348998 -7.563655080181785
-19.968125849598586 -136.29489238136648 -7.5630236107293
-20.0293033954355 -136.16167439695707 -7.556361583898832
-20.523757538089036 -137.70059677190332 -7.582743437755842
-20.109409751528023 -135.9929401545463 -7.546029638770527
-20.129683771312237 -135.9288974063574 -7.5431126252206
-19.128650561099356 -131.3971376369004 -7.521891716024457
-19.11710595540814 -131.3789118757652 -7.520936372228927
-20.60379223412893 -137.7694087743931 -7.573782430077869
-20.58955058084861 -137.67101165650007 -7.57597406828597
-20.591544794151453 -137.5669769189973 -7.576407256893724
-20.196439385194065 -135.89360199221483 -7.532531512723689
-20.20249277541339 -135.81260537776723 -7.531270230440867
-20.213325490154546 -135.74118484605768 -7.529015097925744
-19.27881107786767 -131.50496470044578 -7.5230245618601925
-19.234680514188533 -131.43001303705447 -7.5190375526844315
-19.224224085851173 -131.34541618994416 -7.512408718271193
-20.647164404920403 -137.5210017230447 -7.570591393255436
-20.61099305044553 -137.50909829607517 -7.574603031122044
-20.64752426839521 -137.39648897237637 -7.571049477419173
-19.38981304015959 -131.56641856442664 -7.522180846182748
-19.33519681537413 -131.54211543209306 -7.5231135681077115
-20.707973538565422 -137.41356348082425 -7.564306068642558
-20.714328700664588 -137.3465345700075 -7.563757427364969
-20.674447595409237 -137.24704448038094 -7.568371174709754
-20.307179571659027 -135.564570294487 -7.552436255365972
-20.327209133217337 -135.5076881085405 -7.539767584755683
-20.06631610159223 -134.51226462690545 -7.503547333725542
-19.471269898622683 -131.57225485221073 -7.518181079135034
-20.969494009325455 -138.08203191533056 -7.532683690318299
-20.819116711250068 -137.2976267996513 -7.551957858903735
-20.812759975083242 -137.2639623168602 -7.552696936416303
-20.789100756337028 -137.15514637600987 -7.555308742989858
-20.45956478917386 -135.53473396493317 -7.572362951542818
-20.444272339090126 -135.49357485834335 -7.572991400248278
-20.381621743218815 -135.38218817288228 -7.577351164375999
-20.225143773110723 -134.65686761908395 -7.560878578900743
-20.21800005551826 -134.61183710744604 -7.5587702094127165
-19.551472570011143 -131.53808170754766 -7.510858638215472
-19.596702927401264 -131.49727973594494 -7.5048745641839085
-20.942413136290998 -137.2621734880025 -7.53777625062327
-20.87064728356272 -137.21369753031465 -7.546011991956435
-20.546224744511726 -135.53516285405408 -7.560621992946499
-20.50001957534409 -135.25993349292537 -7.555953372541211
-20.47111481707874 -135.15451829173904 -7.555085847405553
-19.994625479324704 -132.99481691786428 -7.530712731702181
-19.969366415060712 -132.92167415834476 -7.559318975924115
-19.982759194570054 -132.77553386937757 -7.58711453776143
-21.050658630214713 -137.2514028197903 -7.525166371055022
-20.950210278474774 -137.1452281293543 -7.5365997930133215
-20.94058975940178 -137.01279053435678 -7.537176276594581
-20.52415481816013 -135.24600648973268 -7.551996823193368
-20.504561959856105 -135.11872160804813 -7.548670468963723
-20.50354062302018 -135.07635200589175 -7.546679530356834
-20.3849017502925 -134.43264366307346 -7.522165320691573
-20.38173257813349 -134.37795269377906 -7.518347646471439
-20.324125098830397 -134.2703328585918 -7.596694393812178
-20.1316845087129 -133.15104284453196 -7.517490215531041
-20.06883522868914 -133.08806267390744 -7.517030650688106
-20.043680963113026 -133.01171231785366 -7.541696912781485
-20.00836997093957 -132.80282539134484 -7.587664932122131
-21.028290703814655 -136.9619849580698 -7.526415622646903
-20.98859302467809 -136.87464592607992 -7.530573137428664
-21.05127479782294 -136.7909276722138 -7.52224048335904
-20.767494048518156 -135.48415065836087 -7.528542922691863
-20.617289755384697 -134.88522424112276 -7.5201698015010985
-20.512959075311542 -134.5968525943482 -7.600429748533398
-20.461433448636495 -134.47096193851516 -7.555702153891622
-20.29191038096943 -133.3050732226336 -7.5171871860124115
-20.271459364570138 -133.27557717652036 -7.516356551852175
-20.229743893244702 -133.17046973293475 -7.543665078625326
-21.084500428062462 -136.79915766722638 -7.51828692855604
-20.779664072084394 -135.47768026091862 -7.526609376533923
-20.716195837675308 -135.07373502607498 -7.516821625296457
-20.652274879375497 -134.89665738277063 -7.515910364489939
-20.724318790078133 -134.82486959219645 -7.593050885846058
-20.36852431000675 -133.2971611464256 -7.540501605860613
-20.311584556434997 -133.2127085634016 -7.574372242414138
-20.29112304861532 -133.16867816673042 -7.550888802516044
-21.209524839202842 -136.7790031715061 -7.502687126071155
-21.14350207724624 -136.62139934373087 -7.508917270538796
-20.81198078991622 -134.4194220073436 -7.556658644627409
-21.247881448798395 -135.99160828884905 -7.5996621068830486
-20.961210634340574 -134.82632591203304 -7.568239548904606
-20.899815859843514 -134.40031310904553 -7.546103821967239
-20.877122656379846 -134.30126935325512 -7.5412979788683225
-20.895932418140433 -134.23919602074196 -7.534735749437642
-20.147941186941868 -130.90748981065 -7.575540049082293
-20.132235019525616 -130.82236255012256 -7.571744035966858
-20.13887968799249 -130.70622628278366 -7.56537949867488
-20.09514405775417 -130.63770681133184 -7.563641935133763
-20.096947226637955 -130.5562907180504 -7.559321612546062
-20.093232610308704 -130.46658127290286 -7.55478570021875
-21.39721080684691 -136.3338199202985 -7.59891452886338
-21.444036301163806 -136.30056462578918 -7.592923244811943
-21.414230370234222 -136.12106727957138 -7.5884608892434855
-21.379923111852364 -136.0870653133642 -7.590466197715361
-20.29949385543914 -130.94554017487923 -7.571347175290053
-20.246515945591156 -130.89914009577637 -7.5710727293291455
-21.517117621940432 -136.25047476702073 -7.583576649279635
-21.465188217428093 -136.1706958264921 -7.585450360063934
-21.40658812885738 -135.95884122622246 -7.582147723818066
-21.413160257393333 -135.8708719387192 -7.577490734477612
-21.438309011276186 -135.7968185462417 -7.571460628410349
-21.006871722095983 -134.01717425608865 -7.5062273210089465
-20.411364376307617 -131.02446062591068 -7.57095789486688
-20.35738414751437 -130.98141416722999 -7.570883190209735
-21.524419257064036 -135.95075808744997 -7.569807651792072
-21.487147119755914 -135.85837673042806 -7.569350164560124
-21.470955886241402 -135.71207249331326 -7.564047336374149
-21.445555342823404 -135.68543068285058 -7.56534886792135
-21.06267288318366 -133.86356224955415 -7.595518570233519
-20.491161662125123 -131.11100330192363 -7.572308570850077
-20.4715720826716 -131.02857020295403 -7.568743067090006
-21.532972506019874 -135.41571234369195 -7.5424601739292765
-20.603335489539237 -131.01075072567176 -7.562507526360094
-21.719996787336044 -136.06576996176673 -7.555141780885437
-21.58654283130946 -135.38945571213887 -7.535481086364987
-21.591373581364273 -135.2359281241598 -7.526466705760311
-21.614333201569842 -135.1469712898535 -7.518972730713776
-21.349294920641128 -134.16312453156976 -7.596417105934781
-21.188134344602357 -133.59756244737585 -7.567950199404583
-21.245815856102485 -133.47108268804567 -7.554866972912283
-20.674233554290822 -131.00286309231169 -7.559247150312776
-21.968990959291517 -136.50729481553049 -7.548987439875543
-21.64618642596789 -135.22561384249659 -7.520155951538429
-21.627596553578268 -135.1364486381525 -7.516950226355022
-21.37827559494219 -133.63616983146233 -7.557613315094866
-21.27495136933281 -133.4215426281262 -7.549341295796259
-21.306611754209765 -133.34362733365717 -7.541648345596573
-20.733218000135334 -131.0011878137643 -7.556823667913492
-21.449275310371203 -133.63806250992016 -7.5528519615263185
-21.340615459761526 -133.36191409683062 -7.540592015877869
-21.54231046015633 -133.6276203667984 -7.545707449469918
-22.175811019412368 -136.2242927473613 -7.515960606896354
-21.95586355157431 -134.82366987385623 -7.597720154730915
-21.67873716745229 -133.62948521812046 -7.536404751443125
-21.667791175407515 -133.60139814662182 -7.535161290168863
-21.469303541419926 -133.00969572815595 -7.506552624813585
-18.833008434486718 -120.34400650370924 -7.598844386445164
-18.73979872103113 -120.20170414986546 -7.600785544715247
-18.876992566308505 -120.4643099702284 -7.5989224219410385
-19.02991228509043 -120.43905959676451 -7.591580815353112
-18.960272874320292 -120.34072835722326 -7.593186199679882
-22.091407463783497 -134.40127804212895 -7.560655046186251
-19.091538918573352 -120.25261884730483 -7.586061598684453
-22.175710861852117 -134.38073774108284 -7.553367950342919
-22.19944588013504 -134.17875885611082 -7.53817406790281
-19.188102133828256 -120.29139760875802 -7.582445861108059
-22.308120307400095 -134.12108437767435 -7.52671732999372
-22.33574514557462 -133.93639718538674 -7.5122104570692345
-22.299665236867426 -133.79210728241853 -7.504779773585902
-22.265225508298705 -133.78465370558362 -7.506625643292549
-20.024005500141353 -123.02790720288647 -7.591081081099501
-19.32981199869104 -119.78280765186554 -7.568214067721981
-19.561227395162703 -119.6082919002843 -7.555448380282843
-22.68441009196855 -133.12506535264473 -7.600022524164135
-22.660405585011226 -133.03565414310376 -7.59556974405952
-22.91727120005186 -132.87410276622722 -7.576786297494714
-20.7649437799127 -122.7497255205727 -7.557797672978215
-20.54242457016369 -121.82328742966894 -7.551042278203316
-22.97033849286114 -132.83442984076888 -7.572491498539724
-23.005624273618878 -132.77188899873582 -7.567545820920027
-22.947011242068946 -132.70799596131855 -7.565995173082217
-22.95468429871667 -132.38189700044535 -7.547271953765819
-20.79661962879103 -122.40053750737738 -7.550864786884616
-23.040608185450374 -132.68860623400127 -7.561444377395459
-23.202235006793163 -132.094833415671 -7.521937821445264
-23.28379635298977 -132.25529558180614 -7.527934224547147
-23.27806013566129 -132.17999971675886 -7.523905015807066
-23.282650354497186 -132.0873610734357 -7.5185280567663355
-21.056324311618713 -121.83551258044929 -7.531572769620065
-23.372966955929893 -132.13304307939114 -7.517741859129585
-23.36546607663624 -131.95253124226974 -7.50788444942445
-23.408622089878858 -131.90626859752908 -7.503679176498518
-24.02014998104266 -128.03376842077878 -7.58026903063905
-24.06520699479525 -127.93511819958451 -7.576803937095672
-24.26171845747391 -127.56074155701275 -7.5635395909148615
-24.341577449785923 -127.41613863055561 -7.558282432454893
-24.232229363026857 -126.9887394592905 -7.548999519450402
-24.425677602273623 -127.2647058458414 -7.552894686949169
-24.503631279019494 -127.11879700694976 -7.547639822103046
-24.900811218337896 -128.3535682555227 -7.576574948656391
-24.585790489684115 -126.96603401109235 -7.542263854834376
-24.67584023298366 -126.80190117631138 -7.536326930027008
-24.75089995984139 -126.65396991093654 -7.531215630578922
-24.938967869717658 -126.36630315849426 -7.520354145803393
-25.343079285396385 -127.89016762785536 -7.55686624455212
-24.955802350988353 -126.2872753918644 -7.518069534736876
-25.05778148453044 -126.0999836794609 -7.511335175971803
-25.442093387895245 -126.89841158662658 -7.526650009306259
-25.41102882865466 -126.82197920665632 -7.524981829052039
-25.61047671775638 -127.3602992914642 -7.537494757774901
0.7514355115821019 -175.6640810116029 -7.46955835006694
0.8584337907015538 -175.5219329183338 -7.473997052118468
0.6217564067973527 -175.75671435332322 -7.465009300446514
0.6971066959846617 -174.81132872036883 -7.484150971639247
0.2615218971258102 -175.7201078394115 -7.458434344282716
0.35743476435263233 -175.55396876188382 -7.463756216722836
0.6206984215694931 -174.29013187383765 -7.491907411178027
4.716754297913386 -131.1526668191884 -7.435892644410118
4.294586152037667 -131.9340888993212 -7.497274783925306
4.370128163482114 -131.77001040533912 -7.484625824001325
4.441662934426297 -131.11676267306427 -7.435168299843095
4.55255015716304 -130.85809179257058 -7.414608265367612
4.222000410427697 -131.63114291333932 -7.475301044537107
4.266420560854055 -131.54553790128261 -7.468435851079288
4.0781947453645095 -131.72979732017654 -7.483449274207419
3.8518918807819134 -131.4482961566898 -7.463928915593367
3.724764154816711 -131.5449566323842 -7.472204339592988
-6.089988165948268 -170.92412565521562 -7.403538165344301
-6.227479330314784 -170.93597021124188 -7.399230796781047
-7.531113194118719 -164.84368467865974 -7.495098528816614
-7.625563353798002 -164.90217186424738 -7.491463966288595
-3.95495683620352 -123.94900961873023 -7.452065303407656
-4.112371574381692 -123.9933671295439 -7.45060794918004
-8.876036758074154 -135.0210127594899 -7.485109225408753
-7.44102731240806 -116.67677014284985 -7.475764007535821
-7.968644241230008 -117.0059939156236 -7.465183809719795
-8.062139304701317 -116.7349276933961 -7.445758777668581
-8.76633459492409 -118.25687079060063 -7.488306067395375
-10.485686062333182 -119.3531840735736 -7.455654270873668
-17.03064734957579 -142.9021685262622 -7.407158091938793
-17.075441985849164 -142.7832847089618 -7.412577374154799
-17.108173353305038 -142.75126515660244 -7.413239430135213
-17.165874261839637 -142.51908157040165 -7.424912340047517
-17.208310494443175 -142.50815724266005 -7.4239124765073425
-17.269779466628496 -142.32033371509834 -7.432736844262731
