ply
format ascii 1.0
element vertex 816
property float x
property float y
property float z
end_header
-32.92076330123841 -24.645668339054943 -1.0817590640623798
-32.94551368439443 -24.605534267296566 -1.0822865032233464
-32.98937748232221 -24.474633873136355 -1.1727684065703574
-33.230700695104716 -24.366354732443178 -1.1176865379501697
-33.26003905387143 -24.351939247905335 -1.1226186201207358
-33.31552068765549 -24.346942524428947 -1.1362488247774123
-33.35460475607124 -24.2966254282963 -1.136109398909151
-33.417534018342174 -24.238009410042213 -1.1399281193303537
-33.44226983869158 -24.167556802484132 -1.130755387068569
-33.45527795305887 -24.092073955720195 -1.117073898488624
-33.48805229750508 -24.117932035157516 -1.1309177032588846
-33.46964393867736 -24.037404786657497 -1.1079761041605267
-33.4567182957758 -23.959936715567864 -1.1191334632722854
-32.94492179256914 -21.156205626517753 -1.148286375508389
-32.92621152738512 -21.066281387121716 -1.1346582484448755
-32.878937553439926 -20.89986636882491 -1.1085640498796505
-32.88450506142311 -20.850002317802545 -1.1020712067539686
-33.00114068222062 -21.034365873081388 -1.1353927457118203
-32.97191694312424 -20.8975081751032 -1.1145203015801992
-33.01910961478505 -20.89096796845788 -1.1167631558604088
-33.886344974134744 -23.923342384282385 -1.1737663686107773
-33.898259237505556 -23.903533900101415 -1.1709983183318653
-33.93956922008628 -23.882693714122368 -1.1739511600837091
-34.13208735448521 -23.76874252856859 -1.1793913682515424
-34.225828669284596 -23.694078886229043 -1.1741040427366558
-34.2499408060158 -23.597183358277015 -1.1493937508159855
-34.21498291594277 -23.44651492328785 -1.098749034288683
-33.793119197972736 -21.51081819329114 -1.0949241903502425
-33.78954842394722 -21.47224699222848 -1.0878749966563612
-33.84841064581211 -21.4814232625927 -1.0936091483276922
-33.921773583269484 -21.460129705506915 -1.094821469212276
-34.02365235165685 -21.594707134700457 -1.1253959964202682
-33.99550726076109 -21.500760030314815 -1.1068901706376608
-33.99518782812426 -21.440153651889126 -1.0961024804792527
-34.13592626830679 -21.706387381018335 -1.1525396009518696
-34.12493606212707 -21.49903649714596 -1.1147884080877741
-34.24140500981147 -21.55368169031629 -1.1315965907013577
-34.17730449148304 -21.491302919343166 -1.1165928010611899
-34.37839421832038 -21.65126108081982 -1.1569962816740191
-34.313166425055094 -21.568740972816514 -1.1384407015177826
-34.468036921857376 -21.691623567166925 -1.1691459849355335
-34.40152957664349 -21.623185412217985 -1.1531892557653143
-34.773361317793444 -22.56055503189177 -1.1162861477213109
-34.52931628386767 -21.676282604044232 -1.1695375302291544
-34.794392902434225 -22.615592478644544 -1.1315925525142694
-34.7128455434896 -22.124070422440177 -1.1318304366586203
-34.69606205148205 -21.98627753529517 -1.1008497867118305
-34.71059190601865 -21.896220383477186 -1.0819716661667822
-34.95470095686265 -22.647063468523008 -1.1488055101380117
-34.829289643309046 -22.023706863449636 -1.1158678242461644
-34.77080863911287 -21.938534377181313 -1.0943285899183306
-34.9634389759404 -22.08606357346048 -1.135666921003241
-34.92869113970287 -22.012689571147025 -1.1180287777825004
-35.04114719802775 -22.194285515730577 -1.1626797074368005
-35.04183574754237 -22.0669190227133 -1.134612693318914
-35.04112178283639 -22.01131475641877 -1.1223592099954134
-35.14205671607453 -22.17883604771456 -1.163075467604348
-35.14913807172229 -22.059961452251894 -1.1371107739993382
-35.09502756376647 -22.034566205435794 -1.1295294613494038
-35.35384644088497 -22.385542783169736 -1.0971787060247726
-35.272049108103985 -22.115339509065315 -1.1533777535162877
-35.246174795736884 -22.07257304542994 -1.1430999203553818
-35.37613844123886 -22.41055730228942 -1.1042117319020326
-35.3914821641283 -22.363487681092344 -1.0924390049989867
-35.41059185459906 -22.208252757090733 -1.1776158497843463
-35.387387268476225 -22.153481125848145 -1.164963410374149
-35.43480999110263 -22.188977838659643 -1.1739158113282384
-35.606411645388505 -22.462622490274654 -1.1218314573723154
-35.578311442900215 -22.387711264173145 -1.1022109867390437
-35.714024477763346 -22.37535738703957 -1.1002341426654623
-35.65371267400254 -22.304847172842653 -1.081736197999152
-35.80950590697549 -22.355371574281488 -1.0952965526264786
-35.99041636674161 -22.65058690284767 -1.169199979656797
-36.21770440139011 -22.708844865237825 -1.1787801361742307
-36.33411014361638 -22.707867173390152 -1.174659366637715
-36.29101387632686 -22.68416424849362 -1.1702725794963982
-36.412706969790484 -22.72436398322605 -1.175638764469244
-36.35501661505567 -22.680010658783768 -1.1669803601844904
-36.502463500721916 -22.74318759979389 -1.1762631226472617
-36.70165919853078 -23.099779936125003 -1.1449970798921187
-36.72913547536655 -22.91763168734439 -1.0938282677495965
-37.000755054061216 -23.44276318693245 -1.1014781931542326
-36.84248927293555 -22.9724999728067 -1.0989328756892012
-36.83905663564229 -22.836278614648492 -1.179230571109704
-37.03609448206173 -23.43339565188308 -1.093968989893215
-36.984779553503195 -23.099131529843536 -1.1184899738114678
-36.96317427355268 -23.016909091924223 -1.099361852987292
-36.93708913530532 -22.978597190557366 -1.0918593205368894
-37.085293237834605 -23.299863789402917 -1.158379680227796
-37.039618652586064 -23.03567408684127 -1.0965941888789432
-37.20563415052262 -23.194481912563553 -1.1183874939505205
-37.156832536760895 -23.086188424337607 -1.0969915978500726
-37.33867523685191 -23.23091750851349 -1.1113069198768841
-37.28932822630104 -23.19644713552559 -1.1089824449247598
-37.63907279286299 -23.552100721624036 -1.143846221347573
-37.67252421160416 -23.32124411457909 -1.0880185478550017
-37.823793024414286 -23.600434021304817 -1.1262488623377718
-37.80658682884909 -23.49965814400563 -1.1074393628116468
-37.77603271312548 -23.400478918548423 -1.0906575924156694
-37.74391450411143 -23.219020266419445 -1.1791833502416935
-37.82189973205244 -23.142319524067922 -1.1550094638855928
-38.000732130812956 -23.612304186276624 -1.101041264762909
-37.95453914019957 -23.575282500476185 -1.100756846646855
-38.14063930527316 -23.703502994844115 -1.0965604988600441
-38.278167436546894 -23.79167443276371 -1.0902970831952086
-38.385961299171825 -23.849967672670466 -1.0824647871378341
-38.82200174159776 -24.07208381404684 -1.1799055897393274
-38.95264729839419 -24.116758921679082 -1.166128319923991
-38.88988474808129 -24.099632066382327 -1.1734324683966793
-39.04080224209564 -24.198825671073518 -1.1635832624052287
-39.03161880202798 -24.143695149912727 -1.1576235617679527
-39.14152701365485 -24.212406643052773 -1.1496484160598797
-39.29412513633513 -24.286300279085992 -1.1350354002656031
-39.42410016611371 -24.38224257598064 -1.1260766170210028
-39.34622021827608 -24.33093584173611 -1.1322818419962055
-39.51780373500946 -24.44726300487924 -1.11862591961998
-39.62635154800286 -24.53552732799277 -1.1110162355383004
-39.58784789179813 -24.459250655259385 -1.1087223956733054
-39.797643281948204 -24.661778024771788 -1.0965774496730532
-39.73701489328142 -24.603284957316536 -1.100321212212978
-39.9139211463416 -24.718451382095473 -1.083176221142872
-40.78716881000275 -25.187407535722535 -1.1745720111453388
-40.75415737384404 -25.143481906808116 -1.1756359062691328
-40.90252960147753 -25.275172553142944 -1.1657668145539413
-41.28047459657658 -25.500056210591673 -1.131178537659392
-41.39942190698821 -25.571082650872835 -1.120039622674187
-41.37035821647872 -25.53991414120446 -1.121933580109593
-43.23419427201715 -25.74646414861146 -1.167285511914673
-43.30547475542672 -25.70606839338991 -1.1578906806815117
-43.347724008299906 -25.652489364648524 -1.1505120608815342
-43.50875356343018 -25.5423526601672 -1.1280069016750864
-45.23608408577574 -32.91956782444116 -1.1217305087674474
-43.65623187459894 -25.42802054037852 -1.1063563033805959
-45.260307563763284 -32.858190189107134 -1.1205201627821202
-46.125375762100184 -24.415107427825436 -1.1774946717839359
-46.2218141899516 -24.308762256141694 -1.1638968312393587
-46.32806394807312 -24.219405618388176 -1.1507698877275017
-46.40092939091128 -24.153315328381243 -1.1415056336611182
-46.47278839592089 -24.06745195714417 -1.130734328840501
-46.543794345679544 -23.999889593730746 -1.1214165022865603
-46.63016992536815 -23.92926483759488 -1.110768256411856
-46.71217546079453 -23.85821746091749 -1.1003284836593257
-46.73158635148487 -23.814739369375378 -1.0959794540796524
-47.18127974608544 -25.426147630979173 -1.1809267638645227
-47.19453640539916 -25.385785359903807 -1.1776673610434114
-46.78441091580333 -23.76619070549982 -1.088924743974832
-47.272017962301675 -25.323305821025368 -1.1687963520778633
-47.36978492688518 -25.21553992014989 -1.1558518923466723
-47.45050716285361 -25.129450756477603 -1.1452250067754548
-47.07203843934562 -12.776486274563894 -1.1273913201680794
-47.635844180849816 -13.14741100656153 -1.1607123041976943
-47.9087478603299 -13.378671320891844 -1.180383985893585
-47.84141754926404 -13.27604328149636 -1.1722603592625371
-47.89473573626485 -13.307310372875738 -1.1750933336451688
-56.33728505703731 -52.8463968586571 -1.1440200605372626
-56.374498424566056 -52.69886712607455 -1.144516443909944
-56.44969991636827 -52.60238836115204 -1.1426333314976733
-56.624088494183184 -52.63591234370488 -1.137955685331978
-56.796815710853394 -52.66520204763392 -1.1323906993477086
-56.98197219095243 -52.70447362764358 -1.1273131422410745
-57.12747183829283 -52.69306299724506 -1.1227286122594886
-10.636455359627305 -13.751202725761482 -0.9916919618588753
-10.885549984561916 -13.976390893281371 -1.005983331216034
-22.637583478022883 -28.91631224504039 -1.0248978731619625
-22.66660912284169 -28.86029623638386 -1.0247492615408993
-22.754567120457832 -28.792767836400806 -1.0293007469505568
-22.775231484194986 -28.74316008455704 -1.02873682736823
-22.846953342654793 -28.588980382774572 -1.0282949144941145
-22.917382299023984 -28.61801104070593 -1.0350923379869101
-23.1632385356352 -28.333089188143067 -1.0432174607750409
-23.268010888163204 -28.39946621062395 -1.0546387875614769
-23.351523756222043 -28.424392318886426 -1.0623486175463734
-23.38106611529612 -28.329307083373166 -1.0607042571610386
-24.102904611290068 -26.096628259809563 -1.0142370961758844
-24.238139029113576 -25.89407086197154 -1.0148817949161806
-25.540215669834573 -23.744426963619556 -0.9955259412754176
-25.520285192952933 -23.63489881151657 -0.9867088290638837
-25.664092182038914 -23.434887590755913 -0.98512715502224
-25.669857397927366 -23.40054096742732 -0.9834124021074697
-27.924090506955743 -25.59593464366246 -1.04214275496087
-27.912098723450335 -25.42879228003795 -1.0312645634297195
-27.979100811394698 -25.493934000320724 -1.042951640789623
-27.96491936893969 -25.391272611996662 -1.0354099969244113
-28.067959670574126 -25.63437565333276 -1.061252674217592
-28.367284868043214 -25.206244736967236 -1.0721058416379405
-28.274462575056237 -25.16411672540707 -1.0586246075508652
-34.32170189717978 -54.20563567831472 -1.0452028528123674
-26.796227093246898 -17.342049753953763 -0.9888417180557887
-35.086792948259664 -56.84172325616282 -0.993132740190215
-34.61129771719454 -54.43123195610541 -1.048602980403259
-27.109625213240655 -17.80788597410467 -1.0343819081934043
-27.348792415746637 -18.188456818543266 -1.0710333951324134
-27.127181671439075 -17.493881696347685 -1.0131469068043917
-34.81747041269469 -54.04636477712755 -1.0669739392378577
-34.918255844136716 -53.92838076176828 -1.0738028742286383
-35.01793481472431 -53.837964754535975 -1.0798091249768507
-35.401440343529586 -54.8263480484859 -1.062953328372132
-36.19330418087762 -58.295703242853946 -0.9844722563051014
-36.06951154337368 -57.79447682031706 -0.9956626518209657
-29.52732772156579 -25.367120336699525 -1.0106935121925826
-29.472223979769748 -25.271730463944582 -0.9962840481275446
-29.466090868158773 -25.179030225261183 -0.9894524964509366
-36.30523751384696 -58.33082714114991 -0.9867642294074692
-29.566991052780068 -25.216791464356515 -1.0074669993863787
-29.55278652126585 -25.195379766275614 -1.003826667463356
-35.70311024081591 -55.01091071823462 -1.0668867989753335
-29.657245600101064 -25.322160184387133 -1.0279506647635779
-30.251363181965885 -27.485027673551446 -1.0037479828406612
-36.505642429168205 -57.616672276968345 -1.0136741986265003
-36.73677691764827 -57.81205745168427 -1.0144469289477445
-36.59789153451357 -57.12128163498388 -1.0308954548743312
-36.8635788157522 -58.14684867824768 -1.0080510473522768
-36.32828459125739 -55.5361932235134 -1.0700196411549705
-36.968261146851624 -58.025911486160155 -1.0145456544194282
-37.0761830159594 -57.97254243380161 -1.0190136077953855
-37.16721763865318 -57.58129138376742 -1.0330421554985323
-31.138232916321762 -27.84186510192775 -0.9857132096552288
-37.273382833082984 -57.51125557114382 -1.03788464712599
-31.211627005393233 -27.82148996514003 -1.001403281702595
-37.37691868199236 -57.47497708434106 -1.0417202771091187
-31.29720379152363 -27.886531008600684 -1.0166791367028793
-37.482355089546424 -57.4543177721637 -1.0450230794977262
-31.43474716540728 -27.827146593061745 -1.046715781549437
-37.59465482698616 -57.4688348249303 -1.0475292977493122
-37.70580343056449 -57.459062392636454 -1.050592158066991
-37.81660989098461 -57.41477615820413 -1.0547188172745128
-31.86531842510633 -27.82743929264399 -0.9813263711144773
-37.9237239021705 -57.33634807960448 -1.0596252109729414
-31.950436485748227 -27.943486970728962 -0.9929006757596712
-31.91504134463198 -27.829928209713792 -0.9925187457156004
-38.02758081193457 -57.24969125981369 -1.0647516771947152
-32.12158293548513 -28.117947967733212 -1.0175468535893475
-32.04068975126482 -28.036734964609256 -1.0062106933572874
-38.14377805514508 -57.312144531570596 -1.0656793088313485
-32.17324790076474 -28.095652989279806 -1.0305300855315584
-32.198319879214715 -27.955240891520404 -1.0471248468190797
-32.159792498929534 -27.918918275503227 -1.041365860817715
-38.26200815294635 -57.390024675996145 -1.066265086272881
-32.4575986300242 -28.96461555188713 -1.0018885462901914
-32.42527865885105 -28.895655889534694 -1.003635001335598
-32.47796358560677 -28.770860442503277 -1.0274184960970183
-32.34196404382894 -28.163303948456452 -1.0608007301622253
-32.24653760879106 -28.072709776302034 -1.0482381274443742
-32.248342117454094 -27.960181642162492 -1.0576916859441645
-32.19311767818391 -27.84226360949077 -1.0544218767231488
-32.208304015502506 -27.815989034416166 -1.0596972000085467
-38.38425428823305 -57.51139336460862 -1.065541913598377
-32.706815594049424 -29.444608157095246 -0.9871185693957298
-32.52399513916883 -28.647117857191166 -1.0497052060719199
-32.415968813926845 -28.280677486906036 -1.0654372616440344
-32.36323553871608 -28.172202072268732 -1.0644717231278173
-32.36495505821712 -27.996029924492817 -1.0800568310714722
-38.50409824745103 -57.620480768246566 -1.0651856239002193
-32.77299639672196 -29.49026872944887 -0.9920401362318079
-32.71578664038029 -29.376202202402077 -0.9974371046112485
-32.641035765592996 -29.039060140961062 -1.0265010329298787
-32.63710304691096 -28.57653738651139 -1.0790155761361506
-32.584181289499945 -28.49243370435757 -1.0778661834645802
-32.51294355286823 -28.34997140975194 -1.0784022714427965
-32.50059637870925 -27.88494963363464 -0.9828498041715323
-32.49934601518641 -27.87053029002712 -0.9840473248180868
-32.813725579983085 -29.0581934551509 -1.0543452144771037
-32.79529383686983 -29.009251034721117 -1.0572389555774069
-32.79603612350532 -28.867150921394057 -1.0747555062794873
-32.6135920918207 -28.112902408832827 -0.9842368549797771
-32.56442923086176 -28.013740612908762 -0.9842004681926049
-32.53069340319948 -27.893291479497005 -0.9893069741376006
-32.765581937739185 -28.356452096754552 -0.9879571142961545
-32.74334857664234 -28.10768416936891 -1.0148982285752655
-32.69882187140253 -27.996539169492404 -1.0179414666162843
-32.81662705555944 -28.28412448145434 -1.008764744073175
-32.78005152740266 -28.072996275517514 -1.0275562527009168
-32.778578931808475 -27.990453108933703 -1.0372665001958163
-32.95187421451451 -28.20452055690663 -1.048965241202349
-32.91101361569783 -28.16783302919004 -1.044886530203033
-32.88611349239081 -28.054645504005897 -1.0539675127843824
-32.99906686476662 -28.206592180581616 -1.0589005102669797
-32.9686961990249 -28.039831463793515 -1.0744017475618373
-32.80715901126349 -24.778654632208216 -1.0691320242634683
-32.83336504655894 -24.737717894403016 -1.0708039487015788
-32.925359226501094 -24.589527867692585 -1.0739805372270357
-32.95252029994047 -24.558214527642402 -1.0764642360116659
-32.95144072694835 -24.50722251876958 -1.0675686579775738
-32.591812692630825 -20.549511988756063 -1.0407115341977935
-32.520435835636 -20.46243443514564 -1.0238579378855108
-33.46676606132714 -21.17319943027209 -1.0120062936553496
-33.404343242353185 -21.07171587318384 -0.9896646400378337
-33.364266191924884 -21.044269176720718 -0.9818399483484943
-33.62280001450799 -21.456963544960402 -1.0731032186457963
-33.620971302955695 -21.390573649909292 -1.0613960603094863
-33.476886716671395 -21.153835537231828 -1.0094155334746557
-33.671263941654296 -21.36895298768744 -1.0612919312567295
-33.63899380437055 -21.287967597033592 -1.0447743498907713
-33.8108682834764 -21.424168018349466 -1.080900523343483
-33.8483641088338 -21.39076400438351 -1.0775835790650854
-34.147039690834994 -21.62319477586086 -0.9873496228306351
-34.23189565867956 -21.58376573809995 -0.9849126814239446
-34.36060927241372 -21.69472733373971 -1.017476030135122
-34.351526898197626 -21.658222473158098 -1.0089902256335437
-34.28851700114196 -21.588073609956147 -0.9897206156183975
-34.443470566968415 -21.706489177399508 -1.0252981967004589
-34.62203087902495 -21.887509105777923 -1.075223931158691
-34.558221998400136 -21.81055737580774 -1.0548164682422219
-34.726016071823246 -21.869658481433152 -1.076973110633956
-34.93797457199655 -22.038942784795548 -0.9921121214970647
-35.02682582953231 -22.092729041354847 -1.010012609567173
-35.04008500973369 -22.031424372833385 -0.9947882946529818
-35.19797565009329 -22.18546341411431 -1.0406947292613988
-35.125884621664035 -22.078129326474215 -1.0103243949891239
-35.27118576206065 -22.169821108172417 -1.0391128285785847
-35.38314151425995 -22.219072880627724 -1.0549642165390527
-35.506727904264544 -22.280574066568036 -1.0735095654829614
-35.45358817239983 -22.234938165919743 -1.060722980750732
-35.58008631967876 -22.398569585066987 -0.9850294157996973
-35.550119040594744 -22.29436773328772 -1.0777789704917238
-35.78736487653133 -22.529607152358484 -1.0241816499206067
-35.72085369753387 -22.448502065682256 -1.000516286774187
-35.73549340327666 -22.417188118486774 -0.9913300182020128
-35.82790714495335 -22.536703707335345 -1.0259598153994582
-35.824577125380245 -22.474090607106703 -1.00761407669743
-35.96360364373698 -22.58864674176221 -1.0392643972327673
-35.936809573063236 -22.53399029833902 -1.023745007273103
-35.922423509708224 -22.48380601307533 -1.0093946988372977
-36.07652256585513 -22.572744727901764 -1.0320429073962274
-36.08772729980561 -22.5487026270778 -1.0247829426425352
-36.0709481944369 -22.453441545479404 -0.9976689354011112
-36.20913942246517 -22.650307496532626 -1.05004918768705
-36.16157693652052 -22.619078769318264 -1.0427695654748763
-36.13785253587 -22.506070943564392 -1.0110382052233549
-36.282117486521315 -22.664002922358225 -1.0509595339033346
-36.4174310128254 -22.744851519931643 -1.067146450412906
-36.34368101697317 -22.691876256176823 -1.0560827395613734
-36.505258283115566 -22.788749863846114 -1.0743856174812123
-36.658434209998994 -22.80955465984177 -1.0698533626895546
-36.733053627070056 -22.864039575272965 -1.0789773371283902
-36.88339950289091 -23.016257531736976 -0.9934803028663621
-36.8756301082399 -22.982822158917653 -0.9844109985065752
-36.789849168159776 -22.87049278084529 -1.0762121413492256
-37.005931314368716 -23.105050957999914 -1.0050955244628925
-36.91658522435811 -23.00123052607831 -0.9853243654819328
-37.10044768261391 -23.068683585542757 -0.9828475955031608
-37.22887200537154 -23.172817351759342 -0.9949821716935559
-37.187482583725036 -23.120818334737972 -0.9862196927465097
-37.13182755886779 -22.99434382751246 -1.0764660546975502
-37.12045441305824 -22.851551968419432 -1.0410263163342914
-37.303227479815206 -23.199191210776597 -0.9917442952752764
-37.20279275956133 -22.91171942119277 -1.0479411026918641
-37.350333872925404 -23.016495678871365 -1.05771260763989
-37.71479893365414 -23.578824484009488 -1.0219790136767035
-37.705797754105355 -23.507594297665968 -1.0064690333134119
-37.699075523634164 -23.434027435022386 -0.9897347294875338
-37.64178516863324 -23.264205526907418 -1.0793854253594293
-37.74623952262749 -23.45073286015068 -0.9856062807622188
-37.91794551512097 -23.653981205692816 -1.0024641568360377
-37.99186278561848 -23.65025005451137 -0.9876759231115231
-38.16440812528278 -23.565008449164846 -1.0653408907857482
-38.494869239297806 -23.915463718069663 -1.0748758027286507
-38.43996766877176 -23.88894495732187 -1.0799296761110093
-38.60714529951269 -23.982121023240328 -1.0661893716232138
-38.555059882866516 -23.953455568117583 -1.0707217290798994
-38.69523525233791 -24.024099990882235 -1.057098810664536
-38.79737229440869 -24.086263233273186 -1.0482639253894759
-38.90006694059785 -24.09698515785848 -1.0308281605889118
-39.06413304003773 -24.198786080874623 -1.0152396528179841
-39.03873046258751 -24.149569327691196 -1.0127894672616302
-39.118841872787634 -24.22177150659884 -1.0082153818014155
-39.270179653298534 -24.295669352038928 -0.9895425583981521
-39.208829860296014 -24.23463745244828 -0.9927999003592545
-39.3355636251438 -24.357845519284798 -0.9853317246982036
-40.005681470229405 -24.750652910629665 -1.0712503946933711
-39.937306944766746 -24.665773732316776 -1.0740341401647786
-40.102507613709314 -24.824928279050052 -1.062398240916132
-40.03726410080911 -24.777151520087536 -1.0686623553773422
-40.26261291279858 -24.91124009874534 -1.0438327165227228
-40.21614960512493 -24.86710755793296 -1.0474668944894532
-40.369582113585565 -24.965726184918186 -1.0308695386775466
-40.42483186295817 -24.99402314591122 -1.0241162935784822
-40.51147360725685 -25.03851671237328 -1.0134216431669716
-40.75076189189099 -25.200184138100546 -0.9864092212964217
-40.743480030477194 -25.145518254850078 -0.9833392332004747
-38.382321325028336 -13.333504316484923 -1.036182681382157
-38.44194008927228 -13.465377989950886 -1.0475782544283836
-38.43142801518837 -13.322917384483842 -1.0363799801617757
-38.586909482755125 -13.069846207222197 -1.019940168038943
-38.65427059653217 -12.982097113455989 -1.0144795550255368
-38.753902510332765 -12.783271578800715 -1.0011308025524353
-38.87059219793197 -12.702774572812158 -0.9972275846841683
-38.82616947684531 -12.693002209307549 -0.9955654936773808
-38.94164721085247 -12.61663817281895 -0.9919521943159428
-39.1248367489217 -12.489506512802363 -0.9857568902621647
-42.92768174482891 -29.55682592803619 -1.011467005634843
-42.97286942287078 -29.496824179543772 -1.0068808049175602
-42.304174185498695 -26.03677627692822 -1.0272151318247411
-43.05950114182685 -29.426388319452474 -0.9975113609369322
-43.15371766242248 -29.374158356430794 -0.9869820778269003
-42.5884511513157 -26.142190922034626 -0.9951807484932733
-42.575064917167424 -26.091187084221755 -0.994335372610847
-52.025972479980425 -67.150235253134 -1.0062714722838992
-52.20364732068568 -67.17347714778214 -1.005283603655574
-52.5321848234948 -67.5665501589953 -0.9950509385055684
-43.83464893679311 -25.277082718634645 -1.079170946361776
-52.43026167704177 -66.91662268959618 -1.00880263068318
-43.92097185233304 -25.245132022896186 -1.0685488607256441
-43.94477193069992 -25.200346547560418 -1.063241554993426
-52.5386916462883 -66.78072573067504 -1.0101493604424812
-44.05013946499007 -25.12053591398725 -1.0474902811390066
-44.13785930617618 -25.055270579531914 -1.0344397503984002
-52.770542963359986 -66.9307072102809 -1.006161382998091
-44.2371253819696 -24.989952552894657 -1.020208414571844
-52.414523902655745 -64.57904591738921 -1.0531194199442924
-52.9557092359271 -66.96963973137687 -1.0035160798842024
-52.49920731938286 -64.4064455473221 -1.0550642063326712
-52.5812457930156 -64.23660705346906 -1.057947028030276
-53.399077640084165 -67.61518738717052 -0.9884549623258028
-53.381578720973664 -67.18289129654093 -0.9961478985616747
-52.77852644133886 -64.32360082945546 -1.0540389227044715
-52.967878182760074 -64.38286156317459 -1.0516913079017083
-53.44776652992199 -65.07829186565318 -1.0340199235338507
-53.553137384284945 -64.96376990358142 -1.0355045831521896
-53.5620274860469 -64.64005816757742 -1.0406010887363182
-53.62300972361551 -64.41719240050793 -1.0443938615466477
-53.791518739243486 -64.42607556172452 -1.0418938683328163
-53.92932175856801 -64.37587698999293 -1.0417373459540311
-54.15014081381277 -64.49604170178213 -1.0366157302500376
-54.11539944181937 -63.745605886857575 -1.049755947348353
-54.258374058922115 -64.37463457923553 -1.0379448278265695
-54.25818217892318 -63.70855999003433 -1.0491324050611421
-54.65294323298238 -64.17545592187825 -1.0358884152722962
-54.873008759189275 -64.28645140622207 -1.0317545981582108
-55.006609265863005 -64.22331618153855 -1.0304896424409082
-46.85680118395577 -23.71469504343648 -1.08071924762495
-46.903346962336336 -23.66666956286161 -1.07405424683856
-55.312633016163005 -64.48911785946952 -1.0226254277338058
-46.97103222443874 -23.612874127825307 -1.06594190169921
-46.96389958993744 -23.57204625875677 -1.063063825192785
-55.521290922804596 -64.56160232301431 -1.0180747067334182
-55.621726581105975 -64.42377683582174 -1.0194083657025392
-44.80685266108317 -11.222276628645222 -0.9835795279168458
-45.16068838890476 -11.442903030118028 -1.0049762076128788
-45.19963454976362 -11.486838841774189 -1.0087669274969184
-56.516951565227245 -65.8013258403988 -0.9843956309564388
-56.61613409199337 -65.66749916957143 -0.9855831815455351
-56.4903296481081 -65.10926914918181 -0.9955061700523553
-56.88136163571481 -65.16422339821726 -0.9887393521588235
-56.90054050828653 -64.58139266336438 -0.9970980187487575
-57.121756172083956 -65.29267540506675 -0.9835953490259941
-57.20988089741269 -64.82594335863935 -0.9890483722670835
-57.28155022287723 -64.63928005913318 -0.9900263342941913
-57.29962872651409 -64.34672624103749 -0.994521721043159
-57.45702464255959 -64.3055899688867 -0.9918774816685385
-58.686555064254975 -20.930792413780914 -0.9830061228620584
-58.80085010802824 -20.992924580790493 -0.9842970121127887
-58.91795506008152 -21.09753642768243 -0.9890132885427549
-59.049690918656424 -21.19660444401945 -0.9929377867037019
-9.129692195330758 -12.91378756221051 -0.9289408121493103
-9.188218039524124 -12.829972294171737 -0.9259782841192554
-31.20851831575928 -55.227628495845714 -0.8913933196600532
-31.12939989297416 -54.37576806581596 -0.9122821533150005
-31.23667412938925 -54.32288991152381 -0.9186190495984996
-25.234860816243724 -23.740442527054796 -0.9702329497447331
-25.231368582230978 -23.632398507993642 -0.962769035082139
-31.651456519802956 -54.23119682621261 -0.9395305760284756
-31.741835051677374 -54.33168111508951 -0.9405269719865577
-25.48647463417702 -23.557425594545872 -0.9788210596876259
-25.44068456166349 -23.457847407133823 -0.9683850825765516
-31.834886697694976 -54.3998434862275 -0.9425739751295237
-25.483725430063767 -23.503297495772685 -0.9750656388082075
-25.524164737580477 -23.439801877653093 -0.9741355767686477
-31.93228129929919 -54.4299717861813 -0.9458384767697103
-25.635108187929745 -23.33927741658558 -0.9763782856954712
-25.602998493780824 -23.226243996019836 -0.9660898284248121
-25.589539603863738 -23.13275392077025 -0.95853780440404
-32.11973254339885 -54.52854052575729 -0.9508905937057566
-32.02357463291602 -54.49722128527898 -0.9477739713628661
-25.64310972644712 -23.288597968050375 -0.973542007910281
-25.627183608218512 -23.178468571588564 -0.9648614393652928
-25.69316211814402 -23.08631445785514 -0.9638857649301791
-32.85574680757292 -57.89101885918649 -0.8823968671004898
-32.21706505796201 -54.56964362868498 -0.9537788102745324
-25.744096384116997 -23.099981636183657 -0.9688537527999486
-25.734133339560643 -22.989004753929066 -0.9603843101008211
-25.812558052245713 -22.93952548430643 -0.963377126721221
-32.638050056390924 -55.41035301834546 -0.9464366125061523
-32.83611922667557 -55.5305360521986 -0.9507932992641106
-32.76424730523428 -55.16496904697965 -0.9586682901748329
-33.50745893314 -58.21464968263504 -0.8975728621203234
-25.592599696071975 -16.785028414085147 -0.8994531844497806
-34.30352253632214 -57.717623254765996 -0.9408353810801922
-34.117184871145255 -56.79824229976576 -0.9614473203170995
-34.038237834274845 -56.122515917875646 -0.9785548947202769
-34.45003337855267 -56.54041797424935 -0.9806747931306399
-26.34309707948966 -16.964745630805655 -0.9434421545196219
-26.75437161600793 -17.244882468824557 -0.9801950544152813
-26.767885309258453 -17.199528369141763 -0.9776824816370127
-35.5176900058567 -58.46864499806797 -0.9587619440489319
-35.626774510455256 -58.156237244826386 -0.9714585265735882
-35.99526805680419 -59.899348691017224 -0.931113416463274
-35.851706827474715 -58.21401154088912 -0.9766744738267474
-29.218450986615284 -25.451874106311088 -0.9682341657043505
-29.298951413008247 -25.41125245639732 -0.9782271689557753
-29.22497353780522 -25.23671820968967 -0.9561281698390334
-29.424086327813367 -25.144515568271434 -0.9807406723084171
-29.381389522516358 -25.088790049578353 -0.970549530362196
-30.05448705839316 -27.578567153568706 -0.9682675393463578
-30.735028647321975 -28.09613944631863 -0.894963669253193
-30.687826964364643 -27.797453384936375 -0.8934566617897532
-30.674067703036865 -27.512957626306317 -0.896082997542887
-30.767424931941378 -27.740155038245277 -0.9114202335277772
-30.71759430664121 -27.495114195279697 -0.905546805172752
-30.924091851237627 -27.85841771997761 -0.9410842353802664
-30.931718612970826 -27.777946729310088 -0.9448412396915806
-30.916919938069263 -27.651699919081725 -0.9447493741631732
-30.86228722238517 -27.482358025175586 -0.9364530947350362
-30.83052113183234 -27.358513219510616 -0.9316672349411879
-30.987409018421292 -27.707161550689065 -0.958218972653897
-30.95506914762485 -27.597192929292273 -0.9539090819643516
-30.926121530194653 -27.313366954231018 -0.9527275839118752
-31.090588960805793 -27.839111075641284 -0.9760000820578278
-31.04116003054385 -27.6693213229002 -0.9703772163109721
-31.770230984145854 -30.139588133795904 -0.948781707082075
-29.45551080616702 -18.78239808188291 -0.8817329416260133
-29.646205837262055 -19.276843121981585 -0.9422085121419435
-31.677304228369245 -27.893400724354887 -0.9340340220243339
-29.876581599284886 -19.086383804896403 -0.9380971811713061
-31.72791130417634 -27.862121278714508 -0.9476044751195964
-29.94299995737475 -19.12147592350523 -0.9456477877369971
-29.96428111183178 -19.101090973092074 -0.9450155702016649
-31.858077111538876 -27.93569616413303 -0.9726067003131451
-31.845888988922503 -27.868763848694574 -0.9742199359001331
-30.090574223965515 -19.16173675759828 -0.9588527997199157
-29.99851953792021 -19.096014426003272 -0.9465758535614521
-32.368164583089225 -29.46096473174464 -0.9271435081459587
-32.36618903760654 -29.43675128240342 -0.9297323619637536
-32.51239645022103 -29.53431954102554 -0.9429980257766404
-32.43873287516128 -29.396981682100215 -0.9473495963604655
-32.407875607297434 -29.2924411232513 -0.954525893503964
-32.44145389747966 -29.20056895899728 -0.9714889456251394
-32.12795227550589 -27.96935299541309 -0.8819111802856587
-32.178448287345596 -27.89883328087723 -0.9013426131211759
-32.086320964536846 -27.789257040627078 -0.8878244224824348
-32.59090281012678 -29.701286649683016 -0.9346501419184154
-32.623414706872126 -29.623471316651997 -0.9501417961104666
-32.53813645459702 -29.54252514780866 -0.9463249941885121
-32.60074914510709 -29.48396371113164 -0.9643477595476451
-32.31685982238457 -28.171269356249464 -0.9073883602161343
-32.25510476550006 -27.943171523706823 -0.916279182416458
-32.23242987067547 -27.763698108769958 -0.9275865566231591
-32.253093981180676 -27.701749680584843 -0.9384188264691014
-32.21576172134805 -27.542148842397886 -0.9420217681730081
-32.73318348883955 -29.729138479953427 -0.9539105975317563
-32.722697335696864 -29.65377626058733 -0.9622995888983901
-32.66643616163415 -29.502527473292457 -0.9729415447981951
-32.659187411185755 -29.429590740089075 -0.9811132791020536
-32.41499980019557 -28.213506849281625 -0.9259301987275086
-32.347137501244916 -28.075747178585853 -0.9251494529528321
-32.36030213939542 -27.946721879333136 -0.9419791852999182
-32.37589818974451 -27.893045889795932 -0.9513141180592011
-32.34156452952427 -27.719926540696083 -0.95941936446608
-32.32014285820395 -27.687667193935706 -0.9568724553422103
-32.23695872968259 -27.54382789958697 -0.9474704543358115
-32.7783743956998 -29.72119042298684 -0.9621204522907436
-32.76189289351948 -29.61391026353604 -0.9738781055889689
-32.58239597489954 -28.715623521581414 -0.8995953144067752
-32.61148612445257 -28.63105464199808 -0.9174345429035393
-32.500581020185614 -28.19111502061388 -0.9486523538052316
-32.460031076972186 -28.033983312119286 -0.9569510696634198
-32.42319461208365 -27.91436465660885 -0.9608033420260751
-32.41674260792672 -27.8863852351321 -0.9620939387548626
-32.84191710380998 -29.06250338228256 -0.9015167563799174
-32.55657589242233 -28.06278108190947 -0.9767495552047294
-32.52348981421059 -27.964478279453722 -0.9798745882355417
-32.885854651005644 -29.052918108452207 -0.9114488350077081
-31.879786724841512 -23.842071811311225 -0.9508266744375045
-31.822138864960447 -23.80744646958523 -0.933866633246186
-31.88959006325277 -23.831593665041666 -0.9512515242325483
-31.900950055923115 -23.75627812612771 -0.9423593214981731
-31.944017527121478 -23.705867060716123 -0.9434351556157528
-31.97787454190336 -23.70890785193394 -0.9507699086133321
-32.76565891290932 -20.793656448613138 -0.8901648668564739
-32.73692415220891 -20.780171170295027 -0.8854356777630104
-32.81690646529553 -20.80847604237722 -0.8970639941976302
-33.590077062906616 -21.340729405486538 -0.8827647546674817
-33.697885846434026 -21.417236224452715 -0.9080890704708398
-33.71952234068269 -21.3661336346567 -0.8992377381489851
-33.832103965645715 -21.483815221932858 -0.9333337175778382
-33.767409151259024 -21.338990912552433 -0.8975340959055875
-33.956748065525474 -21.562986967410136 -0.9600895214315381
-33.88176296845253 -21.43989570155828 -0.9281137600226896
-33.985664839373264 -21.496833580220432 -0.9483154516975825
-33.9916504012092 -21.430729039348453 -0.9347538616581168
-34.14259616905649 -21.574945306059007 -0.9767067879733655
-34.07697532247473 -21.520519259353204 -0.960283873123023
-34.191129528991866 -21.56704048783616 -0.9784976703826991
-34.59933258776852 -21.805233556759013 -0.9133336378374033
-34.532534422542255 -21.721048358495445 -0.8876006068011237
-34.75820490504271 -21.976875082476827 -0.9667275457326585
-34.69676386446324 -21.86472714856323 -0.9345124671465901
-34.678953553913 -21.78857299922402 -0.9140609261274324
-34.80875967551171 -21.96659233246232 -0.9669335267166339
-34.90212784573631 -21.986171567767343 -0.9768354692261498
-35.13306916171139 -22.088097023859977 -0.8812908303667102
-35.26998492939851 -22.116294279203277 -0.8947211304199034
-35.28136908167746 -22.095643792465523 -0.8890328754951691
-35.3615766958252 -22.20047666134496 -0.9223638740750111
-35.34355744077683 -22.18440256255727 -0.9171107601047488
-35.30615325490957 -22.100698397417794 -0.8913050663857374
-35.51802484595977 -22.282700639217563 -0.9499941916742278
-35.4618366359366 -22.22649349168258 -0.9323864582404677
-35.421526756212096 -22.164003735079955 -0.9130781847356044
-35.5701224509009 -22.382664797047486 -0.9802097296956016
-35.60371936090761 -22.309843304523366 -0.9590641487406459
-35.72527394331223 -22.361253119984184 -0.9748502885810542
-35.67190796671194 -22.263998094500412 -0.946105262181882
-35.98954158478699 -22.58239912054358 -0.9195997610651112
-35.94035949108162 -22.523590686977613 -0.9014926702568415
-35.945419945810386 -22.38625253854619 -0.9806321319562814
-35.96312884650477 -22.354256821880032 -0.9710121326179131
-36.08707069674559 -22.588961869524187 -0.9185927122554431
-36.03625871246145 -22.547246286937902 -0.9066873953259142
-36.0123298269057 -22.37498723057469 -0.9761746156197657
-35.99151863530572 -22.331999152325604 -0.9640526908417939
-36.21480619922391 -22.67982464594404 -0.9426270205894176
-36.15280909291513 -22.622249840234854 -0.9268442380463158
-36.34392315994361 -22.735770770581066 -0.9535346518328958
-36.29107258134255 -22.68789342581359 -0.9412811465202864
-36.37710692032949 -22.752962934658605 -0.9569318255172876
-36.34788004615786 -22.658978422633922 -0.9287728764918475
-36.365811731837304 -22.572759529234624 -0.900156117780686
-36.53610769659407 -22.820623662930487 -0.9669134272607207
-36.49399622489191 -22.756939783824297 -0.9501342219229745
-36.63522631980052 -22.856826432463475 -0.9699227230382303
-36.610405745997106 -22.852127744611014 -0.9705973606757914
-36.7575862147422 -22.895867941717935 -0.9705291770821345
-36.683361899927526 -22.805374244825924 -0.9498224531856798
-36.83322346330545 -22.94489382669381 -0.9776199074348075
-36.98638766176741 -23.00944689618783 -0.9796980146360377
-36.950417206791755 -22.965672013846632 -0.971029398133842
-37.153388744546966 -23.08622347836383 -0.9810064879558276
-37.391593641735625 -23.177231672378344 -0.9728864480502568
-37.8698390372272 -23.506043602941155 -0.9768392601775127
-38.017916484616464 -23.621973184704395 -0.9764038437358913
-37.9832373454399 -23.48874988596295 -0.952152184840722
-38.14238613572561 -23.698910158264358 -0.9694748281096117
-38.083616075990825 -23.645544140475064 -0.9691332788929063
-38.26846922120902 -23.78922468909392 -0.9636342914701661
-38.23154610401342 -23.729210588666675 -0.9584530735471708
-38.34915991129379 -23.82373085890825 -0.9543934560626108
-38.52401298198966 -23.92245445711562 -0.9375465352536827
-38.42990691622965 -23.875045417345866 -0.9479527934742191
-38.61862299558431 -23.998993515740956 -0.9317478935089971
-38.579954723552206 -23.949261439374514 -0.9308009987259578
-38.66751927133885 -24.01053541298018 -0.9233708712603892
-38.81287929892135 -24.1068451202209 -0.9087242772605737
-38.807784030367145 -24.030495972848303 -0.8965810592090435
-38.89928313548624 -24.15550758058692 -0.8979084841284899
-38.86990005400367 -24.068611189673238 -0.88968619224566
-39.41584445605036 -24.378843064760506 -0.9724295826216172
-39.47910748576013 -24.44405230075419 -0.9684724729680798
-39.617236121299165 -24.562202488782997 -0.9557482468823861
-39.56600889852121 -24.48973969512672 -0.9570834613440282
-39.7353686572938 -24.609890937669807 -0.9378676375423924
-39.852896603170095 -24.683649039669223 -0.9227432376721381
-39.84261235319181 -24.59647045337808 -0.915027415869355
-40.01255933385722 -24.759109209310942 -0.8989115200018432
-39.93024404514876 -24.7248075746499 -0.9117275030992238
-40.13389225058184 -24.83844937614237 -0.8826478119289161
-40.056812003722946 -24.783436236241407 -0.8925571829425969
-41.000724432228985 -25.33894635997798 -0.9548309208300623
-43.3182791996875 -29.352453697494322 -0.9677605439978356
-43.35732817490533 -29.306305940971313 -0.9633716058566368
-43.55054101812386 -29.22621834492799 -0.9408704313436322
-52.467088474560114 -72.36811061711535 -0.8996733408746342
-43.62923836434186 -29.195132573584875 -0.9315658714339925
-43.653759140480645 -29.155704133867822 -0.9286628948763933
-43.68398768091611 -29.117603883059765 -0.9250517667161922
-43.07696759544582 -25.874972755224253 -0.9162515088294423
-43.792395712260394 -29.095254327538637 -0.9120887653666043
-43.195093611535455 -25.79997716964146 -0.8962790415202619
-52.697725449349626 -72.01004156850766 -0.906219797536189
-43.89033280395857 -29.03379890552477 -0.900314006116248
-44.00579237362692 -29.01226753440727 -0.8863244469809288
-52.88690409898355 -72.03303413546774 -0.9044423563050277
-52.99864289999336 -71.84093778979584 -0.9084403084284314
-53.18452357487119 -71.84467191592647 -0.9069582280220121
-45.45713845620333 -25.082601281865426 -0.9087290655422977
-43.26230608032541 -10.18243157394326 -0.8821134399504611
-43.30422259348329 -10.233044165023996 -0.8865929952298639
-43.45629895164229 -10.325645381705701 -0.8960289252862361
-43.51622985558616 -10.341571287519741 -0.8981526026891442
-43.73102480751024 -10.51348170502333 -0.9144833639223293
-43.66778147036064 -10.44120248088587 -0.908062561182448
-44.21525784517054 -10.810642233954344 -0.9441701675273608
-44.310993961894155 -10.884396271087663 -0.9511231089217096
-44.38889522643163 -10.929485032606959 -0.9556571161729837
-44.54797930595486 -11.068099893430922 -0.9683660379673582
-44.70841202152931 -11.153653994837203 -0.9770537277044231
-58.75101732533943 -66.25122658476403 -0.9426713002532734
-53.88622583491185 -18.854278200301543 -0.9429259511339181
-54.02879605105662 -18.87798057815027 -0.9412217581476514
-54.11195300949713 -18.920207307053705 -0.9428940370435761
-55.455947360877126 -18.637646797389213 -0.8882072088383566
-55.62766350616954 -18.77146624834512 -0.894643526638621
-55.72956261592769 -18.817381106268904 -0.8960947550446487
-55.86079284709656 -18.934095145890687 -0.9021585479675063
-55.803147777277374 -18.873971620586428 -0.8985334528985927
-55.995471082221485 -19.045351027840216 -0.9076664556614475
-55.92399302428439 -18.992750058419645 -0.9049876044288145
-56.06293666993281 -19.099358522358287 -0.9100131855078408
-56.15266971336917 -19.151735259093314 -0.9121943261397607
-56.33516004245411 -19.2554437758839 -0.9158261719182139
-56.24641178266633 -19.204450764918633 -0.9137510093880932
-56.47187499854356 -19.37019291906416 -0.9214028666956071
-56.456292982683195 -19.297091373977192 -0.9158335768209673
-56.54484680841253 -19.426895704606373 -0.9237337535867789
-56.90430279116781 -19.68255861756641 -0.934660761498451
-57.03543347938136 -19.768009354841897 -0.9377925875416524
-57.19173675396455 -19.88867328802532 -0.9430700475522538
-57.111682413268184 -19.828478723034973 -0.9407712493134062
-57.267241803738955 -19.948408999233163 -0.9459943745874426
-57.35229791757518 -20.006169690007653 -0.9479606568712446
-57.52279911819549 -20.12658197985125 -0.9527526032401434
-57.44530863743938 -20.06392025765881 -0.950264056206799
-57.597682090781696 -20.18821529555023 -0.9557780180531761
-57.78931506538619 -20.300845133675296 -0.9593885796668946
-57.689906089771036 -20.246154774048474 -0.9575166908748225
-57.87108781630117 -20.36022498822172 -0.9614786766549588
-57.950315687312106 -20.427576288000644 -0.9647493825033837
-58.041363197934096 -20.49408069445748 -0.9670737404659653
-58.50158910391558 -20.804691240195545 -0.9785203142473204
-58.60361065097024 -20.863847543230484 -0.979955481028626
-25.661936862252134 -26.355304823170698 -0.8135763509616647
-33.44203563786517 -61.4205174950649 -0.8007505144305096
-33.56466389505148 -61.35307730644807 -0.807178935257203
-33.257079843060936 -58.58760486386085 -0.8772644392747233
-33.76795217019079 -59.62794293834186 -0.8654492821601765
-24.91422750893484 -16.525321234511004 -0.8526342132353597
-25.179129725767964 -16.31489294296715 -0.8494286767228674
-30.22581229332325 -27.84168524859873 -0.7952370592722875
-30.23969953131853 -27.81385511152239 -0.7986546342339291
-30.344921696552724 -27.831314215786918 -0.8206145616883451
-30.418407840930275 -28.05059773064702 -0.8310018939950368
-30.574220142433962 -27.994337780353163 -0.8648409787729332
-30.581777772562187 -27.706928648310853 -0.8729950715426653
-30.555463884334948 -27.648910739815836 -0.8684678349435331
-28.87882980695776 -18.792252969283744 -0.8456535342148721
-28.90909883449317 -18.46218852094249 -0.8156148315533411
-29.027940432077365 -18.49423286198825 -0.8264080747463123
-31.03983087154999 -27.90883464465235 -0.7838438698719596
-30.965351762396814 -27.408309963383992 -0.7848832371117789
-30.955313231412035 -27.377108856263987 -0.7833315844980904
-29.176803281490564 -18.611876570620648 -0.8473053831613124
-31.166424571349864 -28.089414511577555 -0.8041493764400203
-31.124599819794454 -27.679600628858136 -0.8143610490480901
-31.052725761721135 -27.468811368556967 -0.8044373183143227
-31.004084158385197 -27.416001700646316 -0.7941905713821982
-29.17766725943898 -18.563382856927873 -0.8426863159503146
-31.282164800805877 -28.059973001122923 -0.832739243843633
-31.211450297705213 -27.799475581815287 -0.8298941786510603
-31.22924167520098 -27.699782069692834 -0.8386985115953158
-31.16762395178795 -27.586852693626586 -0.8284159579874113
-31.163721942486852 -27.477873298046568 -0.8313661933642824
-29.32790833021536 -18.685407150146492 -0.8640872347501891
-31.28697015911483 -27.73304934566082 -0.8510198445931589
-31.28223857068173 -27.662520401159295 -0.8530244513373695
-31.21857770828742 -27.562755358323027 -0.8417309205360388
-31.21269883380959 -27.477396676634246 -0.843376696296922
-29.406112627376114 -18.65061912786088 -0.8656296751757326
-32.19466518622596 -29.921987305666566 -0.8399926596810128
-31.829083859255537 -27.84700761103378 -0.8161948466954481
-32.00682944511476 -28.093056276540192 -0.8395289947545928
-31.941990822094198 -27.83418111464086 -0.8466396536766243
-32.03625931218064 -27.96611585730563 -0.8590825009402885
-32.48335826435576 -29.3328163011013 -0.7899323129895606
-32.53603477146517 -29.329944252557226 -0.800791956175849
-32.52874701319914 -29.274491115108248 -0.8077269774875948
-32.51349780995548 -29.130654888980253 -0.826037935269019
-32.51690185902432 -29.01681155651621 -0.8433003498829106
-32.65373741301789 -29.228208922260713 -0.8394176327483724
-32.539490975286085 -29.038782848357023 -0.8447762511699475
-32.561312758100755 -28.91881379700229 -0.8665628715855365
-32.53312535440575 -28.837463689565986 -0.8721670231470036
-32.77972895957608 -29.387478121424984 -0.8385779206051982
-32.605567081484196 -28.887924064879073 -0.8802074197402887
-32.82733482565934 -29.401853776336115 -0.8450887015617008
-31.91103189547693 -23.726628077834693 -0.7927910058927099
-31.925071436249866 -23.678971336045926 -0.7879285669947937
-32.60102891396975 -20.57236873061037 -0.8386354413215804
-32.687212344487214 -20.769435904579726 -0.8793053442044458
-33.27072961538242 -20.990902316689507 -0.7813726022403269
-33.581755808630476 -21.256521607610487 -0.8644947966035292
-34.15457807294309 -21.49592287189277 -0.8028212681138489
-34.22138407417502 -21.508685162298764 -0.8113816378984864
-34.19286811730343 -21.463889407666166 -0.7979050275756747
-34.31796450278327 -21.669610627556644 -0.8592319719722654
-34.347652914660564 -21.556720133642365 -0.83309322196314
-34.42214889354747 -21.6756672102853 -0.8684858541667235
-34.44833985289735 -21.63290178092831 -0.8595414568374002
-34.618694353553366 -21.899223786211355 -0.7967413937635595
-34.73152995623785 -21.89221203163462 -0.8024279542027939
-34.87757825847674 -22.0328157149102 -0.8525021142210851
-34.82862163170378 -21.932293013835388 -0.8201714869061534
-34.74798479099444 -21.828102833950357 -0.7847509273024416
-35.001143500339765 -22.335619387988636 -0.8223926273886131
-34.94767774653362 -22.0891916231182 -0.8729020670001431
-34.93331706621157 -22.01962676975424 -0.8516735752117659
-34.88979345847517 -21.932424724492865 -0.8237312843389508
-35.08198630707001 -22.061436429436366 -0.8711996353536866
-35.02766103991584 -21.99476319053807 -0.8490762569614754
-35.18015926746777 -22.0388469775859 -0.8686673478621874
-35.40474447564897 -22.22182838724857 -0.8006405476930529
-35.36362448626345 -22.18150623977385 -0.786125730211507
-35.50885477312796 -22.28344312279219 -0.8232541581374031
-35.4560548515559 -22.234363727813477 -0.8059537838789634
-35.64133659588547 -22.375279930862252 -0.8551661378611943
-35.58508175370098 -22.31150903832878 -0.8335280397508307
-35.712730985427115 -22.389686071542663 -0.8600017105162601
