ply
format ascii 1.0
element vertex 839
property float x
property float y
property float z
end_header
-44.441325657816684 -96.38506384722615 -6.875962283695542
-43.752177373378245 -97.75260321010471 -6.931934158289526
-43.7874136773576 -97.68487659929089 -6.9634806145185095
-43.79417356285131 -97.59402073715347 -6.901111944211267
-44.23738178364163 -96.86121502919308 -6.910085288463984
-44.337368733779364 -96.70918166915675 -6.949086622961157
-44.526513228308986 -96.42065540672203 -6.908821929792417
-45.21644018591459 -95.24736379893297 -6.8686182785064585
-45.250185917419586 -95.1768418953542 -6.888170155166912
-45.28988737979143 -95.07540760913001 -6.90271739621943
-45.32343111375195 -95.03954902598667 -6.902319264947115
-43.80001536677474 -97.77834180021458 -6.969941499294322
-43.79956907352755 -97.73802217705715 -6.977996307314504
-44.30693388547139 -96.92770743022123 -6.890775147032498
-44.34057372558722 -96.88767434981156 -6.944795223661781
-44.42332611614176 -96.69046594005867 -6.9430072453248695
-44.64003643572098 -96.46449585165885 -6.958047758311581
-44.924641474313745 -95.94202186040157 -6.947958289433673
-45.219715708637196 -95.38288331253888 -6.850783538055705
-45.25395600042815 -95.2683709701634 -6.905579929945635
-45.27720402697426 -95.1788390335396 -6.900396272228541
-45.29201211992993 -95.13514397666583 -6.917352011853834
-45.41221144812256 -95.03275408474448 -6.8977715012834215
-45.47365152875008 -94.96673203873969 -6.851749516097397
-44.3957203016154 -96.97726364860515 -6.907031809065266
-44.70312329455126 -96.4498221925055 -6.932957971846704
-45.025515632508224 -95.93348347400728 -6.9157828919611015
-45.14799029197391 -95.64396158235459 -6.874195968921927
-45.20928174865612 -95.63871741128557 -6.918862674702728
-45.28646073771368 -95.5406694134885 -6.850175708118741
-45.31143465693747 -95.42276526419427 -6.864390389160586
-45.33904107617436 -95.3488484712794 -6.901606338590862
-45.491982445373964 -95.03358644181104 -6.919426753908431
-45.5283673474848 -94.97439434732334 -6.878809965082273
-45.60842794260055 -94.9206165614094 -6.847574431838359
-45.08128520113511 -95.93498985511881 -6.891339112333438
-45.249015927237735 -95.64352734987989 -6.933626796095023
-45.34492945764161 -95.54501120240108 -6.857443603906935
-45.39162121836436 -95.47399889470952 -6.8805894770832845
-45.44187539101626 -95.44503630545758 -6.899642902260145
-45.701679821214356 -94.87616842652012 -6.824579610036205
-45.48799920049678 -95.50762856049515 -6.888173048466194
-45.49374575738876 -95.46716184875244 -6.906002873963299
-45.83579023218559 -94.86120313608996 -6.8384555835071605
-45.58892759864154 -95.50653431231483 -6.905459321711683
-44.67760983510769 -97.55581171444642 -6.975616042962523
-44.700445567478546 -97.55157180245739 -6.910875158957275
-44.69956565160212 -97.589832093805 -6.977317170780087
-44.72467218093804 -97.56756026860896 -6.937717084165494
-39.933895845377705 -91.15870034287408 -6.69790817524568
-39.95189361842391 -91.20632452088356 -6.715004411807252
-39.97108686662551 -91.15322480846933 -6.68934729038404
-39.798521551285965 -92.10596974098992 -6.717156407391675
-39.666272489415036 -92.64444376101575 -6.772276998157378
-39.677654316670015 -92.56204939741768 -6.783346085993852
-39.79408112486186 -92.40511428500356 -6.739526489587475
-39.87163532102129 -92.2947609221233 -6.736553767406215
-39.89100004190621 -92.20003640198891 -6.746997300955057
-39.89369390114134 -92.1384741377746 -6.7587193463113575
-40.01758863644421 -91.8675391389976 -6.75144984078853
-40.58311267502346 -91.04556210813126 -6.7425513144807905
-39.70849137303354 -92.69447808020553 -6.770145980800447
-39.773330198294865 -92.62275056571669 -6.800418873294643
-39.82510533115213 -92.52870679593647 -6.748005736331893
-39.8607430847916 -92.43007204842216 -6.746727512119985
-39.898739653254374 -92.36045398019763 -6.747086904290492
-39.97332710025498 -92.27520754220458 -6.787277935110125
-40.07393056904244 -92.00373725086422 -6.754610653530534
-40.50742439137101 -91.31346402791084 -6.777480091266255
-40.56935364953286 -91.1849009043966 -6.765970735703183
-40.606496642742286 -91.13171516966857 -6.7432863508031335
-40.66377228777831 -91.07188972035816 -6.747220044167208
-39.74491350885366 -92.8266236074381 -6.782610781586919
-39.79546335062794 -92.71985653152917 -6.7899280008359755
-39.84581539860635 -92.6439334076982 -6.768587487566047
-39.87876035549308 -92.56326555927397 -6.7550888580000334
-39.9341590627144 -92.51287371056942 -6.767787178902661
-40.04666776566236 -92.38715119737432 -6.813310749434835
-40.007968184766995 -92.31049841765869 -6.800204816622071
-40.14576521107437 -92.15980907618152 -6.7952448222055075
-40.56732914202786 -91.42280854608445 -6.775155029739914
-40.597203752644916 -91.3469576965405 -6.778519051642463
-40.62501611159476 -91.24220134943943 -6.766346962013834
-40.71721856289124 -91.09128362783197 -6.769215671826859
-40.84991233839499 -90.96709719544316 -6.76031990211566
-39.8278838057028 -92.96933190986397 -6.791382051884327
-39.82158698835676 -92.89856876863458 -6.795801299308301
-40.00900881017548 -92.67952024452542 -6.759830707214511
-40.18066622698309 -92.23886501445453 -6.808264517049695
-40.609435953929584 -91.49416766112402 -6.779593757173433
-40.70098703508804 -91.37970700839301 -6.782958871597088
-40.72663511527262 -91.36324060854162 -6.741787792589779
-40.7511157237803 -91.25504595281822 -6.768334617830257
-39.874830248201036 -93.10648443033384 -6.828276481009202
-39.86228583650918 -92.99814295986533 -6.816966474118384
-39.927913419662346 -92.88325821117425 -6.800250303746259
-39.91518434660413 -93.12909686955012 -6.825059007638677
-39.91199240380651 -93.07166717017255 -6.809950590723075
-42.83050258285058 -98.19347240213138 -6.852901521161774
-43.848625844148486 -96.42199001405085 -6.797959895761789
-43.92351261716906 -96.25686331525802 -6.823889285291829
-42.84038331222494 -98.25091349263988 -6.899549565340693
-42.868640984461386 -98.21623444776624 -6.9018170923779945
-42.964373933410066 -98.10448376545743 -6.836397601525093
-42.97132030995295 -98.03733374866998 -6.867211968092768
-43.84371211906581 -96.63421596845764 -6.7844075797122745
-43.86637428657317 -96.56350029910217 -6.79029422614929
-43.90034209542955 -96.44172171222995 -6.809280776527589
-43.92204901390875 -96.40515919470643 -6.8196733579029996
-43.97773860564569 -96.27219756141066 -6.836224225323123
-44.02578104678927 -96.26042633435993 -6.768295292972328
-43.85777865396113 -96.64115317574574 -6.784089515210594
-43.91477872147897 -96.58816242028128 -6.816940945299262
-43.983996826329005 -96.4903077259139 -6.832331824687003
-44.03155085292005 -96.48975117708922 -6.86406644804374
-44.136099494071445 -96.8433367316107 -6.8662190527925695
-44.340494463508456 -96.48641244516028 -6.783145017577602
-43.74017001809379 -97.81371760497926 -6.84375690793805
-43.79881994093209 -97.63450966603894 -6.85395444259263
-43.83261007600524 -97.60106024618429 -6.841411921210231
-44.196441954532 -96.88887983708342 -6.867359882301202
-45.36335762820453 -94.96700872727007 -6.739634853763703
-45.389672950225 -94.94711477663584 -6.7542938364988965
-43.76137730053609 -97.86000052723453 -6.8416280892302614
-43.7569820142763 -97.82714973960401 -6.866174130172256
-44.32556957618819 -96.97190561839173 -6.863015403224142
-44.68523118904869 -96.32086713617677 -6.807895531594025
-44.67730431305658 -96.265791453713 -6.837296774409643
-44.82726982635067 -96.07840328528296 -6.767756422293958
-44.941480822279665 -95.90060005631153 -6.768603511619393
-44.9749580917425 -95.84626037571057 -6.756210222669814
-45.026376585823236 -95.73061906651222 -6.784384349234031
-45.039268934209886 -95.68434497314892 -6.820142176152209
-45.11914583557393 -95.58846583208783 -6.77815788342141
-45.15183281106273 -95.39305055678892 -6.833780000730451
-45.45982304522736 -94.9251018360527 -6.7913392916791455
-45.51224261492632 -94.91092401211952 -6.799334961378167
-44.37811022726451 -97.00535854644517 -6.8507182151334565
-45.04165199649486 -95.9240241771688 -6.843834473377977
-45.07874674530027 -95.75483232832904 -6.750067650414939
-45.13444691348243 -95.66162105585379 -6.832392696880947
-45.19503801410999 -95.57683414470124 -6.824283878029256
-45.21941628964623 -95.54983961641875 -6.833564482891614
-45.61372664393848 -94.88602818120611 -6.798337743032119
-44.434258783729845 -97.04568461223215 -6.851195877229752
-44.57511570382787 -97.15520527226866 -6.82453535930277
-44.6550013504017 -97.22575483887566 -6.781273460657135
-44.58955118578374 -97.46014343648302 -6.79883340063162
-44.66346517676715 -97.39800646339104 -6.797021477932066
-44.6935827321805 -97.22128361083368 -6.780432932552798
-44.68407602366448 -97.5187082382111 -6.828307894422938
-44.72030749915859 -97.54539332078343 -6.859031063503102
-36.53671739939616 -95.91660382279619 -6.725244159828828
-36.75088055788822 -95.45328336544796 -6.72917066307763
-36.87761113263986 -95.3252874256161 -6.726849498115394
-36.88770084905359 -95.25981584911398 -6.724470380753917
-36.950388140698436 -95.19701266141391 -6.723342445997007
-36.999318796295086 -95.0153932324278 -6.717198708735546
-37.08213114847626 -94.86942990278743 -6.713208101674038
-36.319192170185204 -96.48673509664965 -6.743534193454453
-36.32396112011801 -96.38708774751356 -6.7394892733866
-36.35993213837895 -96.32368580794473 -6.737755794422511
-36.41388881508862 -96.22858311644403 -6.735155758385334
-36.63934530353485 -95.92244166008591 -6.728106447162311
-36.804831487862764 -95.54894287929994 -6.734142405878569
-36.90215146366188 -95.43816711957284 -6.731864476243308
-36.92376895988852 -95.36968539151007 -6.729616856877544
-37.003722237708985 -95.28952063419266 -6.72817585507215
-37.0161619857782 -95.17645646355193 -6.723958671651973
-37.23648625846879 -94.78811994009737 -6.713341596747537
-37.35079724383399 -94.66845627404976 -6.693822628586782
-37.38511259510026 -94.51673126988139 -6.688353808422215
-37.48419494430957 -94.43333446745467 -6.687394411158249
-36.37273656976261 -96.49281546487275 -6.762199739898944
-36.44700785147526 -96.45092453213644 -6.762154058018643
-36.48453874916602 -96.33110093332267 -6.741244757105655
-36.51850540175262 -96.28912391152093 -6.745974896337456
-36.564642677073266 -96.23447156707692 -6.739247881742277
-36.68514459140537 -95.9329584984533 -6.729714613935348
-37.379830436484745 -94.70852547194374 -6.6962386899760284
-37.44632228277984 -94.63588862340819 -6.694897788256285
-37.51687002457112 -94.5561022603942 -6.693361450530953
-36.4810739598957 -96.46876510992158 -6.746912654301011
-36.54871077324082 -96.43676373222917 -6.755548655014497
-36.59509577147732 -96.31367731814993 -6.751672852754446
-36.64099832713758 -96.23497674032458 -6.753633616695804
-36.88150353972671 -95.92848712102547 -6.734537109340902
-37.06141469876808 -95.45488576814643 -6.735996131735591
-37.11302145308622 -95.36392549165062 -6.73350926768422
-37.56373045608154 -94.64325941887837 -6.69820131722655
-36.666555574946734 -96.31617204456397 -6.761586030411802
-36.696026716244944 -96.26422680241909 -6.760165783483582
-37.600556898514036 -94.83100720861528 -6.722971671655592
-37.63788040251838 -94.75658277427264 -6.704831376796136
-37.67695080709333 -94.6615486176275 -6.70185441335119
-37.743106012606546 -94.56679561581407 -6.691589761116075
-37.81144091646101 -94.56737405831322 -6.7013476580759415
-37.14345715093318 -95.92934833648877 -6.741255772338095
-39.63058126040189 -91.6959122751908 -6.642730986164606
-39.59669614470193 -91.62192703898683 -6.654416575562027
-39.91597298652168 -91.11094899970712 -6.68047190678915
-37.35945088070556 -95.89451311560293 -6.745309481687988
-39.68408387684964 -91.82087562621882 -6.678110447012325
-39.681534307921694 -91.77374407246778 -6.661696511003865
-39.74116709508962 -91.87995044488392 -6.681084485569731
-39.75527500944199 -91.81109653934406 -6.6556812611418055
-39.7784543769884 -91.94137609630495 -6.674483546357827
-39.84724053053153 -91.8667019871096 -6.692527531500439
-39.90038948523886 -91.87629253199083 -6.696908174557814
-39.84390038402289 -96.3576858896587 -6.72063561549926
-39.907849011625416 -96.3471584154734 -6.724994661803619
-39.93370576089302 -96.32409995430737 -6.74224489311235
-42.86358640352677 -98.13935984024306 -6.7861155354428195
-42.87698498308806 -98.09236517990801 -6.77314462065821
-42.94679315855583 -98.00009629385443 -6.724732421438499
-43.0124401934519 -97.86343181256288 -6.733755030487724
-43.769603079766306 -96.53173612517463 -6.729639622887976
-43.91653981698258 -96.25529874548194 -6.752286726882722
-42.79134331134259 -98.35187394196052 -6.739715940574905
-42.81396829179206 -98.27962163124936 -6.779502769956738
-42.913411585320205 -98.19764073065063 -6.7460871308386
-42.93051937004957 -98.1068644432288 -6.773631963296327
-42.99079376564747 -98.02993354042033 -6.787723897679998
-43.03517730422201 -97.95023298723144 -6.749395255402157
-43.76142053711194 -96.70500880019371 -6.727327986278103
-43.80721875150869 -96.63877831022383 -6.745719521741014
-43.81712830939582 -96.5634729950363 -6.735784038597018
-44.030415394389294 -96.2634473989883 -6.74819593776333
-43.90016456639512 -96.68451550788124 -6.721320933759603
-43.86999464980211 -96.61360974235834 -6.738094466418413
-44.090001096794275 -96.28012421390328 -6.756259691170238
-43.96673237700298 -96.73988128117506 -6.749367246174657
-44.041893925906116 -96.79831488538454 -6.7409084899865475
-44.608333573310865 -95.84844723618978 -6.717097437329975
-44.157982964378604 -96.88679861861237 -6.71895700122705
-44.684180801867946 -95.88245921614732 -6.704784602453567
-44.73290149770948 -95.83745454305661 -6.741483690410448
-43.76098524450425 -97.74194939767975 -6.734187240255077
-43.7858213905712 -97.72660520329588 -6.705694719565806
-44.44965858837459 -96.53308714644808 -6.744734764979918
-44.79243586330755 -95.91175862596583 -6.691719657529321
-44.823216229761556 -95.83453875425936 -6.732676682396841
-44.95485948728122 -95.69578990760289 -6.643788113838015
-45.268450021644924 -95.14741304892026 -6.633669223957532
-45.27785769309884 -95.13096186910504 -6.633365645586324
-45.357792337836095 -94.9937354003396 -6.709340554092142
-43.801763212377764 -97.88698672658117 -6.79083882101124
-43.78448445456411 -97.81469096524343 -6.753879923213594
-44.52156933738755 -96.55227006225397 -6.730042487192571
-44.56277362681864 -96.5500212732058 -6.705571121500423
-44.5805708769405 -96.37665771303996 -6.691756415834333
-44.684104999245065 -96.37053691805218 -6.671381016989106
-44.710982522020174 -96.25728197549897 -6.728856840556101
-44.77506756236529 -96.17018470627902 -6.727992858975314
-44.81635943945053 -96.1267979732779 -6.732923557111705
-44.876215270775276 -95.95100363443521 -6.703594097123293
-44.88981732429369 -95.92126256512026 -6.707221170674689
-44.98096109933653 -95.82547007625443 -6.7039329571234685
-45.017124750516665 -95.72178561081768 -6.659529928506987
-45.054033866091785 -95.63704735148505 -6.656636422352761
-45.120239700613716 -95.56516317546975 -6.695857318386447
-44.40693077236739 -97.04251873917423 -6.707263756434286
-44.730450931388894 -96.3665073508656 -6.665933601200662
-44.73838615223304 -96.3137246638521 -6.735444187362951
-44.85713162929605 -96.10135506556584 -6.740075523469396
-44.937422173951326 -95.97982840239904 -6.703632677076937
-45.03747881593256 -95.81699471546129 -6.678642088514539
-45.06680714986672 -95.78238218026486 -6.702211999447008
-45.16049835366578 -95.57203579548293 -6.728170771257308
-44.54539338158459 -97.37822489332845 -6.7417380339618225
-44.63846430588206 -97.38276539718359 -6.782629360331464
-44.72122357979755 -97.45223007221851 -6.766220210995511
-44.76918821905914 -97.51987940477959 -6.749927046435798
-44.83553152817528 -97.54246223818895 -6.763780687681362
-44.995984277911475 -97.66342455221688 -6.760332033357323
-36.46873719443479 -96.02689149349948 -6.71048747480526
-37.16979538090493 -94.70527331474669 -6.6907444845352035
-37.27838008658741 -94.59983788925247 -6.671471930532598
-37.387545037559676 -94.40742624237546 -6.6662114878829035
-37.4187348183217 -94.24721528943073 -6.642270011767014
-37.50619473202511 -94.13132546462607 -6.622122481060238
-39.02752589864273 -91.5747420882941 -6.52007955121742
-36.31078359212357 -96.48291706197078 -6.708683064307633
-36.35945332769188 -96.40645197662361 -6.72396585530363
-36.59067544954109 -95.99890695228129 -6.712823661880849
-37.40884510023896 -94.5568237558412 -6.6733971817583475
-37.417738450226466 -94.54114905541195 -6.672968687006736
-37.47109718700038 -94.44710035705819 -6.670397361947785
-37.52049494259002 -94.25926347924957 -6.646178494924919
-39.11310564657499 -91.61664451128826 -6.542992008846141
-37.50757551544995 -94.47415072611506 -6.672652135356746
-37.68280755232725 -94.23628732435914 -6.6336520213198735
-39.14429040893316 -91.72958832367772 -6.533329325677325
-36.47294154117715 -96.46507274045614 -6.713205999969075
-36.5028112445059 -96.4214385841067 -6.72881571063324
-37.534308690088466 -94.76904740455998 -6.686388261760848
-37.5644829989658 -94.5915902320252 -6.6794750850364
-37.623537431017226 -94.5289269744757 -6.678449041091092
-39.19422950899093 -91.74263241026854 -6.569019421055988
-37.585326029672174 -94.76197437683754 -6.6875693294849095
-39.36240899243984 -91.98925649373211 -6.5794147274861094
-39.42102706774634 -92.0516888860489 -6.562382527396715
-39.40915979696639 -91.9833942549298 -6.5884919232429695
-39.52376829861789 -92.17818273864559 -6.587785193642273
-42.862362963959065 -98.15166616459507 -6.639439670179333
-42.87274951277439 -98.09784187362106 -6.669040341073488
-42.988422626252685 -97.89157976245987 -6.70646296452754
-43.67065619578216 -96.71639455534279 -6.603333180691181
-42.757283899985715 -98.46093430371097 -6.698851703258505
-42.80651773036574 -98.40040171228688 -6.681092750229282
-42.86191939573746 -98.31622983526212 -6.63295127687224
-42.871280922088815 -98.18689752341791 -6.6342973266722
-42.93028396655909 -98.11654072866985 -6.6625362745923375
-42.99659745344732 -98.0334997416346 -6.664932068578884
-43.022775605207435 -97.96121277656471 -6.686178855949733
-43.70947523265927 -96.73099090681637 -6.605337930369206
-42.80878157320072 -98.46647558566708 -6.667916856114702
-42.83257244340824 -98.43450540461404 -6.658692583538351
-43.86309363843018 -97.58156667467733 -6.661457244259037
-43.88547887609814 -97.52740230816619 -6.667830023391414
-44.09534224651786 -97.15275686473008 -6.5954275540124065
-44.46476603769453 -96.46924437049479 -6.595810997008635
-44.5433503750069 -96.39028322329933 -6.591000838378113
-44.59094658997767 -96.33968526307487 -6.615594496077959
-44.93264550184234 -95.69671089361417 -6.633152901319104
-45.27197718010595 -95.15473118745507 -6.609371181239394
-45.29601934258272 -95.11268923058859 -6.608595393783016
-45.36128217919764 -94.93900228612188 -6.554578364114446
-43.80226291708004 -97.75128324889263 -6.692491645495417
-43.83448952483808 -97.7519202079153 -6.6723920824247696
-43.90033986618335 -97.62715969058166 -6.632070163087112
-43.96725684786173 -97.53635073248891 -6.619863614527211
-44.536662812327855 -96.52807992235262 -6.643726850726396
-44.5769167892561 -96.39041661229952 -6.59552298667391
-44.640100509371315 -96.3443094164809 -6.628436729675437
-44.998737740281804 -95.81851862006378 -6.599302939921048
-45.01335870831604 -95.79302431720147 -6.62042866587674
-45.03313225166911 -95.64363110723535 -6.627910554393573
-45.17796258617782 -95.44587062817611 -6.634555371564188
-45.20459631217423 -95.4138733608481 -6.601888256250665
-45.26438574637695 -95.27576291788415 -6.554950324847534
-45.300305062423114 -95.20706091240339 -6.558809714212011
-45.32972187090988 -95.11277534396419 -6.5931198315566
-45.412994012150484 -95.06553528067145 -6.555355169959758
-45.42631173029319 -94.94103119920382 -6.531352636731685
-44.595592573585876 -96.55497374961995 -6.664518056719368
-45.01965747636149 -95.84710609942822 -6.590410959972875
-45.03596731420819 -95.79190849347827 -6.637719870617103
-45.265808271944884 -95.38754056355211 -6.547769962940177
-45.306524055516384 -95.33836718475773 -6.541725275702869
-45.453845292269726 -95.05407765477517 -6.550026604898152
-44.557841240164194 -97.11786869007688 -6.632559714939782
-44.64568771823854 -97.21463109514887 -6.660673051403404
-44.61871305058935 -97.15040200433961 -6.642125143158164
-43.58789556741195 -96.64880117603819 -6.561596290554372
-43.63055727366496 -96.69098874089752 -6.530979271702188
-42.88248012873153 -98.30482940360318 -6.614709411946583
-42.873854180139574 -98.21802966526806 -6.612517145459208
-43.732863277175035 -96.71637584502443 -6.547058806166677
-43.77717611193185 -96.701951556273 -6.495837482082783
-43.80969215522883 -96.7310101599171 -6.4994337963114175
-43.90459153091951 -96.75854332333333 -6.4857450928871145
-44.01367489831455 -97.08113095724623 -6.524392789875302
-43.98004792391145 -97.04885311815406 -6.519695550704269
-44.07947986691128 -97.13737964098992 -6.5453985285004705
-44.49507537057717 -96.47327126312749 -6.511437360680931
-44.54382420760949 -96.40294805933803 -6.489414877129107
-44.584766285246786 -96.35997500893184 -6.46652720289212
-43.844288723146846 -97.75425946451954 -6.53323060158738
-43.93295079988822 -97.63931254429394 -6.554832757706662
-43.98014366195192 -97.5431883824727 -6.548878664960733
-43.9739429170538 -97.49049506538046 -6.534370037628177
-44.58613303222616 -96.38964760998151 -6.488345840952302
-44.60898498364577 -96.3597238137237 -6.469609873439447
-44.7246771403222 -96.24293780049713 -6.475008111359224
-44.771031570698604 -96.18622672597108 -6.4908158964061915
-44.84852210917818 -96.07769154767328 -6.503688158253515
-44.867340401048736 -96.03308656687157 -6.524056578485509
-45.07506576667409 -95.59347809007383 -6.446435633103079
-45.20586189442246 -95.45997480253484 -6.437741049046439
-45.28178376586584 -95.33107975971386 -6.511488937632352
-45.454427807141116 -94.97896472057515 -6.503582574591384
-43.901765647968325 -97.78909534569763 -6.562650046238719
-44.863657229420184 -96.09679079214277 -6.46305873546217
-44.88946254282583 -96.04936281358536 -6.466354222750264
-45.309021711038454 -95.34917761631078 -6.486904621284429
-45.3412858725965 -95.26831902898722 -6.522442908706843
-45.41530239662957 -95.16199968153813 -6.446013570932389
-45.485329931686124 -95.07909473330474 -6.483519623832779
-45.492803277285944 -95.01728634372569 -6.492581111139695
-45.71181200328134 -94.74601738494033 -6.4628028594742215
-45.85565166531303 -94.70557711621106 -6.4499682511750995
-45.95138803081926 -94.67338625378466 -6.448140537669949
-40.59213524311293 -90.84155423592487 -6.301612643162168
-40.69185606733238 -91.17336254883753 -6.3115444765644595
-40.730422044465136 -91.25306413476785 -6.332611305796725
-43.62612522064656 -96.63187999403627 -6.47649556905987
-42.97069249234237 -97.95038889623558 -6.415323978331804
-43.71961469929321 -96.71131856831408 -6.457333087731831
-43.79725535352756 -96.7135748567561 -6.464288672623043
-43.745265880910175 -96.93453167790464 -6.448175779661889
-43.845940140309146 -96.75871670333254 -6.416163857325778
-43.89382460691146 -96.75494155410901 -6.409166441515813
-43.913285329327664 -96.85124546083439 -6.409117425522847
-43.93593933145721 -96.77728821076946 -6.410764891841567
-44.00069911009072 -97.12319139061314 -6.438746717623524
-44.31913266382875 -96.6272576470705 -6.450877371948643
-45.700117579358036 -94.20379129578575 -6.303878566474511
-45.70268023826845 -94.06709137244293 -6.32264789610902
-45.78919617702964 -94.00803074166114 -6.347351500159502
-45.81978751958362 -93.95815466646084 -6.318370341979647
-44.061670654145296 -97.17694110751376 -6.428972146523694
-44.33300947234528 -96.80747916071931 -6.382281642058954
-44.32818535342191 -96.77877629550221 -6.373455322355176
-44.34983274121475 -96.6206542585389 -6.431076667412776
-44.42065229215477 -96.57287153701743 -6.421400818066673
-44.47973927912519 -96.49369181287936 -6.4139865840944585
-44.952082682048854 -95.68165796139948 -6.394505357006934
-44.96773431149438 -95.63892988128691 -6.422295041886343
-45.84186183589163 -94.02290863123076 -6.324337046840199
-45.86515382418301 -93.94121977244949 -6.297402127541851
-46.03788982861962 -93.75854903385297 -6.360421418436457
-46.063327781436634 -93.73724020739078 -6.314419912648534
-43.99040588053521 -97.55144159571742 -6.482515729331188
-44.12904432684697 -97.24583873534775 -6.401102875668433
-44.53476052530718 -96.51139722208583 -6.401031924541968
-44.649839546871924 -96.34300760752059 -6.435154515740066
-44.69948959947376 -96.2833846889978 -6.451098268030464
-44.79504340385495 -96.1420939197362 -6.432918315486569
-44.83544200073404 -96.1173604961734 -6.415795922071354
-45.03204466688252 -95.73618088514786 -6.358956094137419
-45.02892121999585 -95.642738946138 -6.412334528577106
-45.28990418675282 -95.28610809832607 -6.359508077453563
-45.32468826237673 -95.2442575695736 -6.378837583746818
-46.1572548977089 -93.72914152234699 -6.318414980794772
-46.17323804821664 -93.69966839411273 -6.347816888041642
-44.868404745219614 -96.10374049671726 -6.435556664932086
-45.0693740997942 -95.75346777025631 -6.343849241196266
-45.09838424942978 -95.69588559354227 -6.355200104366292
-45.21757049093797 -95.48711014857979 -6.4351261523498415
-45.29221476240945 -95.41445895882845 -6.428261024190297
-45.31762462098898 -95.39031596457401 -6.422095481754669
-45.37051777160086 -95.21988201855181 -6.3882073955916265
-45.39754692782239 -95.19588224827363 -6.4161547015736025
-46.20923992679599 -93.73362660602852 -6.302209408616847
-45.793895062883124 -94.80082252773191 -6.380347719787381
-45.84449200829412 -94.81452956885015 -6.337187615969489
-45.8882925473764 -94.76374250370324 -6.385859551676816
-42.862139864182026 -98.16585495996932 -6.372849994562274
-42.88364847392224 -98.07705686283902 -6.377780485284698
-42.925294214248645 -98.01001499079322 -6.372867852760361
-42.969725967760276 -97.96066999107596 -6.38294478945604
-42.88625555435692 -98.17959354426293 -6.373846980916647
-42.90954610753038 -98.11819023427165 -6.376914583385683
-42.96355894867203 -98.02575819109471 -6.376460720980212
-43.03381388796104 -97.94184857913856 -6.37976492399678
-43.08803131565284 -97.90807915538612 -6.321633762435813
-43.941573239187335 -96.78182426572452 -6.355180882384381
-44.01420446321616 -96.82129001083219 -6.324507466808695
-45.700111637744435 -93.93420517817661 -6.213774257317451
-45.849771098447206 -93.70766471339459 -6.212447895452679
-44.20062227910407 -96.75679790518576 -6.294549953421306
-45.713999000499356 -94.15273274480056 -6.205954629730044
-45.74844532258107 -94.09830040379042 -6.251161097869335
-45.83766906947854 -93.9382329040985 -6.227973350432299
-45.96208059430128 -93.68238358829588 -6.20166687418058
-46.08030365129373 -93.50572720393424 -6.200646991602583
-44.1645520214548 -96.91583600531928 -6.2795170043771495
-44.26822169346932 -96.79403678481357 -6.3023907351710475
-44.305273253745845 -96.77142980774953 -6.310575688932159
-44.419313291288674 -96.55088050196086 -6.329812918344589
-44.459692047498336 -96.50062844652226 -6.361136581490088
-45.76889508315479 -94.22298126236655 -6.23239700930026
-45.84185968651164 -94.15709323295823 -6.266470417888686
-45.86332760480504 -94.06878599572033 -6.264806228937283
-45.88244147416479 -93.94017669421882 -6.253774968991677
-45.98679447877823 -93.89191088412477 -6.283478752311182
-46.01124283828146 -93.75244550805809 -6.261316354379207
-46.06584454187412 -93.71043495823722 -6.232099771090666
-46.130846011912816 -93.50836607108175 -6.2120211014441145
-44.35563219409176 -96.7991795924493 -6.34533452662265
-44.67882403930836 -96.32724842236429 -6.286752655379795
-44.70927832577264 -96.29048518749997 -6.321383548847478
-44.76542851915071 -96.18635556038302 -6.3047143662176275
-44.81733830057901 -96.1293497994725 -6.286131300995323
-44.87704464379527 -96.01393589521658 -6.31981205129534
-44.91767443029039 -95.92986378125426 -6.310109333029501
-45.046263566990135 -95.74442805573008 -6.2794175482816
-45.0754043052132 -95.65632009294707 -6.264654167333224
-45.11681518810508 -95.55905098703256 -6.272130159123172
-45.17919206007161 -95.4876047636957 -6.2690677705749565
-45.20956858217664 -95.44400594993621 -6.26190622159617
-45.28214932078833 -95.31669663859233 -6.319966163421203
-45.836570736576185 -94.23027388841598 -6.224863961146783
-45.888027226834225 -94.15558817385742 -6.263839373174022
-45.940988399110324 -94.07701955740455 -6.253997440870709
-45.97691433519474 -94.04421556249768 -6.2640897229650525
-46.04258234278549 -93.86147901835696 -6.228880914451316
-46.11175609815842 -93.84536068374874 -6.246330256115439
-46.15821255870292 -93.71983292432405 -6.278052588820781
-44.85037098728377 -96.18440369640155 -6.2649069194411044
-44.85545431626353 -96.12708919052464 -6.268441592802903
-44.90583600053948 -96.04731197034832 -6.282119667393592
-44.96634230127837 -95.95021064015711 -6.293705387746639
-45.04457987432625 -95.90621925812968 -6.261854366746258
-45.059484006114836 -95.77222184525816 -6.289591704444389
-45.109800886138174 -95.71252115657965 -6.275659070350926
-45.16346067724356 -95.58678710334623 -6.297164009679132
-45.21499619909331 -95.52233464107631 -6.2969799208791315
-45.268915463706605 -95.41926921133688 -6.290194701869405
-45.30132045072662 -95.3615665912601 -6.311790741450404
-45.99802902642445 -94.16636909557546 -6.254079198065562
-45.76365873092151 -94.8667023204794 -6.263528326653266
-45.858214064164514 -94.83648389567594 -6.278908761775287
-45.90268578502093 -94.80766659383163 -6.310623622350835
-45.62188497082962 -93.93336053705193 -6.156727995372751
-45.69201536351361 -93.90669013165584 -6.148613887030292
-45.750840352807465 -93.87487119686169 -6.143422165183198
-43.59430961115329 -97.8052786751894 -6.2492688750051375
-45.6773944715858 -94.20777734402014 -6.111636221962749
-45.79739394763516 -94.01228321154056 -6.165662227590943
-45.81967894688901 -93.88853251382066 -6.167011035447891
-45.979094756886596 -93.69843192499411 -6.180113230656245
-44.21424298045862 -96.98476847598151 -6.239079073952586
-44.19942253030117 -96.94529304684741 -6.259824644465078
-44.277967561184084 -96.85432481027975 -6.247804086552892
-45.000671652356615 -95.57288830423911 -6.182428035728682
-45.04097438852734 -95.53806843802013 -6.189526607546807
-45.08031213363095 -95.48519376210793 -6.19696768704739
-45.76092921519444 -94.19929586749093 -6.149798457367506
-45.80856863848112 -94.14708077153624 -6.18117491464556
-45.85432776897554 -94.03834331048873 -6.163189230294824
-46.07173735726456 -93.66900657090802 -6.165425078714213
-46.132309205105656 -93.61457410246027 -6.165714169713279
-46.16539444815282 -93.53681861323932 -6.163077334075053
-44.30729147842295 -96.85594275484932 -6.225693815693309
-44.453036581638656 -96.61929319901947 -6.263906206970669
-44.66141778577616 -96.35679117846891 -6.212397435091107
-45.051288769269334 -95.73872956843731 -6.234845402723994
-45.16246168152023 -95.46099467868144 -6.214943341429702
-45.20511411408027 -95.4410623696925 -6.228390815428043
-45.33015299370204 -95.20037274069041 -6.184510140273423
-45.37110807946728 -95.16082597478763 -6.205035904943648
-45.44031206652931 -95.0565366036858 -6.172805161432484
-45.48290379637252 -95.00213051013615 -6.135433505157144
-45.862000799565 -94.25999321903502 -6.162485474776225
-45.86185400497231 -94.15641474957444 -6.147356651269771
-45.94034850990693 -94.14473705872781 -6.148526356494785
-44.052119640585055 -97.57266982019395 -6.2212260817799345
-44.07853923803724 -97.50945265950624 -6.215257939293449
-44.89563886219549 -96.13768550404843 -6.2334044509980355
-45.06974731819757 -95.88799488267603 -6.174178092787936
-45.08081923944951 -95.74658785875434 -6.236790554682858
-45.416940828566666 -95.12376354562326 -6.205653999094503
-45.47210462694231 -95.074959353207 -6.191154373307066
-45.516703198122705 -95.01264498411032 -6.155369236092343
-45.60457711068334 -94.97610271141389 -6.125411525557718
-45.91656279934314 -94.25686984192272 -6.139230161526682
-45.97476951314976 -94.2554986237491 -6.133166617866991
-44.968143536887176 -96.15500989986896 -6.202422226864357
-45.00929163354466 -96.13732095202423 -6.193533641521496
-45.1150130286388 -95.9079428155886 -6.196943321768367
-45.13032592504416 -95.86909276211102 -6.200382346431425
-45.66357055886404 -94.94713605556261 -6.1642933945677
-45.781649026640835 -94.87842974486769 -6.185505207873398
-45.796565239569034 -94.89802463385828 -6.150350008252371
-45.859749009041074 -94.85680278328968 -6.165811578436936
-45.97543911358533 -94.8068995439348 -6.18354642752218
-45.87341601828959 -93.90668830553365 -6.068449306685245
-45.748180136679814 -94.1981197270063 -6.083440129399481
-45.78305677681661 -94.13083103951419 -6.053671030116834
-45.843627196710955 -94.06131474255189 -6.047253202804839
-45.98694451364128 -93.89481170540635 -6.052433437090775
-45.99951706230071 -93.83512490673347 -6.06406334403526
-44.65147501029589 -96.35014236595586 -6.155676584686525
-45.815321703422256 -94.3602895455808 -6.027463105201447
-45.916137331045746 -94.20186888033405 -6.071392890889511
-45.98766285125642 -93.97901681797798 -6.044829679148794
-46.02800453363913 -93.93058696297693 -6.055297225735281
-46.082759898745785 -93.84823833652885 -6.033887505275073
-45.89832272021586 -94.32419365674366 -6.017774137232393
-45.98468696230543 -94.23042330785005 -6.0425827973618675
-46.04744050189987 -94.19658825330038 -6.059663532061234
-46.17604097547019 -93.89304397459604 -6.003205798069718
-45.11279328972169 -95.98335567273934 -6.1114946821317515
-45.11347761833132 -95.96804001339581 -6.136790688212565
-46.10613118869068 -94.19246268727696 -6.022118407404704
-45.172654760801535 -96.00816098956435 -6.088992045856998
-45.81149094738226 -94.9176952300396 -6.11502858657537
-45.88822545006464 -94.89443103454121 -6.102595994073807
-45.89611328941034 -94.03072090710842 -5.982962917516335
-45.979360683716095 -93.99851770884071 -5.979253550442067
-46.05717783849507 -93.96408377358713 -5.967251210760732
-45.93585302206259 -94.311501421424 -5.991525027861128
-46.127178604309435 -93.9364268210295 -5.956510039442707
-46.17956918259663 -93.88694137223335 -5.98692592828506
-46.0310321189434 -94.28831549956715 -5.967702380074571
-46.13980478792169 -94.22124065318184 -5.9757231940728035
-46.27412116592526 -94.16941495393054 -5.9676445656389365
-46.31878038241216 -94.17201587377419 -5.941630919670294
-46.35568370247065 -94.15397121984351 -5.951706351337769
-46.163996483438225 -93.23451950066448 -5.7879232465026575
-45.670599526422926 -94.36677677266007 -5.890011220011157
-45.71502096556021 -94.35467471868344 -5.879360446953043
-45.753265384054636 -94.24590603545663 -5.824279260477271
-45.79274631473055 -94.31823026748403 -5.848466709592552
-45.86068288674291 -94.27093571487444 -5.823262654462759
-45.61879074407007 -94.14594682257328 -5.712953934760952
-46.11319260853374 -93.2887836337781 -5.7166490625503785
-45.63336439182925 -94.26223451505972 -5.79557052041476
-45.680262221009684 -94.15672456280313 -5.745353066098637
-45.71349585995062 -94.11510320176383 -5.721461721337276
-46.1773307202084 -93.3061957773863 -5.7132439589863155
-46.1970915332026 -93.25746723718312 -5.735642911977185
-45.76681096050383 -94.20067178097217 -5.779137092284154
-45.82108704193638 -94.15603991305109 -5.757563474037135
-45.91276105973271 -94.21469644329933 -5.796976840062969
-45.93083249959552 -94.10772109139396 -5.715422262483044
-45.37601731167022 -94.20786433298686 -5.690668182816971
-45.53260868633845 -94.22980614302544 -5.649658840162249
-45.55612893241386 -94.15343598844446 -5.63263376853727
-45.59398315839339 -94.2344589853565 -5.641432426794627
-45.655377160575505 -94.13317603057536 -5.689404540580157
-45.72713478617585 -94.10381879638663 -5.638062533474061
-45.81940401904357 -94.0706110101472 -5.654698765083481
-46.04680983983719 -94.06658199911587 -5.684589670941941
-45.914041340915425 -93.50777863101315 -5.523616969753537
-45.97338934229464 -93.43464506058793 -5.511292496688174
-45.703664107679515 -94.10200661686554 -5.589763389827474
-45.90263158002662 -93.72359759936657 -5.505504733995079
-46.12201990694466 -93.37693064916745 -5.489110212934001
-45.998066994522944 -94.01214100414738 -5.5321788390988
-45.985251206991 -93.6973737363496 -5.478358455193112
-46.0960264690802 -93.46307941702494 -5.479038558364778
-46.115476398849566 -93.40191238717098 -5.47490726691114
-46.1759219053319 -93.27181256464155 -5.4129630010709135
-46.09609936783416 -93.62783197231141 -5.43330018329062
-46.1528672015028 -93.57244868548972 -5.418278637446824
-46.23902894767272 -93.45420913082722 -5.423923167711987
-46.24779489862201 -93.33815277813785 -5.448964923255202
-46.29087096699334 -93.25344509439645 -5.402181905756818
-46.209020638274495 -93.54329117232236 -5.422959568664868
-46.28474430682686 -93.49260499432448 -5.391580016827106
-46.31470754533248 -93.43144054824764 -5.4019878053574395
-45.89630424537961 -93.53946255499194 -5.290397738456596
-46.16748805068797 -93.08234647529527 -5.300018921998541
-46.26602614906949 -93.12181834159416 -5.331113143268818
-46.28328122470567 -93.09235660457534 -5.317875831252618
-46.27005962238637 -93.61962179156757 -5.369124946350835
-46.30122092479985 -93.48909127113251 -5.378329360705409
-46.33343648065762 -93.41924391524222 -5.373813776094396
-45.77467642598262 -93.33564522062733 -5.230391033275035
-45.88521901942322 -93.25750900476143 -5.226572150131846
-45.970358960984015 -93.24073709421077 -5.19972337198903
-45.96856370872504 -93.55448016356439 -5.23482195835555
-45.99503449479643 -93.46819491080494 -5.249411076068913
-46.06628296165191 -93.36142165856434 -5.190233631983732
-46.03215968417554 -93.28838504410938 -5.182302139998539
-46.22830294679033 -93.01183871689359 -5.241797988886729
-46.261638882625554 -92.96941145094185 -5.216889430781446
-46.022450907664684 -93.54771792821803 -5.199875039176608
-46.03657975193476 -93.49035911591909 -5.229648482600906
-46.079750327407616 -93.39681969766858 -5.201593934262344
-46.130908531680326 -93.48441118136398 -5.186050544107523
-45.89401612213999 -93.04912246396901 -5.10955155092381
-45.927644540465536 -93.01429557934945 -5.0949107558716555
-45.89017882210487 -93.26460336116182 -5.169130561960709
-46.02366705292397 -93.22244711881714 -5.149805362081661
-46.068717964150906 -93.3425365949706 -5.16062164512538
-46.083228475555025 -93.29261494607671 -5.15630585784427
-46.113513395039845 -93.22291854549015 -5.135471668718932
-46.147477298435305 -93.29412263138443 -5.141497042470312
-46.246378971376274 -93.27011962532976 -5.11242002949915
-46.21540531321885 -93.43653091893943 -5.1535479099375685
-46.27568861101265 -93.42798274896245 -5.115350762795667
-46.03591614156535 -92.9672859202411 -5.005296661474011
-46.07820804195623 -92.95097947228531 -5.001428038650639
-46.083702663956245 -92.97179317090774 -5.014041809067031
-46.28874696639644 -92.82629856969152 -4.971304972608779
-46.19430357001571 -92.94552286533401 -4.959343349420102
-46.246497781835615 -92.93280858620669 -4.944518111513245
-46.29431539163824 -92.81666767706395 -4.945611611353537
-33.439958158473466 -100.4789981282441 -7.149270309731808
-33.63285612607021 -100.75705762405187 -7.153870112811084
-35.57729136282776 -101.9538855427231 -7.146989029022451
-35.69370918174202 -102.14829994630674 -7.151919439307353
-35.69966031516681 -102.07207115753145 -7.148658779490433
-35.64706048934393 -101.99217866070421 -7.146761271315099
-36.449991827500824 -102.47612192106257 -7.146743420976593
-36.592471645817696 -102.51488859477614 -7.1449589207117
-36.540834996924296 -102.4559793666928 -7.143721742970417
-36.78310951643726 -102.88836477491782 -7.156268149666531
-36.91482708481017 -102.94554471587627 -7.155658191880439
-36.85039412031841 -102.8725060227432 -7.154028225786026
-37.545617598487894 -103.251917037383 -7.155533311901674
-37.730888729057966 -103.43639849219484 -7.1599417864763435
-37.66284172839682 -103.32884695159412 -7.156559710541614
-37.62923809793606 -103.25901569391631 -7.154144942409957
-37.75754134902544 -103.45378028641127 -7.160262614108487
-36.88824670334638 -97.9976774650238 -7.150084141518135
-37.87176682760951 -96.5559201703727 -7.160095492483743
-37.716209020073705 -95.81117757901703 -7.143416659963587
-37.962864355713506 -96.49999339823962 -7.148226123482507
-37.91337267604173 -96.44338382323353 -7.150236832010343
-37.99056335964229 -96.49207962417854 -7.145088693566141
-37.97841074032194 -96.43946565403402 -7.143609375316856
-38.574429211247214 -95.53850685328604 -7.157108331953381
-38.56084753985465 -95.49300688789684 -7.1576237299788446
-38.54151878629851 -95.3911496387361 -7.1575216677291875
-38.61774288795718 -95.55283182799587 -7.151595313951219
-38.59348266072684 -95.45191463478147 -7.151947560727944
-38.58805553168398 -95.35940271369152 -7.150346448737205
-39.218882965949796 -95.25481626442284 -7.149397074475914
-39.16585228058083 -94.94510109802123 -7.156693458426552
-39.188098320608894 -94.73047290437275 -7.1551403823008
-39.194395826255686 -94.63496625957414 -7.155993226832351
-39.26499319549595 -94.7012187618836 -7.142797332478688
-39.26764624612351 -94.61527298304593 -7.144340329639495
-39.24856370797996 -94.52196669310233 -7.15002647331499
-39.228752067558176 -94.43577328194229 -7.156013544568741
-39.23475294950273 -94.37244686655947 -7.157302928825985
-39.31220030624724 -94.38143584093632 -7.144545263433069
-39.31870419069496 -94.30810025202572 -7.146535281607133
-39.76290039687197 -95.92451220566362 -7.154938423023877
-39.739414943820655 -94.35915032785924 -7.158009565409332
-39.81222120636847 -94.3572450890164 -7.144669357981167
-39.77304942941535 -94.27238079153447 -7.158100441521001
-41.224268859341684 -100.62912904712364 -7.158855352343695
-41.25443607547271 -100.59964889112773 -7.156039623403265
-40.30271697611876 -95.81940645238463 -7.144326392543408
-40.191852241038454 -95.14120149789858 -7.147109505452828
-40.08801895030947 -94.53745482954001 -7.147466540823494
-40.13085245045352 -94.37735909631955 -7.153783414757591
-40.22032926637608 -94.22270559381943 -7.153500457638409
-39.9756246978715 -93.17687830925696 -7.142733795514204
-39.99465006171566 -93.1038040267885 -7.148180792762734
-40.46200992789025 -94.30221176366919 -7.158941407968134
-40.506857068685775 -94.33633796798459 -7.144075168762636
-40.25268978271632 -92.87883085199732 -7.146925420830654
-40.35207032057601 -92.76193600888766 -7.15165727730095
-40.39731326955498 -92.73936214457977 -7.150525902910212
-40.41597200691581 -92.69318191542045 -7.154496720672708
-41.381284418218 -96.98751977354772 -7.1519922368849
-40.77496600582022 -94.01526154349051 -7.152644561899102
-40.81424857159257 -93.95109171623307 -7.159626582112796
-40.549897381657075 -92.70528009105054 -7.142579083983805
-40.517981800383915 -92.5856957062634 -7.159576767191312
-40.87232779117191 -93.92957121211587 -7.155747499157021
-40.79425530592137 -93.67954194119335 -7.147510377213146
-40.583602973462526 -92.62225608557 -7.150278117074469
-40.613916580563625 -92.5700360389924 -7.154608829937116
-40.65323556432179 -92.57049601887007 -7.151832267076679
-40.83747763010916 -92.40904344385247 -7.160771533553027
-41.25008374627107 -93.78262027010013 -7.146738716421187
-41.244840811648906 -93.7619479671025 -7.152018200988224
-42.41949791949294 -99.11750252246897 -7.160047670116441
-41.315583204920856 -93.76763549657201 -7.145364835100791
-41.377867704886015 -93.72111706682907 -7.1524238348644715
-42.51389533904109 -98.96324845274287 -7.143197030941426
-41.438425510103215 -93.7138145889749 -7.1509658883181215
-42.13746089531645 -96.784119101482 -7.156356898644302
-41.5347882882884 -93.72428168084022 -7.144289073662363
-41.552864578960936 -93.69998805970567 -7.1495840344350565
-42.73787890475389 -99.07602450228218 -7.158862463736822
-42.69199875598931 -98.9588336251353 -7.144939200960464
-41.59052888138071 -93.66962706675153 -7.15582953647581
-41.60943155426566 -93.38076907984617 -7.149789992663238
-41.557112328213094 -92.95263899712359 -7.148971045337013
-42.930952978336 -99.05985796041489 -7.160234152533681
-41.821752390606314 -93.64480162909398 -7.159922370623175
-41.75984267818542 -93.39063266898755 -7.145897271145412
-41.75996883767715 -93.33761352305044 -7.1567727867028825
-41.33861168572732 -91.07791462332968 -7.160912477642207
-41.91132314881688 -93.34675009288819 -7.155546501212807
-41.88447828928822 -93.32486177696751 -7.159710153695997
-41.682945378001484 -92.27937908356516 -7.147879379188456
-41.67764228502778 -92.21294729697799 -7.1568431955226615
-41.92523989684427 -92.95429369440143 -7.145438437434973
-41.71012904044478 -92.27176395227457 -7.148528060711511
-41.75529826042325 -92.2059867696469 -7.156816230644043
-41.948520093392965 -92.94399471284397 -7.147310221113508
-43.288026612480564 -98.93060552817212 -7.153858024468254
-43.2441055834706 -98.86526739593131 -7.145624485920073
-42.09460369881333 -92.92452612043871 -7.152458775406675
-43.35959217411067 -98.92393163847937 -7.155088495254728
-42.17341597697094 -92.93209681658625 -7.152831270061246
-43.53405527565534 -98.86141139974008 -7.153382639715625
-43.47622808011537 -98.79519654747389 -7.144549499645618
-42.20221322382763 -92.29173128805544 -7.14566672478639
-42.13701652888693 -92.24392418317089 -7.1513116176187275
-42.241521072823154 -92.28974197733737 -7.146416974049513
-42.2424019951305 -92.22340944662899 -7.155145658924681
-42.39600012943024 -92.28797516630452 -7.149312972610609
-42.334247676448214 -92.22336280979617 -7.156543759430469
-42.5038906760128 -92.29284917001176 -7.151203393070502
-42.58226780133714 -92.24276606692378 -7.159737590661543
-44.13309280486091 -97.4043683651015 -7.147390001400618
-43.12227556520328 -91.26747272464024 -7.144203070071399
-43.09497103022643 -91.23056993132816 -7.146916300752974
-44.428295377756555 -97.2339158160743 -7.154689896164392
-44.413261052134395 -97.20081888864485 -7.150031866968886
-43.177345837051824 -91.27247676845218 -7.145178526289532
-43.178204562181 -91.20078581159547 -7.151744648280755
-44.479935950755056 -97.12081113935749 -7.14812444034942
-43.25264633200329 -91.1368255554538 -7.159532441983647
-42.80611370458384 -88.62943372804027 -7.147200232381736
-42.77386080142252 -88.5330318288011 -7.15322338415101
-44.569626277168965 -97.12450747524554 -7.156690264422575
-44.56478717111445 -97.02951036482287 -7.147234802404233
-44.5908100319448 -96.9733063410124 -7.144444119686427
-42.86471037922485 -88.50080113821977 -7.155165457173863
-44.635450758786 -97.05139600263577 -7.155869632905309
-44.6317137658211 -96.93577715765709 -7.144895338775549
-44.766837421165796 -96.82762086614358 -7.148418194847804
-44.81387357959659 -96.87621987913398 -7.157173299971044
-44.776086185408964 -96.80579196312554 -7.1474518742820115
-44.888826698355544 -96.66036263022555 -7.146464464049904
-44.24360564325595 -91.77254179277827 -7.1471995575241145
-44.59142640615606 -92.1277180768255 -7.1426793190168025
-44.62730392159182 -91.99232806884739 -7.1542593891474855
-44.61546134035138 -91.9349197325633 -7.157457196539241
-45.561788069572934 -95.39380437853545 -7.144139553241051
-45.57382331447169 -95.31401373927069 -7.142705879491087
-45.64746733014404 -95.32659696219355 -7.151125564024722
-45.72170676067495 -95.07400869131898 -7.151703159193981
-44.47794771752736 -88.81032223651071 -7.151964128543948
-45.7662638254197 -95.06200288772118 -7.156214953970199
-45.76569829684065 -94.91425486262928 -7.152711775197188
-45.77177255304957 -94.75582055899444 -7.1504370992227
-45.82641364463215 -94.71092141255015 -7.155572126981902
-45.749024165504224 -94.2921661277581 -7.143667199531532
-44.93561327155994 -89.0631328708176 -7.14802161471881
-44.906808115957595 -89.01176884645567 -7.150066462462943
-44.89578588919601 -88.92207452164851 -7.154666404664738
-44.86474173659981 -88.84332210300364 -7.158216328514683
-44.991540496098104 -89.1690964035269 -7.143771568603098
-44.98021133707809 -89.08405620833966 -7.1479993074463914
-44.89887834930291 -88.8589147933377 -7.158141862759706
-46.38923919351815 -90.20019894613382 -7.14325298435911
