ply
format ascii 1.0
element vertex 838
property float x
property float y
property float z
end_header
-40.34156167266021 -70.66122688589758 -4.609782706342464
-40.29665406341154 -70.31295787717477 -4.563062904774993
-40.266052327295405 -70.23831037936311 -4.5523733939728155
-40.39739954333693 -70.59891381172419 -4.603285771431175
-40.41466694217373 -70.54367693967794 -4.596543130795704
-40.40676278394327 -70.3949020170755 -4.576827165996317
-40.441924727797755 -70.49090341165393 -4.590384204930449
-40.44587359255286 -70.45061063420417 -4.585269115299985
-49.52232210655466 -83.99311749941864 -4.547716519562926
-49.49053723501129 -83.98592906682525 -4.548002624056472
-49.92233880992858 -83.53747154996705 -4.588462910641489
-49.86691499800661 -83.46993110038642 -4.593701940754392
-50.001973256361985 -83.41275271361644 -4.599045901306348
-49.97363102005043 -83.1300881588907 -4.622353020413968
-50.84323556013046 -79.2744353782207 -4.58045090775664
-50.89095571904506 -79.15927688161521 -4.597900736129975
-50.92189178479726 -79.00027890763809 -4.622223046876812
-51.01016334746694 -79.0906103972024 -4.607007391099488
-50.989696669100994 -79.03389138980044 -4.6161339121931935
-51.067629973275515 -79.07672312031066 -4.6082216937793214
-51.10118351621152 -79.00759297075454 -4.618242303278347
-51.10118158692328 -78.90291761806618 -4.634532929521624
-51.184070918370395 -79.09187932545247 -4.603230499229979
-51.1334053084332 -78.94233285822783 -4.627706021964127
-51.15637082703387 -78.85710817631275 -4.640381017452776
-52.684824681175364 -72.9263176570364 -4.624723072929842
-52.67350920010921 -72.85508702151999 -4.606429048441155
-52.82365147191604 -73.10300574242262 -4.639673304658695
-52.71737666578345 -72.88137138282134 -4.603891225445637
-52.71181824033367 -72.85692645613386 -4.59801949862044
-52.74387711438825 -72.7303669816665 -4.552791592594073
-52.64386026810737 -72.14502719571189 -4.586339851947916
-52.88468437535732 -73.08019368104522 -4.617926601626547
-52.84594253975841 -72.9629701347404 -4.595966951298161
-52.8702079478308 -72.86409244399073 -4.56222036037383
-52.86878544001142 -72.79692373973172 -4.579239121931027
-52.81845327838858 -72.72470750064713 -4.622933989169252
-52.8350432667208 -72.53594402650243 -4.567524296773521
-52.77067125423739 -72.27763267591462 -4.603308342292172
-52.70620780930463 -72.20137657154275 -4.592594031806468
-52.6819617407395 -72.12279211463417 -4.574709789739265
-52.914305693735116 -72.86910296364952 -4.552828648195849
-52.90300024057063 -72.75510905078701 -4.6136556141174445
-52.88888591868494 -72.70819243386568 -4.6040657317171805
-52.90846459140507 -72.55029132190471 -4.557079976656092
-52.87293745469733 -72.49463638453871 -4.586912775792816
-52.817705301153865 -72.28442652547623 -4.597729440225893
-52.83755223472709 -72.1864115138866 -4.568720786116836
-53.187636625707675 -73.47100282487509 -4.628024323307621
-52.94757063943206 -72.54095561639998 -4.594593305666113
-52.965393189703 -72.47266896604754 -4.622016507950281
-52.95221623883306 -72.37133117283172 -4.598598282614816
-52.91238524104864 -72.29089639694652 -4.584410486380218
-52.91449904299399 -72.19759717164311 -4.559685889701129
-52.89004096773137 -72.07328951179467 -4.635534795734707
-52.90490712306247 -71.9609081769515 -4.606767834204758
-53.2057543126545 -73.12394688716442 -4.636329568729972
-53.16636027647895 -73.0653579236983 -4.63231258098413
-52.994639923848005 -72.25591356258798 -4.562039618215772
-52.961075944612496 -72.12720777756658 -4.639038480205374
-52.96665053789287 -72.07589762878891 -4.626228732498493
-52.92316645238049 -71.92130884145836 -4.594936960164526
-52.914493428597716 -71.749195304381 -4.554205041731708
-53.05255096719736 -71.99418981128426 -4.595666007601912
-53.05052402499332 -71.68247606471056 -4.639647648137327
-53.0262838205168 -71.65952452875732 -4.637205511429176
-53.08300727214884 -71.67773226485652 -4.6353424952879
-53.094424188597934 -71.58233146280155 -4.613894687888217
-53.19971037729233 -71.5974043392771 -4.606368588275645
-53.12595627531498 -71.48859209592055 -4.590726472469046
-53.67550290707705 -70.36644183272671 -4.630755761053827
-53.62066691313054 -70.26813558894405 -4.618268709377078
-53.644671156866465 -70.124924529968 -4.59440821146412
-53.722476955453565 -70.42679232945243 -4.637622391875454
-53.77415382567667 -70.32338013902232 -4.618602251461171
-53.692589895535136 -70.17568062009401 -4.5998573088896135
-53.71410387631003 -69.97990589769918 -4.567842930677424
-53.779755306115945 -68.50429058072488 -4.553607837301945
-53.89177036593267 -68.5780863114241 -4.5595058775165525
-53.84249238283442 -68.500914550546 -4.551164291188277
-53.564521376641544 -67.09923488888947 -4.644600572286391
-53.56528397780143 -67.0153037046225 -4.636533241243495
-53.971832846595106 -68.5652022289349 -4.555251833475131
-53.584209217029574 -66.78959519043197 -4.61444173189551
-53.56892997766463 -66.38303067086066 -4.575644784367331
-53.76047287553953 -67.01983561421925 -4.633450706256638
-53.60490284199939 -66.41217451382157 -4.57777055529208
-53.81201918192734 -66.80136028258444 -4.611454714452206
-53.917807155967004 -66.83424474783439 -4.612733587042316
-53.91167559772703 -66.77230651794542 -4.6068986661837945
-53.70118672983104 -62.67980771801854 -4.632790948196673
-53.74501938871916 -62.67341714634365 -4.631834991838308
-54.07064691648189 -61.45995797893849 -4.553317971471068
-9.565166668087734 -93.66079303792073 -4.486885763393866
-9.618477543126794 -93.4617936997998 -4.474545370828164
-11.08110972805678 -93.1166968465525 -4.532205646112969
-29.74211141456797 -58.54461211133442 -4.535509463980048
-29.837720140831756 -58.49956008762355 -4.5275788302547015
-31.29804360451321 -59.041548756972375 -4.530681195793555
-31.39682941415476 -58.95344623608358 -4.518211335380441
-31.534659102659994 -58.89749076671752 -4.507644197128622
-31.61205372882589 -58.851288513771095 -4.500070096211219
-31.710427510806667 -58.820818807018505 -4.493576164004949
-32.38492797161659 -59.03569342661837 -4.491455685688108
-33.977516558536585 -65.68912644105656 -4.448334760595591
-37.606491912420715 -74.70676523921631 -4.542242859934328
-37.68185969775621 -74.58767457187298 -4.533878410385096
-37.74304104361626 -74.47089886745367 -4.524745525652328
-37.84109293987021 -74.3579319881147 -4.518391579246501
-37.917950878070904 -74.28889560461073 -4.515577489826807
-38.041917161116075 -74.24391598840766 -4.518615770686484
-38.154040930498596 -74.20010207705612 -4.520967579280507
-35.16080026761115 -60.15316649805915 -4.507326672990367
-38.28163428835198 -74.13398191128861 -4.521773673719984
-38.32171935757771 -74.06777226280431 -4.516770073788403
-38.365172007869035 -74.00258744635619 -4.512060254246786
-38.39890440560365 -73.93864144732711 -4.5068298556017545
-38.436238244845114 -73.89660686309577 -4.504390579902808
-38.45859620757353 -73.83264344291705 -4.4983552316760225
-38.40921697538729 -73.45629887500552 -4.450408098247875
-38.49921808563596 -73.7684529836315 -4.493471960227138
-38.53814975733147 -73.7058530986013 -4.488645838018142
-38.448049615461194 -73.50252858897517 -4.458492992710481
-38.57153870231439 -73.64094660237097 -4.483150286730455
-38.546570956091735 -73.57234924595821 -4.4733287485561135
-40.31095162794867 -70.14971817911925 -4.541925407615867
-40.35376987755673 -70.08028904192125 -4.533959631296537
-40.381561078881056 -70.02672370975321 -4.527592754067934
-40.6375554615354 -70.06400027211028 -4.539489664530604
-40.66164443095193 -70.03144311940139 -4.535864471014213
-40.65627788265295 -69.98708932576426 -4.529763193822486
-40.78120913767648 -69.95401695351987 -4.528752671948927
-40.8331805686929 -69.89163871573302 -4.521773184214807
-40.86421485042178 -69.82224809590382 -4.513330563219754
-40.911313663459566 -69.75873887232909 -4.50601156411212
-40.94997783073331 -69.69120079697677 -4.497959994224681
-40.979182954397714 -69.59869910606913 -4.48622062590647
-46.263508870625806 -91.01397806472154 -4.5258722769834
-46.34189755626383 -90.9595126835415 -4.530012819677187
-42.56947418901309 -62.4227680982405 -4.484278736258565
-48.341115057906826 -84.83232209146553 -4.455829148795049
-48.48578541747941 -84.95735075365721 -4.450227769153197
-48.43164898768459 -84.85962041884315 -4.456321865084212
-48.52617550991744 -84.9527467552494 -4.451570171194628
-48.64228420873166 -84.85836103504758 -4.462035936568301
-48.806700641893585 -85.08370973128424 -4.447811032748432
-48.798042044625355 -84.945349730971 -4.45877147628652
-48.71331387614354 -84.7979536604109 -4.468499409889297
-48.762269666041384 -84.75180570402297 -4.473397740062666
-49.08577957696409 -84.09941380272174 -4.532373227939015
-49.443931365479635 -85.205513628431 -4.447646144098444
-49.18745692930941 -84.03340384930078 -4.539572556964193
-49.27937103810707 -83.99652793173905 -4.544104841812046
-49.527067621720484 -84.41363666909939 -4.513334723436557
-49.503972622639175 -84.32532745157164 -4.520407825257141
-49.41585317700418 -84.01373119760574 -4.544785994802916
-49.366717349869774 -83.99393787164783 -4.545672299428913
-49.601904460680814 -84.38868773347676 -4.516078382158695
-49.45454129202679 -83.99602714664772 -4.546656391097973
-50.274847840999854 -81.77600021309924 -4.465747754267819
-50.350872809936945 -81.80586108813043 -4.462439364952283
-50.4005624593893 -81.55332497285043 -4.49252413773082
-50.45995823292466 -81.4451198312203 -4.505415667248157
-50.443010352588615 -81.35578788341134 -4.515958233694324
-50.576283407374 -81.23745275299126 -4.529911605186621
-50.53162421442192 -81.19603454842968 -4.53490545503235
-50.619483561754954 -81.31222545708525 -4.520837075136036
-50.69779589843304 -81.21562243412815 -4.531831200075763
-50.768583423396755 -79.96252669079125 -4.474362716894629
-46.867288814799196 -57.00767955627418 -4.457925257065638
-49.4424425566122 -68.50671131977616 -4.4493910800034495
-47.34836270966916 -58.23988613369367 -4.51754506288114
-49.541283128578755 -68.50418734293314 -4.448177683886942
-49.70378895841565 -68.6442515979449 -4.469815512651503
-47.3244958360206 -57.34621648200118 -4.463231347250908
-49.760570632736425 -68.6204414017167 -4.465360854264057
-49.7941978352868 -68.58637653884736 -4.459395294810404
-47.75113938160282 -58.47989373349118 -4.518800270905807
-47.77421412418218 -58.31597025032903 -4.507891856923529
-47.84768346047979 -58.388503570542774 -4.510017194004239
-47.91969185753982 -58.45348518927973 -4.511566295873099
-47.893287480585954 -57.58771648835581 -4.459429823819841
-52.67633967873355 -72.29862677616212 -4.52792707511021
-52.80064498187345 -72.69354764630855 -4.528702187368193
-52.70293782325038 -72.28716822893871 -4.519845153253633
-52.700786615155195 -72.22634789577907 -4.501999725230842
-52.937979243804 -72.84841461197202 -4.541221645806337
-52.956111039219024 -72.76283235070187 -4.512486157607848
-52.895040619659056 -72.56657894777238 -4.468711239933414
-52.8838454504855 -72.49378020934805 -4.514072977167848
-52.88096087005173 -72.3465337864835 -4.504893324996558
-52.87330085642722 -72.28731813722776 -4.489197464063774
-52.81197576831928 -72.17937622172381 -4.4685257054538186
-52.98182247628577 -72.73211525680468 -4.497456979939913
-53.01615034205266 -72.69407269088077 -4.478248563284266
-52.97275347595737 -72.52804811408701 -4.538119964108617
-52.943849322917984 -72.48817921894741 -4.532852432945684
-52.9329663754467 -72.34323040058098 -4.494110819681417
-52.911229502240936 -72.26728407548157 -4.47634873732788
-52.87368446498159 -72.15908780273512 -4.451534105331406
-52.9036786843497 -72.08707152277498 -4.5320901613091715
-52.87497912271892 -71.9649072450566 -4.503401228407914
-52.83201169316588 -71.76472527726852 -4.454659352503156
-53.13015278173139 -72.95891273376168 -4.522765899527447
-53.14732975128972 -72.84360023603858 -4.4876721478650765
-53.109664857484006 -72.41885692504083 -4.480694957751675
-52.96453061898833 -72.11570090033908 -4.530261946706352
-52.956803920968866 -71.70297091470987 -4.537805723010949
-53.24644036128893 -72.79152773730087 -4.448504559261209
-53.19462349537902 -72.35705336411637 -4.446676833159106
-53.03365132917531 -71.87705218843637 -4.4560782010813025
-53.01605283284651 -71.71043432471986 -4.532408102275728
-53.027668376258035 -71.68297539017341 -4.5243103814212695
-51.67677322157731 -64.72408816535768 -4.455477317835831
-51.64445174280838 -64.7122367461931 -4.455030675510671
-53.20848282029122 -71.54588051502311 -4.468745780205616
-51.76909126179882 -64.81606831640578 -4.462192444856498
-51.72291279611133 -64.76697035063371 -4.458538151609663
-53.22126450581478 -71.29678714557846 -4.54017832027998
-51.86938384333256 -64.81715558637084 -4.460107518715876
-51.806852193436626 -64.75890635602184 -4.455935992712121
-53.003912377513096 -69.48750666453141 -4.523202316863591
-52.994927300201674 -69.43726772159395 -4.515439486950274
-51.96900572525593 -64.80720836114772 -4.4569959523260545
-53.07799257084932 -69.49628201668223 -4.521348531480041
-52.07083698824896 -64.80187042512924 -4.454271820319962
-53.38088043366456 -70.31368852887569 -4.475389546279007
-53.15608114462296 -69.52072147279473 -4.521795532204119
-53.1457489162554 -69.49914119894238 -4.518756377887952
-52.143590861415504 -64.74216727268137 -4.447021625465579
-53.5148946499977 -70.58683706586257 -4.51729218337919
-53.44396064006053 -70.4836000091565 -4.503097940316066
-53.46489367554476 -70.45050333998866 -4.495339453122163
-53.390713674553226 -70.32835538103357 -4.477503361889424
-53.39467388975785 -70.25825237341773 -4.463905202469498
-52.41192810899442 -65.4131229506402 -4.505423686891792
-52.35634676421572 -65.36080106017205 -4.501574702029912
-53.57486562373665 -70.56754880279101 -4.509230853901501
-53.54123743719136 -70.41949512430065 -4.483974172437267
-52.50338213915739 -65.43931787723665 -4.506006166388674
-53.65622433501278 -70.27164463917288 -4.447810896833938
-53.459016769273035 -69.21557565675029 -4.45851315801311
-52.59906554664972 -65.42278955545966 -4.5024443077519365
-53.73818077953441 -70.37110563929366 -4.460332305234326
-53.67352123387271 -69.75227952034183 -4.533881994206628
-53.644594346218916 -69.6591988945808 -4.5205463220406035
-53.60267832761827 -69.52230072477839 -4.500808024328431
-53.5834497963416 -69.49892940334098 -4.498012890858714
-53.54774481703806 -69.35689663789756 -4.476992671622448
-52.70568833047149 -65.35729902242771 -4.493969189769833
-53.73046432517593 -69.74519138583999 -4.529818967769484
-53.6944375920154 -69.64511154748027 -4.515775439764109
-53.66617858451811 -69.54392593582006 -4.501085195992372
-53.656211236612094 -69.48368664821443 -4.4919697208387595
-53.618004909679826 -69.37465123333108 -4.476417114913359
-53.807004875003145 -69.74210517511412 -4.525353560240989
-53.785118873164755 -69.65243661147545 -4.512290711651353
-53.77610679037743 -68.38043592746702 -4.537757100193501
-53.81584957203964 -68.34836100604524 -4.5323808866995225
-53.772759447271575 -68.1683412705357 -4.510514318821798
-53.81048368702778 -68.02465757485659 -4.490811796480085
-53.75940582593515 -67.9318637254675 -4.480415391742737
-53.747971291673856 -67.77151504862363 -4.460054339815038
-53.70783968068613 -67.70731524789552 -4.452977731867157
-53.88295183887769 -68.06312258920514 -4.493481443367718
-53.8639950301159 -68.01992355879855 -4.488520795070588
-53.80052283237109 -67.80278198240275 -4.462479639405298
-53.779362488636544 -66.11396796456138 -4.545902712686301
-53.65981630528397 -65.34636824459204 -4.474286523183021
-53.58098685359581 -65.20538465799669 -4.462242357867569
-53.80300551310529 -65.53862637267781 -4.49009941714019
-53.70842202679168 -65.35630686231485 -4.474349708173435
-53.86875707488315 -65.7453327730213 -4.508770166116272
-53.7839237108583 -65.33405256469507 -4.470804889048038
-53.85778365498517 -61.14914672161893 -4.536722726583654
-53.963443496988404 -61.09419434917049 -4.532032217689387
-53.84773701739163 -60.73533420617794 -4.511481019622368
-54.02268595159331 -61.043886892856705 -4.52816778190085
-53.96395772103041 -60.87176926136196 -4.518302586111159
-9.363947520468258 -92.8848840285541 -4.414632238144369
-9.548710361983957 -93.14541092957043 -4.445837777227017
-21.30010711354679 -83.45597146359452 -4.348062025563792
-30.63509584221804 -57.791616826257034 -4.426743956929317
-30.74831787291241 -57.58954661605999 -4.402204018725536
-32.97700310517474 -65.26876229497691 -4.403483887968895
-31.34965588200108 -57.96627750680731 -4.419184087204959
-31.403368963838624 -57.78347086129304 -4.398699934959565
-31.33154403735562 -57.60821939235393 -4.383528475568835
-31.525963968216992 -57.99806583183148 -4.4163085479043245
-31.41399940843513 -57.50216809275389 -4.369797221450127
-31.480356333714248 -57.38516373122019 -4.3555334432705415
-33.37820066039221 -58.25037507307076 -4.376957187450058
-34.04454166660424 -58.300859764100906 -4.3588109034397275
-34.134863581935655 -58.27500696985061 -4.353175478486662
-34.208216554398206 -58.23849862646105 -4.346862489168596
-38.408984591774285 -73.39047757050757 -4.442465434988586
-38.44658156417628 -73.30643270635932 -4.43478135465965
-38.48787904507854 -73.2435884970586 -4.429861827121195
-38.50955449521255 -73.1807485144435 -4.423635756048208
-38.579592553073255 -73.07830078850509 -4.415689630157525
-38.634090322673785 -72.99767547856709 -4.409331388128228
-38.91055437660151 -72.98246300573814 -4.4255712330760755
-38.964912389196755 -72.94553378495111 -4.424541669487551
-39.009574094755735 -72.90693709200526 -4.422684255383095
-39.05291259618021 -72.84790672636602 -4.418157837992595
-39.07829040988326 -72.7902436573408 -4.4126052906384885
-39.12111027426192 -72.73251673608179 -4.4081646778090295
-39.16236497102102 -72.6736630404968 -4.403453204660604
-39.18311848462619 -72.61294878500917 -4.397128115008022
-39.235280568621846 -72.55992435680747 -4.393793908627854
-39.13032042816485 -72.25004967165891 -4.347312115788382
-39.26737300913212 -72.50199969507747 -4.388517858988008
-39.28038690615111 -72.39794965715139 -4.376057135879969
-39.19596078866371 -72.30295125731249 -4.358368945146818
-39.8922527380308 -68.98510191061217 -4.374783050867712
-39.992188367086484 -68.7944475409795 -4.3513383866003315
-40.43990530645706 -69.28630767047092 -4.42981973277119
-47.68894271213126 -85.93179578793531 -4.349629538900629
-47.66377400432375 -85.6540185520906 -4.369921363955705
-47.83333726670214 -85.8053692951984 -4.364339686532092
-47.78104438568325 -85.76142093191001 -4.365967148565547
-47.97249120072045 -85.92748124796768 -4.359462880106469
-47.93595146872221 -85.82365666747259 -4.3663887863876765
-47.92776399094778 -85.69730104959353 -4.375756758942843
-48.72500393682821 -85.1027899978416 -4.444519873166808
-50.04556521134711 -82.34056540466752 -4.3974723272328715
-50.15722467577992 -82.34435434035615 -4.397933782807508
-50.15335160847091 -82.25577475592293 -4.408310438094375
-50.117149392339506 -82.21341313228587 -4.413014376457292
-50.27866253371072 -82.2537669926474 -4.4092389427647465
-50.269838528481934 -82.07306941154468 -4.430537440590559
-50.60911410351841 -80.78002318057271 -4.348467813408899
-46.93342375068648 -56.745313777474 -4.439456234653504
-47.08537581115016 -56.85348867341264 -4.44095714019129
-46.83164486771241 -55.456894719099395 -4.363632403019318
-47.342588733204835 -56.85576601292796 -4.432470824422326
-47.85793115123004 -55.88272258471034 -4.356348038135781
-50.28439158516289 -63.898690385679416 -4.408831080328955
-50.244038335977926 -63.85198030163217 -4.4052932688649395
-50.39867090212711 -63.97838188659087 -4.413661232166127
-50.34163920046068 -63.94937884340649 -4.412277429097506
-50.4708789130939 -64.01039717813966 -4.415031677806539
-50.557413544158116 -63.97500166039325 -4.409594285624771
-50.646210400658646 -63.948285576088644 -4.4049410276743535
-50.71549589751861 -63.87443280162277 -4.39629215887504
-50.74855463462126 -63.777741032637806 -4.386242550285486
-52.8904860848889 -72.45022081990554 -4.4339818341612265
-52.87646786159338 -72.42957445797903 -4.430614632849306
-52.85182152577468 -72.28805521978585 -4.390967195290633
-52.852360687404655 -72.15393900485513 -4.347303108146473
-52.708460871923265 -71.76451821011402 -4.358384304420151
-52.71486362966069 -71.74241532125755 -4.350458432456212
-52.69160308367853 -71.61205859847841 -4.430426979303542
-52.93588902227105 -72.45094221018752 -4.424147445199106
-52.915248435691296 -72.36486657803611 -4.4018894561854545
-52.92343686123897 -72.26461341550703 -4.36836030618391
-52.903757545132656 -72.16526876372143 -4.39477156341338
-52.894295463954904 -72.07982730784951 -4.424292356030432
-52.8129912567541 -71.6715052913053 -4.431233760369779
-52.788934144372995 -71.59219452364852 -4.4121116720934515
-51.31552488007057 -64.50764385469773 -4.442870308355275
-51.26542823788369 -64.4518394291598 -4.438697029394161
-52.97523905383932 -72.12611499306819 -4.423485113769496
-52.8817360696123 -71.73823555106856 -4.440376054096094
-52.91524819504152 -71.65331847978419 -4.4121364618900945
-51.38240663660814 -64.54727361602767 -4.445166106678052
-53.07897568718808 -71.8398907760461 -4.439231052418407
-51.483649570779065 -64.54754732898874 -4.442903792246889
-53.10359003079087 -71.82775715319701 -4.432245807790758
-53.06218613539979 -71.22158212609529 -4.4064822465789835
-51.58716280605952 -64.51307028985276 -4.4373137510348455
-53.127453024557404 -71.20490657701717 -4.394882897592964
-53.192059609081696 -71.20188664401455 -4.386667691001601
-53.295806841652876 -70.51183744615241 -4.3618238695111105
-53.33011958484649 -70.49917219205324 -4.35598877283189
-53.54809657924985 -70.89940900021872 -4.422662754130592
-53.51680889542338 -70.79144548533235 -4.402517301200014
-53.5372371507882 -70.69374359405147 -4.379425222954932
-53.49004658896538 -70.61928018007293 -4.3677268023568345
-53.492447919329514 -70.53226415606458 -4.348524197532485
-53.598234378896 -70.71754182393967 -4.37866877576117
-53.57310311514835 -70.62007249130897 -4.360026653470479
-53.65555305231726 -70.21088832477352 -4.436442776232448
-53.72798590406408 -70.19181570977481 -4.427559416747944
-53.69580182088424 -70.01901757374145 -4.397380848808314
-53.51620766768089 -69.14000210788316 -4.4436309967706205
-53.772228780834325 -69.86123075213588 -4.362109891838335
-53.406965708386466 -67.04004340787168 -4.375471920326713
-53.54816182894268 -67.49835469750607 -4.430789956615765
-53.5609738702328 -67.38923169375614 -4.4162385994867215
-53.520874362846996 -67.20088000882149 -4.393004098866401
-53.486042205268 -67.13747105146848 -4.385822617467958
-53.461132789756675 -67.04502021073192 -4.374535470922448
-53.429120683312355 -66.97115104578468 -4.365905892957597
-53.63014919613259 -67.49469457733161 -4.427823728833452
-53.62715053137043 -67.39420424937462 -4.4149111051341166
-53.56961440142701 -67.21564537687937 -4.393490938795305
-53.718803351488546 -67.33307417738021 -4.404238955640987
-53.849861926217564 -67.28366233074406 -4.393855176476761
-53.81650521055273 -67.15174555465907 -4.377775287960429
-53.72616072264422 -64.93788580354621 -4.433818517706076
-54.02054432181746 -59.36128309351462 -4.425002817844758
-54.01916985909965 -59.086556676578645 -4.4081700141151146
-54.005262019330324 -58.561861372975386 -4.376277189071856
-7.067923757627078 -93.0083415777718 -4.289832988447763
-7.452435852977885 -93.02328054468566 -4.313678424707356
-20.6178478183015 -82.97789950809123 -4.2627706451965235
-20.64643057238674 -82.85782354719439 -4.253706133784857
-21.429450351866134 -83.30396295873112 -4.342610745520474
-21.427291366050834 -83.19242613018982 -4.332524458842806
-21.59219791627114 -83.03114149231726 -4.3283926567671465
-21.69075458541379 -82.89102041307932 -4.321953691412304
-21.665017755622177 -82.46209903502405 -4.281576766497789
-31.451099053222354 -57.114513738390485 -4.3290973009977955
-34.27603913750414 -58.13605244486975 -4.334241459962628
-34.23361654777865 -57.92423900289441 -4.3143993300631465
-39.09837182175191 -72.20200536832047 -4.339019264755483
-39.12764784844246 -72.14138721412735 -4.3330583956042386
-39.17458359813525 -72.08556731829617 -4.328833401655158
-39.21073500306228 -72.02971823412952 -4.32386642122286
-39.25299076696602 -71.97529255384951 -4.319452608725898
-39.49792868102336 -71.98029351707419 -4.335884109011621
-38.732597807582735 -68.31101888619183 -4.253142912410862
-39.538761837747614 -71.92570551194908 -4.33131009132131
-39.51150283123805 -71.85748122209368 -4.320534908604872
-38.850918362736905 -68.44602559511327 -4.274532789964885
-38.78389085025955 -68.25639662178828 -4.247046850332472
-39.63258051085326 -71.82131485438622 -4.323501127724918
-39.693434635527105 -71.77265097372889 -4.3209300842487695
-39.73172428483308 -71.69820003403997 -4.313416078128887
-39.799399126607724 -71.58939037748546 -4.303112272031864
-39.83493406446128 -71.51504024913473 -4.295318055747425
-39.72031909299034 -71.23892430567331 -4.250443601250871
-39.8710594374106 -71.44104477118822 -4.28757711541741
-39.86578302441419 -71.3567333006012 -4.275744641049676
-39.80067942846942 -71.2998217444581 -4.263871391212993
-40.16480911334702 -68.52537464859022 -4.318805931316078
-47.32056282277938 -86.2677162368839 -4.31045815268434
-47.25777330235225 -85.90609927379877 -4.334971587713172
-47.401655903591276 -86.22622461230434 -4.3167602155923115
-47.63600000336794 -85.96613139840036 -4.345219235577289
-49.30856436345206 -86.99053706991285 -4.299632590085523
-49.294777760100686 -86.7731990188171 -4.317515675502901
-49.35821311313407 -86.95522984643185 -4.302972879473943
-49.81024312507005 -83.08193849614986 -4.307684793603501
-50.42977321941623 -81.35994569771987 -4.258634082161159
-50.47006085415424 -81.31999467791701 -4.264974580238062
-50.521085813770284 -81.16562364837583 -4.288869747995367
-50.56307198846967 -81.08175481921533 -4.301836595783573
-50.644145381676005 -80.92520695388266 -4.325981539937582
-50.629433672858674 -80.81317304704626 -4.343279033494687
-47.13881071742855 -61.67822263924079 -4.2768223922984046
-47.21469035498015 -61.69129193939578 -4.276063601495209
-47.304667902817364 -61.679705061734346 -4.272530492432198
-47.4233192877942 -61.67601041435361 -4.2689462144676265
-49.3450656816445 -69.01114976682986 -4.335155676257221
-49.35904625033194 -68.96218602607992 -4.325563674697256
-49.52760669649463 -69.01620667832793 -4.33702843407998
-49.53586584204489 -68.97498066399001 -4.32882151746078
-49.634111187321864 -68.74237548714937 -4.28265493967297
-49.60698713976431 -68.71693163298406 -4.277599603300437
-49.75718012673193 -68.74149099335916 -4.282429556082806
-49.82308220411908 -68.71640966721051 -4.2772691505432014
-49.855267075600516 -68.62942618847573 -4.259731671427874
-52.84970414304976 -72.14207470385875 -4.343959115158095
-52.74377799587097 -71.70723645691527 -4.334910324694341
-52.70105501505363 -71.57146136741922 -4.298307200933076
-52.70413649971758 -71.50126045673957 -4.2753935596521195
-52.89698704721732 -72.15452832519094 -4.338401424565815
-52.905734567063014 -72.05286607758927 -4.303357782696399
-52.8387550127488 -71.7493079856652 -4.333158756584271
-52.82389730401916 -71.70513843883032 -4.321783663846617
-52.74855216602214 -71.6209655473148 -4.3069854311939695
-52.74059700359159 -71.4513558783226 -4.254155301352096
-52.740238505530286 -71.42943871338949 -4.247165921995703
-53.03524127572185 -72.17979547609855 -4.317583316442452
-52.946395026956644 -71.95951177274706 -4.26442529619869
-52.93732827983979 -71.75479235478551 -4.318723916877443
-52.911336331573345 -71.7052668705176 -4.307810236265462
-52.88916747919288 -71.56027837128973 -4.266289656228372
-53.08835276551142 -72.16126029575231 -4.300326735472279
-53.016467203245185 -71.8200789723472 -4.3252416277965855
-53.015253267429046 -71.76860563446662 -4.309885548441518
-53.13453236871887 -71.01395607886204 -4.346385402575612
-53.41823557647933 -71.88145820182936 -4.270086196969649
-53.344571302775314 -70.76745994162295 -4.261142269407605
-53.06106927184701 -69.44090900934961 -4.327054469260018
-53.08610078397877 -69.4122076514525 -4.320005729534205
-53.34310659964287 -70.34041862927293 -4.319653681045503
-53.566726439844246 -70.32830712208735 -4.297001063270916
-53.55678393538433 -70.15601802340313 -4.259973130016663
-53.41163836437553 -69.16377216157566 -4.25213623316485
-53.39455463038608 -69.13036128184028 -4.246670502397381
-53.63445807732786 -69.64877515684373 -4.3312969256398715
-53.58699530993474 -69.5804565255578 -4.321403056505416
-53.577345034303946 -69.46029638828894 -4.298973975870302
-53.56085907878408 -69.40866885668372 -4.2901086846420755
-53.528988425742476 -69.27625793424073 -4.266613021008664
-53.478513175213756 -69.22690567677515 -4.2602446051512395
-53.752393381827105 -69.75365004073939 -4.343141274652709
-53.70820828328933 -69.6484917512446 -4.32621744966181
-53.586057178412666 -69.31816006433559 -4.271058518172653
-53.38676875127932 -68.01242434774153 -4.266548160961231
-53.80601763735164 -69.73591455651282 -4.3360089445482695
-53.47371417675332 -68.07855527383009 -4.273622887511717
-53.44252446911319 -67.9298635982995 -4.250746514115681
-53.753008029667185 -68.4922553142707 -4.328132154262763
-53.74253699439556 -68.40801577823487 -4.31503895940411
-53.74445786808971 -68.32248625267668 -4.301123666185477
-53.858105291769434 -68.50393634985076 -4.3250748432272275
-53.806785026881606 -68.09990411398356 -4.262274153389849
-53.44526501906313 -66.46452631615782 -4.2996108516426705
-53.932583904342614 -68.42912332930379 -4.309506083949176
-53.516576004155304 -66.5154066687771 -4.304132916869147
-53.512322596373494 -66.38855305547445 -4.2877861785496245
-54.02661525903858 -68.29057890395272 -4.282721646842634
-53.965920227311166 -66.84158009838838 -4.3331164420008825
-54.014378269918815 -66.79448001121615 -4.325517571515167
-53.8631456079476 -63.973259339467475 -4.338617785908326
-53.83597489783102 -63.93104506291383 -4.335034250383638
-53.80925711403494 -63.81189912928396 -4.324125661808146
-55.129255265933494 -66.56066138296954 -4.26003668464515
-55.17705267090657 -66.56774576551874 -4.259382652152003
-55.10329209573938 -57.30234976256391 -4.285005881229538
-55.16559942471702 -57.30275770915223 -4.284416402652533
-55.281693813098116 -57.33922785718552 -4.285407388231353
-55.523601685526444 -57.37400122517802 -4.285045684287079
-6.397262774067791 -92.75110191537331 -4.229493560933563
-6.505510233464058 -92.53007227324298 -4.217962947964887
-7.012115390905528 -91.78995684940101 -4.187690058677285
-7.287774835201013 -92.03286783908744 -4.224000975416542
-7.326928263865476 -91.84061535312493 -4.210607872712897
-7.816873139718346 -91.29606777906181 -4.195149114922277
-7.856434395463829 -91.11095295959909 -4.182259770125039
-19.899244850367424 -82.6078005556501 -4.183979609706549
-19.993569057569456 -82.69817006801014 -4.198179200494354
-20.037029722295998 -82.45565206919433 -4.178640787135583
-20.039766655006606 -82.22510536647502 -4.15750656400573
-20.354044603513266 -82.71447419921697 -4.2223353406071995
-21.026350362251407 -82.08230557713371 -4.206596183410554
-21.6417199717563 -81.16352432769062 -4.159701304038063
-21.690720858080585 -81.25951086560897 -4.171892713385351
-36.18403458670882 -77.1351128484772 -4.167708540294377
-36.256627188401616 -77.01624823911564 -4.163950443469007
-36.36277030323332 -76.81007094554855 -4.15524510590147
-36.454614913464525 -76.8989336107044 -4.172700458622866
-36.38010945406136 -76.75546623431863 -4.151828934760101
-36.42324947070972 -76.69719130966114 -4.150596527673837
-36.458738799822235 -76.64042588697765 -4.1487442172101385
-36.49248614826443 -76.58434897868774 -4.146743159384227
-36.64603984113384 -76.81201935391057 -4.183608804157949
-37.23569345285193 -75.90723507641806 -4.1547104800014525
-37.30357497871204 -75.80219866451112 -4.150918472444721
-37.354752471363426 -75.72408640915405 -4.148125072523054
-42.63018208372806 -97.27217603858779 -4.156655266247013
-42.83360548020959 -97.20388427612212 -4.1665594112144735
-42.75814255563118 -97.17019833127331 -4.165421304434245
-42.92996505606358 -97.18120309669429 -4.170983230250718
-43.06642159626501 -97.04728004712992 -4.180800878461152
-43.178856348612385 -97.21772045845907 -4.1777018473721785
-43.14853155409506 -97.06133796721907 -4.183176042247798
-43.31578496991207 -97.0683732998454 -4.188392302296398
-43.50936674897008 -97.01567531645536 -4.19667915260187
-43.46876474675907 -96.87555769164676 -4.200950471941956
-38.989413888114875 -68.04583054370028 -4.22343904286055
-39.71643877201986 -71.1748046849503 -4.241396569040626
-39.74227355854175 -71.09833128492124 -4.232516869314094
-38.9972076678714 -67.99667011027344 -4.216813040596765
-39.77206953335664 -71.0420053032016 -4.2266706815745065
-39.80234256663185 -70.98542976972924 -4.220732870096153
-40.086770376355794 -70.98695378897374 -4.238762376341706
-40.169360017890895 -70.90809565990642 -4.232932384988831
-40.230901639672524 -70.84399210605517 -4.227837341483465
-40.2599043631184 -70.7905481199599 -4.2221074721999345
-40.308929757845014 -70.72222011927786 -4.215513153797131
-40.34707013838443 -70.65360762690351 -4.208163419072366
-40.29353011265943 -70.40666173296302 -4.169652814537673
-40.2211867291152 -70.33840964453313 -4.155496072334478
-40.22025705942707 -70.29540834791914 -4.149204117858332
-40.36601334936787 -70.59921252895626 -4.201584857583438
-40.394222402620834 -70.52576877888484 -4.1928808364486
-49.144844230164615 -84.17854819694857 -4.167362647973122
-49.249408647958106 -84.36424192850178 -4.148373943945833
-49.22179648237311 -84.22476925657939 -4.1639194457728745
-49.19201273820937 -84.11293745495314 -4.176162647064344
-49.399515511984326 -84.12066339506931 -4.179790175393805
-49.38680776777194 -84.05919501807878 -4.186606797952659
-49.49728912896156 -83.95386754592543 -4.2010050905434895
-49.58840974629449 -83.91059978563099 -4.207524335911982
-50.19455379850963 -81.7959703257211 -4.18970954099185
-50.22009749593603 -81.79903090298637 -4.189577969082269
-50.36597179840323 -81.51658948151795 -4.234172529748948
-49.346229160174374 -69.14594952786999 -4.166352593843727
-49.40547607437771 -69.11258179501318 -4.159616422067293
-49.50756179584448 -69.05931155801578 -4.148727068912478
-49.50099897921264 -68.48502811866898 -4.23126764285192
-49.440276700423915 -68.43038524087645 -4.220289020611964
-49.53224705370749 -68.5194007977773 -4.238114319547982
-50.03174513647149 -69.12760471948883 -4.16915409913954
-50.032402389021264 -69.04001506723436 -4.148471467926449
-47.001740486149316 -52.37239742052701 -4.16872778812143
-47.09449130211989 -52.458841471900655 -4.171189229311226
-47.15947454346926 -52.384268438859145 -4.164461222556912
-52.726269854817474 -71.58996796176037 -4.178356592393781
-52.67523287180497 -71.50935578783218 -4.15823310439848
-52.868176165789414 -71.74035531444628 -4.205562471536889
-52.83439471574941 -71.667337768295 -4.186543603288814
-52.785531942692394 -71.5945509371168 -4.169828900377272
-52.805193629356 -71.45652713971748 -4.246325658374202
-52.72140039789374 -71.38201883018492 -4.234606307791904
-52.95152096037121 -71.90821879281023 -4.246393232898973
-52.96417350137678 -71.81459988292602 -4.2126602826229185
-52.93198140021845 -71.7567260120071 -4.199234240500754
-52.866013655790184 -71.6708025605913 -4.182095683412227
-52.84562887998086 -71.43683881072242 -4.23404338887633
-52.81407178511861 -71.41998561178987 -4.233396255281625
-53.06725583619291 -71.80184959554047 -4.188272222856375
-53.035529869813566 -71.78662706272344 -4.189463860696476
-52.94597615213555 -71.07505469341802 -4.244608130321133
-52.97837464776401 -70.96826367084282 -4.209896137416523
-53.09323184719776 -71.10304911175693 -4.233702580857227
-53.11657469398443 -71.04998309770593 -4.215630403745172
-53.027719430272825 -70.84377828491019 -4.167969852788469
-53.14585137318353 -71.05475940350252 -4.213126160192841
-53.133092199107665 -70.88191386920298 -4.165693660062715
-53.159257825937715 -69.52623005864713 -4.150763016790299
-53.13772019523552 -69.50646079712102 -4.147821209322396
-52.2744767879068 -65.24977542669298 -4.173102580202692
-53.49210724715324 -70.51367537059537 -4.181054492551287
-53.44983201861075 -70.40222374889485 -4.157731273969439
-53.37430367976776 -70.00164301131525 -4.241422777525487
-52.4086232742645 -65.42770888060085 -4.192851664249704
-52.374612248247345 -65.3355897816469 -4.181698112567769
-52.33468426437199 -65.27889615297178 -4.1753465653144595
-53.42011186772486 -69.9893436016441 -4.234809443656745
-52.55258220301708 -65.60314859757584 -4.2119388546475705
-52.508234550444556 -65.5022982062406 -4.199979982705703
-52.473159250338306 -65.42751926057589 -4.191131080569733
-53.61090937659855 -70.09982413870745 -4.242741854690593
-53.40423645280378 -69.06171629162066 -4.232744339545637
-53.398163086319215 -69.00240572481549 -4.221544155478863
-53.394213684083134 -68.93560646550502 -4.208749144139087
-52.63709870047696 -65.56235489050243 -4.204372607521258
-53.72717403839778 -70.1254764239901 -4.237802528714482
-53.659704864620906 -70.0701310243848 -4.231802002508173
-53.66958956513118 -69.79598222697415 -4.170310515508331
-53.63011786365785 -69.68480560297077 -4.14896141510423
-53.49567237919823 -69.12349814159714 -4.239139837436647
-52.713497727196504 -65.48953679803125 -4.192818942544607
-53.58645011611063 -69.1872523501146 -4.245762314279803
-53.520454697181975 -68.99998989439683 -4.213653022587824
-52.80132037649046 -65.3698914620882 -4.17483759837031
-52.853556074217465 -65.35274264403209 -4.171193831819409
-53.45972705390322 -67.7450910540404 -4.219884534374458
-53.46581349934376 -67.65721186157768 -4.205261512269673
-53.595868882375555 -67.86351618853867 -4.233333430725994
-53.66848006772239 -65.62289787429131 -4.183746350820145
-53.63333739140652 -65.62488332573369 -4.185049214149956
-53.631656241328514 -65.51295317969968 -4.1705035178510945
-53.609459647980664 -65.42101073128039 -4.159191528451007
-53.89429068189967 -62.39054245764491 -4.186076984236779
-53.98986565867738 -62.358131491866665 -4.181129870118103
-53.9864574489609 -62.18936516978955 -4.165058083989727
-54.05919697506748 -62.25617673775314 -4.170070979663868
-54.14541874208186 -62.26748146458783 -4.169508512803947
-54.14240435482597 -62.102558752419164 -4.1536829505710955
-53.70542685521013 -55.01336757896678 -4.164696026315334
-6.714678689483087 -91.38411540331896 -4.136364754666664
-7.389418717668541 -90.95384035006245 -4.1411879317900535
-20.562500562756895 -81.74970629407886 -4.146316694737972
-20.799078262537147 -81.03242169594844 -4.093586060036983
-20.880166034785024 -80.90716972926994 -4.086777818140763
-20.947654956692965 -80.78332347793119 -4.079248688086189
-20.898273756784413 -80.68466409949615 -4.066584180935581
-36.518587498166255 -76.52965279895776 -4.144109015033761
-36.55471388150735 -76.4737582375133 -4.142319683943318
-36.59266287188388 -76.41505571293 -4.140440674373184
-36.62870347479244 -76.35596229280442 -4.138286871989381
-36.66535808518663 -76.29969048051456 -4.136467042120061
-36.71023575154023 -76.2438002460019 -4.135469370557621
-36.761257881817805 -76.18731244637183 -4.135026433351164
-36.81446393007031 -76.13104849452587 -4.134785939129465
-36.87582228508189 -76.07402198478466 -4.135283342845643
-34.052300178565915 -62.72007835943231 -4.085914071258809
-36.98876775192013 -76.0110590299493 -4.140325796142987
-34.1338804171577 -62.55989202592597 -4.065577578193638
-34.14153356464479 -62.43762541139022 -4.050524130777425
-34.381455756978454 -62.520113193685674 -4.058817824390112
-37.40146662826468 -75.64757982712231 -4.1449846095846805
-37.426867781383024 -75.57487213389989 -4.140051451473961
-37.468436807664 -75.52345815536953 -4.138925993169123
-37.49626749474109 -75.47338621481467 -4.136515099112369
-37.53230372481913 -75.42353935729848 -4.134952999325346
-37.56489440188311 -75.35170873423347 -4.130696882076093
-37.6176910452593 -75.27865417673239 -4.128311857521387
-37.65632029230893 -75.22831185428491 -4.126883221267481
-37.689113256510936 -75.1781039450422 -4.124838558937737
-37.70899535966019 -75.10650796537203 -4.119182484550168
-37.75108761186186 -75.0341009861803 -4.115647301112245
-37.7985789773876 -74.98509271041637 -4.115134289059066
-37.83040404529727 -74.93796808595964 -4.113244195381777
-37.85358386214807 -74.86912761642203 -4.1080631943365695
-37.89295512639604 -74.79867066407249 -4.104308822840093
-37.928770767262435 -74.72858885770185 -4.100193851192462
-37.86869438405019 -74.45846638704889 -4.063839635213034
-37.84562406836019 -74.36887747337995 -4.0513089643438756
-37.976425968249195 -74.63577799610334 -4.094695364327057
-37.94213084641375 -74.54562920254963 -4.08112132540993
-38.244598263356856 -73.99032524226756 -4.0478286057378075
-38.34722038851682 -73.92759379244562 -4.050818683901552
-40.25981265308196 -70.24700669645885 -4.144658854930664
-40.31330134783747 -70.1391897313706 -4.132281883736081
-40.36155935509983 -70.02877711011307 -4.119111257029679
-40.64020156053479 -70.0746604187667 -4.142561289254754
-40.55115269797055 -69.97544055458047 -4.1226508026229425
-40.725897641753114 -69.98286435541745 -4.134138685880591
-40.78585053596124 -69.92362518551835 -4.12898466474551
-40.70277435027056 -69.46142356062285 -4.055042985541893
-40.851509331738356 -69.82656708355235 -4.118450398979001
-40.878352927223574 -69.75360008797786 -4.109189530526844
-40.93607308943581 -69.6943508470111 -4.103667261096123
-48.91995912661965 -84.93360962907552 -4.074745062930893
-49.03715805632444 -84.53992765339825 -4.123133297137093
-48.98424624706013 -84.43179137943919 -4.13414617560677
-48.96506614493091 -84.34855563698902 -4.143063985491019
-50.21177185763519 -82.34915189189489 -4.105077770995051
-49.41724829094884 -69.02363699010797 -4.139065269924076
-49.447166654531955 -68.99194169875028 -4.132151824334398
-49.49676613047759 -68.88770660394113 -4.108471959943467
-49.46623210288408 -68.71584985968133 -4.067921234910316
-49.8379929080746 -68.78628853175854 -4.087765073862055
-49.835552417170334 -68.77691318042724 -4.085548448437709
-49.90827965535961 -68.73525054968026 -4.0760385915118515
-50.19047907338266 -64.00221338127955 -4.058582952361687
-50.26678637216637 -64.03642024552879 -4.0614678693371
-50.37260554496281 -64.01075906405023 -4.055838168918324
-50.479886557944454 -64.02846932512563 -4.055859471823216
-50.56790044663498 -64.0065207873048 -4.0510614513413294
-50.620741612609926 -63.9822250559209 -4.046700323240686
-52.679035484690544 -71.40438259359954 -4.12010519841234
-52.63158788917089 -71.30428771578374 -4.091420876435578
-51.191570145201844 -64.35351211624356 -4.082385602292714
-52.724394724245634 -71.48506789350202 -4.141601985659839
-52.72312311926591 -71.42008353533289 -4.11868860064585
-52.752253909634895 -71.26324167962906 -4.057985184573382
-51.35707876441355 -64.64630773907581 -4.116855939020596
-51.327021969676544 -64.49479476889 -4.097706481046971
-51.29418730510632 -64.42653641332444 -4.089586422662648
-51.24320935398093 -64.37900649209368 -4.08453986904617
-52.88632677700281 -71.53137007047833 -4.130237437023962
-51.44008838960094 -64.6798311382856 -4.119256470708523
-51.39038408770431 -64.6592691823648 -4.1177280319468705
-51.50579052045951 -64.68646422288575 -4.118558481625312
-51.55924898074792 -64.6303605101166 -4.109957908070379
-51.60174949225008 -64.47970567232294 -4.08919086889039
-53.176895263905465 -71.59149425271093 -4.096776373023246
-51.79803395281002 -64.82605107190503 -4.129724662416163
-51.73615839918117 -64.75302509704763 -4.121692263925161
-51.692028786604986 -64.67159098692737 -4.112137370008374
-51.65422038986924 -64.46373908677779 -4.085854188138084
-51.88174816186064 -64.8241336421253 -4.127399288258955
-52.96576206849476 -69.39633285888328 -4.13476752080194
-51.994463675376586 -64.85982342843467 -4.129261976858972
-51.945299879136634 -64.84820911146552 -4.128990777050619
-53.05878478267161 -69.43588235843002 -4.137347464216412
-53.02419140646736 -69.4234673800097 -4.136956097633198
-53.003831719366296 -69.32437426402682 -4.115555901324595
-52.047323415934535 -64.84215977731445 -4.125608604341677
-52.08241270479408 -64.82579997579225 -4.122619058520035
-53.13561313997686 -69.41797152446357 -4.127710714255176
-53.1063323873853 -69.417442816771 -4.129702074285196
-52.19190378158173 -64.86195082276886 -4.124548460347806
-52.13536037676272 -64.79266452562939 -4.116931984425386
-53.366684482683205 -69.98742142722321 -4.060754365387341
-53.33355540644901 -69.97889569340443 -4.0618699683421475
-52.260997167014985 -64.70650712458757 -4.102455608076653
-53.51084006356911 -70.20872782724275 -4.102227853279664
-53.50953109210072 -70.01301294555462 -4.0526354304688095
-53.30447900859552 -69.31375265337407 -4.091367729226329
-53.54872903454345 -70.01220292702152 -4.04831896479289
-53.39158690185561 -69.32960340119651 -4.088323948400648
-53.40869747250683 -69.24751706620053 -4.068362460086953
-53.64137588057029 -69.62660857912971 -4.135026091822102
-53.53975755753221 -69.28961082922419 -4.06763316239373
-53.312587434420855 -68.08519467925954 -4.046475427637008
-53.69569733893718 -69.66107198923352 -4.138044653776195
-53.59452087290128 -69.31041795520305 -4.067950386833221
-53.33351342999957 -68.09472507588222 -4.0472482056053956
-53.744293873073474 -69.55887459939756 -4.111103326542285
-53.54285310190059 -68.53867054284179 -4.122485906400433
-53.612569665100814 -68.31923223754727 -4.075494053096762
-53.45486481883318 -66.89382185649383 -4.080821181539141
-53.56913270009527 -67.02229842484606 -4.0972421094640294
-53.50132034995732 -66.92605751074566 -4.084257312442453
-53.93967277113391 -67.34860570984617 -4.134600919023814
-53.517375030969234 -65.20141718142963 -4.1331904583786665
-53.54802324068748 -65.21368964022126 -4.133968981952704
-53.63347578302775 -65.15487688603322 -4.12390351602259
-53.62248154156988 -65.06758181726231 -4.1128109987245525
-53.95910212403605 -61.313083845667904 -4.081478674824019
-53.84942097364421 -54.47095600603355 -4.129443336961221
-53.955106120963684 -54.223856925728576 -4.112655157298955
-53.81181572808839 -53.694328075076086 -4.082877857911673
-53.750860203738206 -53.60188144158958 -4.078214968996983
-53.71187277341473 -53.329257772496845 -4.062385398500958
-53.663759119017435 -53.116210232982496 -4.0502089660238685
-54.768656658172276 -54.83816005330378 -4.137959414643706
-34.34108319482645 -62.40475614442522 -4.044998770775157
-37.862784190108755 -74.3007051545618 -4.045250628417448
-37.89424971002522 -74.23327428533842 -4.040668517036852
-37.92803313146372 -74.16500820827598 -4.036183693234747
-37.97215765791665 -74.09703300800291 -4.03274402002094
-37.99072106703652 -74.02981489391267 -4.026764010385875
-38.106161855679865 -73.85512393397585 -4.017808061527608
-38.152841359972996 -73.78956272479095 -4.014698473846289
-38.18385346104611 -73.72492241388962 -4.0100764462666785
-38.232012356667596 -73.68083006288546 -4.009647490040005
-38.27440383502481 -73.63594123708472 -4.008491748207564
-38.35058443553308 -73.59526515054606 -4.011272969527889
-38.44468141033853 -73.55713071128555 -4.016131224168489
-38.6004971605472 -73.52222258492665 -4.027634705767466
-38.68354481252431 -73.46258570526702 -4.028694844411634
-38.72508766736679 -73.40200186718926 -4.025411814594792
-38.76328375761443 -73.31916706890391 -4.018982905550314
-38.8339027188425 -73.21916221458123 -4.013598430290892
-38.86487099042178 -73.15777524827521 -4.008982216721632
-38.89607717663244 -73.09780406230347 -4.0045377798908115
-38.93943577255889 -73.03879297259428 -4.001405537366267
-38.97534478184826 -72.97827269245933 -3.9972700518004185
-38.9978337269095 -72.91551394998015 -3.9914598489979745
-39.04489151336037 -72.85938370532239 -3.9889457084907987
-39.070366386527034 -72.7576785927478 -3.978279862372486
-38.99146703812008 -72.66137955982434 -3.9577400650572034
-39.099811669151556 -72.76177940440688 -3.9817646068053945
-40.04039700769805 -69.06452496705438 -3.956713835050227
-40.260020304277674 -69.21288987417489 -3.991911180440365
-47.767579026430134 -85.68853201865294 -3.94790625785323
-47.9977173708868 -85.78004785626962 -3.947651477481311
