ply
format ascii 1.0
element vertex 826
property float x
property float y
property float z
end_header
-16.706036054182086 -127.2080272050256 -7.759926013188448
-15.928432479278268 -123.83029555730215 -7.768519145227995
-15.496872067650987 -121.96828596905652 -7.775023665285282
-14.866756720704375 -119.1948372915337 -7.786218640425964
-16.189509805178467 -124.45229451434474 -7.768443711762583
-16.126891304701772 -124.09374564102713 -7.769837465836754
-15.886687263857514 -123.22805881962535 -7.771855706342822
-16.429945827816347 -124.08710808105957 -7.774338453299096
-16.820982547723574 -124.77360332608029 -7.776329872838816
-16.864530934460312 -124.31018939299375 -7.779725546132632
-16.359980275081007 -121.92040180684847 -7.787884897407264
-16.28096766569102 -121.84242247819456 -7.787254866721869
-16.98922220769164 -124.55494069082677 -7.780421097940014
-16.586668296401967 -122.6716231062327 -7.785993503214935
-17.117250825959147 -124.44569547789877 -7.783175226835302
-16.90182436028654 -123.1003949295451 -7.788140914224973
-17.24869867453717 -124.22222370509633 -7.786478934973127
-16.97488223356894 -123.09301112986734 -7.789442377204906
-17.333663556670846 -124.11821327038648 -7.788714846675556
-17.136560798066167 -123.43042571856697 -7.78982181371406
-17.053129945767513 -123.00327312432667 -7.791016665006123
-17.449780145149717 -124.21911375000799 -7.789900557990744
-17.255319162477818 -123.4863554152705 -7.791135559748593
-2.6341064063883373 -142.17011399912636 -7.593395215123598
-3.1234065499543746 -139.02731974830806 -7.603016524332947
-0.8697994063147974 -127.38646192943455 -7.593772429238933
-0.9476396774413445 -127.26232860100409 -7.5951713490570345
-1.060452794268178 -127.15703612415263 -7.596909065933723
-1.0738212944238708 -126.9248713225072 -7.598633046264646
-1.2692620871131641 -127.12310391736467 -7.598753894863449
-1.188593605260861 -126.81968223683091 -7.600206377794599
-1.2009617485079325 -126.76528849535812 -7.600766463938813
-1.2812223884029468 -126.73372530511098 -7.601600894509824
-1.3741912781198948 -126.70908724996532 -7.602490224650217
-1.6504278026119206 -127.44692699158767 -7.599680245782555
-1.662322448178708 -127.2844738898959 -7.600832021666728
-1.6194236403048006 -127.19328019045975 -7.6011966674705
-1.4942483545196392 -126.67481366182727 -7.6037554147848265
-1.513514694007684 -126.56807786978499 -7.60460923379756
-1.5472092364922467 -126.46565921220468 -7.605595976258317
-1.5366494482011035 -126.26568769079705 -7.606965104121628
-1.662820088300455 -126.6200666908406 -7.605535161072712
-1.6166729637965087 -126.45472443080578 -7.606303133400546
-5.5721592113352045 -144.00058960414057 -7.602565850455645
-1.7406299717757534 -125.98079158846433 -7.610556802885831
-1.97482218865483 -126.492865739549 -7.608963997058548
-2.2848111785481695 -126.55894715477214 -7.610982119103277
-2.4656886648893934 -126.94841201854034 -7.609742056785964
-2.6448557156630113 -127.20504592544184 -7.609411913209949
-2.6915531133276005 -126.95234081702279 -7.611622121191172
-2.4680604548109653 -125.8279672735527 -7.617587361958962
-2.7698876187487507 -126.69152154898163 -7.614060625765698
-2.509922772439605 -125.79987177267515 -7.618162391516612
-2.7728394884544834 -126.42042292477383 -7.6160001210119646
-2.9233518620889356 -126.67081507871016 -7.615489765950107
-2.9958550373592434 -126.49424605029017 -7.617315915008269
-2.950696549455163 -126.39169158912532 -7.617622375277704
-2.8849916061630623 -126.08040490164738 -7.6192580791600975
-2.928534744227921 -125.99524191371182 -7.620211823211845
-3.2776360149732167 -126.6233633842194 -7.618730177585107
-3.5716522404289996 -127.17795069019166 -7.6172325450969485
-3.483485163268087 -126.98734914649249 -7.617842487587261
-6.807438266819536 -141.19886919984683 -7.625528742070891
-3.595657357604665 -126.55860155841452 -7.62180548551004
-3.7430797008641097 -126.63842581232957 -7.622438287704589
-3.885024573716123 -126.71261332185871 -7.6231179753354645
-4.268079547198852 -128.14322988030563 -7.6162296629200785
-3.915051194559334 -126.68123585730694 -7.623559593854623
-3.914486725405043 -126.55812598349634 -7.624417303401656
-4.042157388464485 -126.7424580234281 -7.624204167214221
-4.324174505060595 -127.35202263941382 -7.622264617279499
-4.208665057027915 -126.72659662548922 -7.62567296753373
-4.216966396735465 -126.67560418486532 -7.626119001909555
-4.278243084956145 -126.56098917706551 -7.627415044343505
-4.704641207220323 -128.40993688117516 -7.617955665105607
-4.360101674905723 -126.76151107239717 -7.626687279488962
-4.333068979983164 -126.67552953041792 -7.627081585513293
-4.369164058792586 -126.59223450199615 -7.627963871928445
-4.304133329898381 -126.40165994299528 -7.628759106854795
-4.266663351484949 -126.3017371971955 -7.629138593105363
-4.854136652468949 -128.39161938571036 -7.619282236089208
-4.607856971912094 -127.17635545657598 -7.625847471004837
-4.317513736334014 -126.04226104023512 -7.631379104911892
-4.51154867847449 -126.46758049636242 -7.630014796642332
-4.390827265612749 -125.8615647293127 -7.633249201366655
-4.746639343354598 -126.91972017606506 -7.628791405218737
-4.614748634318477 -126.48703263266488 -7.6307379047120145
-7.7284030663579975 -140.33866078888266 -7.6351333117983
-7.825974985815404 -140.4169161938798 -7.635424791663265
-4.86663411113636 -126.20104471145345 -7.634839157484055
-6.563185302214427 -133.3170388467825 -7.615197917571984
-5.165830013615379 -127.01768745825707 -7.631597775181243
-5.000106869012184 -126.22506518571005 -7.635786259345929
-9.62956503667246 -146.9624246941236 -7.604101779831148
-9.621510556683681 -146.83548262472044 -7.604648132193201
-9.558368349528946 -146.60471689534597 -7.605012337986836
-6.6161043586330885 -133.35606927732206 -7.616410214819213
-5.157002010713503 -126.65199203643016 -7.634099490283831
-5.416465953981267 -127.11297888589405 -7.633026395570503
-5.249984387137214 -126.69504694081971 -7.63457107380781
-9.889424181230412 -147.143779904489 -7.605773938320425
-9.745894464155736 -146.85560688792745 -7.605652147936414
-9.736828015468102 -146.73490676290209 -7.6061601242540755
-9.910421042914392 -146.88899202722854 -7.60701927418252
-9.839159452754847 -146.74823105449715 -7.607019123353245
-5.717741510733284 -127.49879248771045 -7.632824710034638
-5.425064771620766 -126.59272065294353 -7.6367606579306795
-9.91992202587889 -146.68690795129214 -7.6080649899157216
-5.7633738949262225 -127.44087944962266 -7.633618257040076
-5.5435558901815725 -126.67036303832823 -7.637199636184155
-5.593990883533917 -126.63946772025655 -7.637842125429928
-10.080477229058701 -146.80601121111496 -7.608973923160324
-10.030815540460177 -146.75041854115844 -7.608732916368154
-5.7562837747127755 -127.15253547044286 -7.635592703686967
-5.727410745922126 -127.00272769813674 -7.636404828529706
-5.63463624730377 -126.34771847823002 -7.640240478472197
-5.617940995708502 -126.1329457153364 -7.64158851524856
-5.5918258793535704 -126.03377895909095 -7.642086429556574
-10.200870639036097 -146.91502082296535 -7.60963016484855
-10.181912679760385 -146.7348595785843 -7.610211684563754
-8.175642130349491 -137.7130725282657 -7.650034120423155
-5.846307190438135 -126.849417608555 -7.63849147409975
-5.703440461295945 -126.33723303312873 -7.640882848999999
-10.287854858534653 -146.7216103694146 -7.611195637108592
-5.962509387949263 -126.84292653319314 -7.639507787721123
-5.875874746931001 -126.32948891095683 -7.642376969055596
-5.745699463047823 -125.93350307229306 -7.644069336372769
-10.543322111961395 -147.35039357852384 -7.610785008548679
-10.489983942580524 -147.16841815806788 -7.611112520937135
-10.366103443108756 -146.6552445242345 -7.612225005183235
-6.138543194999565 -127.14227877296659 -7.638876290637034
-5.861061070045385 -126.24722091127444 -7.642853147779567
-5.879161083596922 -126.01172110434587 -7.644658558194216
-10.586801351564121 -147.34047510749974 -7.611131759944366
-10.453304542829283 -146.73167137156167 -7.612632617243951
-10.425766557343017 -146.6705008946041 -7.61272999017541
-10.000930273597863 -144.51921726747636 -7.61839733196099
-8.894986512531686 -139.2488070633511 -7.647606716451751
-5.902645340819157 -125.97652382245491 -7.645070870574772
-10.561179199596655 -146.61133897781673 -7.614124008441621
-10.126151308777946 -144.56396739602567 -7.61934833073979
-10.108077507985323 -144.44772342632848 -7.619683856953172
-8.969311835339282 -139.2861646062505 -7.647749579225325
-10.948175349151086 -147.9420700719425 -7.611700121581061
-6.406858203270219 -126.45915969340666 -7.6459712063654095
-10.919416391674698 -146.68785036791672 -7.617007712157671
-10.880317910666246 -146.6687462424722 -7.61667338143638
-6.475230880873914 -126.67968593557222 -7.644994521852906
-6.407829626100432 -126.39404736889973 -7.646405836085882
-11.256136677807497 -147.99098436046557 -7.614144897833227
-6.651706885258477 -126.85506915622753 -7.645228322715638
-8.903261623411833 -136.89936727638883 -7.658057808349188
-11.282530399228385 -146.9876011939757 -7.618823240926118
-9.00525156426888 -136.88980009056456 -7.658975413001446
-8.70839791452093 -135.14650482515887 -7.652976542822941
-6.8985250471051325 -126.94503260199069 -7.646690225048095
-6.7735204476513635 -126.38777354655862 -7.649544906397163
-8.736002335693048 -135.16185400458622 -7.6535302861903505
-6.900944775956307 -126.761884427758 -7.648033492405472
-13.878033784312324 -157.9632154301946 -7.592654259344378
-7.182652301482494 -127.40094883091896 -7.645916896743069
-7.106192922855747 -127.14454786831895 -7.6470647277779245
-6.993036360797724 -126.57702723574626 -7.6500802943175765
-7.145788757397767 -126.86735001531511 -7.649376590758851
-7.149784460792366 -126.74635257668072 -7.6502640434523315
-7.438713288465375 -127.41585888404387 -7.647999616477651
-7.197429085578242 -126.6211172369657 -7.651513173109291
-7.265030353997271 -126.3920959220209 -7.653749304525528
-7.238497171485515 -126.20817540497814 -7.654765220993337
-7.755428340915843 -127.92638546464941 -7.647067490772432
-7.3319358144890385 -126.00122092928501 -7.657017121033332
-13.956823578438948 -156.2777811994944 -7.600428451774375
-7.7961964784139965 -127.65180524196457 -7.649365694423973
-7.697038601176004 -127.38417726916839 -7.650445164331401
-14.015891360458685 -156.04239834969277 -7.601617233774875
-10.385418380843554 -139.07851021253134 -7.6547023859818655
-9.995795323504653 -137.5952502587474 -7.6634448479297
-7.837886964598103 -127.48092939229761 -7.650933026992893
-7.665827340115204 -126.62889083497443 -7.655520667110718
-7.58929985020086 -126.3647345921141 -7.656724274503664
-14.059579658219404 -155.55128617886982 -7.6043221029408885
-10.400977834422198 -139.08404030085077 -7.654547085991986
-10.106558090800142 -137.5224685038537 -7.664336078910931
-10.108233821751078 -137.36450269088758 -7.6652660672235955
-10.0356082578843 -137.34316522873615 -7.665108671077973
-7.975707679664373 -127.63719839425218 -7.651051755354186
-7.926444833208458 -127.5001643873436 -7.651561102474681
-7.758076887245759 -126.84890003418283 -7.6547100808401325
-7.691882727889491 -126.39717499108046 -7.657379979392893
-10.265539366305246 -137.73687997252844 -7.663858887975672
-10.227250965370768 -137.63099064735596 -7.664322839200252
-10.212248797527938 -137.53157705261597 -7.664841945846431
-10.211039747768579 -137.469283326944 -7.665309177966027
-10.151629504855594 -137.36232610359585 -7.66553036514387
-7.743759165231393 -126.34400543740603 -7.658200918442366
-14.281948636955272 -155.72584716188987 -7.605014299333891
-10.589961019516752 -138.84918460032182 -7.656784022495222
-8.158879181565426 -127.68946533079931 -7.65226807962632
-8.097955494012433 -127.47090504505067 -7.653291223425731
-8.059465748904705 -127.09277764543444 -7.655586459420108
-7.422355442367469 -124.33644210359265 -7.669434688152399
-14.131296047869785 -154.49308012274446 -7.609360910500106
-7.949393210336773 -126.11975173333515 -7.661560050739785
-7.630112722833512 -124.84528924556196 -7.667756409068223
-10.899029371861594 -139.18089216404107 -7.65493628203761
-8.284216385352662 -127.21913611674833 -7.65664150619577
-8.247498722379486 -127.0882039259059 -7.657303120576931
-8.126764338382902 -126.63117007430117 -7.659457151233633
-7.699710249446438 -124.51899315856343 -7.670549007881805
-10.812822135300168 -138.3149360195938 -7.66140362971141
-9.89786650109052 -134.3948679653488 -7.661913854138212
-8.326108056629273 -127.12776540370714 -7.65767790143948
-8.092886720000594 -126.16349805871934 -7.662418636360841
-7.799366747954158 -124.63091886254719 -7.670725723263654
-7.737117269057122 -124.40363728176584 -7.671677098410643
-14.503800215638032 -154.94732716542404 -7.609989356826937
-10.178980051147192 -134.91576525197408 -7.66860453877291
-10.051255566860794 -134.55631388215696 -7.664818435161002
-10.226969170386813 -134.88887058581682 -7.668951569691429
-8.559566230461218 -127.18595751406863 -7.659271456956204
-8.523236706141041 -126.98348046965178 -7.660444390623672
-8.519861153239948 -126.76214694926819 -7.661979561577872
-8.414301944315223 -126.4792125913527 -7.662988398226693
-7.897916203804088 -124.16003992589242 -7.674758071617394
-10.345645419464326 -134.7314385286669 -7.669514520537709
-8.762437842375125 -127.69456619980105 -7.6574413774897305
-14.376273902412441 -152.62596144777862 -7.619074969400603
-8.880861000133095 -127.53454270628445 -7.659608590778772
-8.616223481282193 -126.65543825976701 -7.663578741412692
-14.623857700111087 -153.30650367163267 -7.617792845239803
-14.408906114032224 -152.32200648486017 -7.620367090200849
-8.108126061868209 -123.43820980124173 -7.681749693660935
-9.068203935217962 -127.50071885643241 -7.661498647208477
-8.952349473401362 -127.1945119904423 -7.6627125942164165
-8.947341954878658 -126.89327295219323 -7.664799980763854
-8.843409280971585 -126.59524883165257 -7.6659143078730905
-8.84693904964628 -126.44388271284603 -7.667011488446242
-8.743362752652477 -126.2999682199648 -7.667199585058534
-8.628102986080517 -125.69797635139636 -7.670434900260055
-8.20308635488094 -123.43475239782124 -7.68260505837053
-9.190285533348629 -127.12264406648754 -7.665318025552647
-8.795479136395222 -125.6297313262428 -7.672284189588553
-9.29334479631743 -127.11826325289859 -7.666191275477163
-9.302033745991242 -127.06207112616595 -7.666742469257834
-9.138502782569125 -126.52490167278795 -7.669090747607573
-8.441867710378553 -123.31755679276284 -7.685514318433932
-8.437204780227956 -123.1764206325636 -7.686320336311516
-9.341511348667801 -127.07546991439045 -7.6669187644944445
-8.54540685712127 -123.20945426924976 -7.687040000448098
-9.547522443377341 -127.3290484948453 -7.667032944175392
-9.417325711520995 -126.8547059943378 -7.66923327717173
-9.365293350007653 -126.64260770685478 -7.670186011660954
-8.607998621003585 -123.25505714182209 -7.687413091244506
-8.61210487622614 -123.13266985604169 -7.688161369773719
-8.601646724486038 -122.96894882139148 -7.6893605630932935
-14.937858970302434 -151.76348040002 -7.626507039314658
-9.512301261014246 -126.57345751389875 -7.67207284837952
-9.454969053236482 -126.51420445247108 -7.671890455493615
-8.659172411828791 -122.85399696550154 -7.690676246974529
-14.857830311523434 -150.66898255029247 -7.630690000459908
-14.706779718313838 -150.32487574951293 -7.631060808017663
-9.686866236519878 -127.27415910363264 -7.668588252611736
-9.603063783045103 -126.71852094584044 -7.671770290726745
-9.582461430783095 -126.52738780928343 -7.672982123968885
-8.690201949840397 -122.79916193239183 -7.6911819679166
-15.071783014019358 -151.44382431931666 -7.628986133816165
-15.109355049925721 -151.30954218329708 -7.629577376259274
-11.795491568979921 -136.3624488208391 -7.679783162595925
-8.881528741570751 -123.08543155070953 -7.690875033185211
-15.123171183760165 -151.00878850884195 -7.631135400079863
-9.735866482884305 -126.619845210579 -7.6737487151693395
-15.163547810487055 -150.91008046299868 -7.631600210908751
-15.189862337780466 -150.71626703606597 -7.632793573657005
-15.184922606261262 -150.3206196418447 -7.634157694822914
-15.31567111282737 -150.46226761665204 -7.634455737581185
-10.296947656913538 -127.75992250673818 -7.6706566372379035
-10.30790284035399 -127.52610589513341 -7.672506936834965
-9.458598606190785 -123.64303302851995 -7.692238679861244
-15.365118913882702 -150.1179259665964 -7.636188161364502
-15.038352230626359 -149.02794290022132 -7.638636793980911
-10.344567618547767 -127.45511771116206 -7.673348399429713
-10.29103483474912 -127.00404964099997 -7.675957199883334
-9.651875672549595 -124.15119009810603 -7.690263223883693
-15.39370006636393 -149.98337933932248 -7.6371412900188345
-15.118724538458983 -148.91394727872847 -7.6396246730203
-10.392135391236142 -127.09987064831056 -7.6762299692140346
-10.084135533536722 -125.51271295749183 -7.684725477848998
-15.438823037329605 -149.9310056443157 -7.637431069167459
-10.604285384515174 -127.73627149387983 -7.67372551827186
-15.221644396808513 -148.26649884240496 -7.642798552175428
-10.792364850169264 -127.84180177551556 -7.674680576536918
-15.668304208292717 -150.0360274915276 -7.638501874683237
-15.285059299027937 -148.23575381519436 -7.643425720016873
-10.461428049165463 -126.12230489494202 -7.683856637943831
-15.417047921450157 -148.20674005637704 -7.644198659601359
-15.339976051918697 -148.04236013952294 -7.644545992885202
-10.964620426446695 -127.92144666292732 -7.675698658771148
-15.661720433542147 -148.96977124599437 -7.642719637961578
-15.373643485695286 -147.75467162981758 -7.645894245687563
-15.424804100629517 -147.58117496095613 -7.646907160963018
-11.068150199875197 -128.01265399675393 -7.676167769200311
-15.748097923086345 -148.67828777381584 -7.644607420878481
-15.467757940511834 -147.57228554404833 -7.647025051659062
-15.777142861938058 -148.58615992482157 -7.644945810124856
-15.81978393214853 -148.55644282861815 -7.645518880387542
-15.524855026156532 -147.02395968420174 -7.649496513648634
-15.569757482191243 -146.9400151762031 -7.6501753185905566
-11.04020116047913 -126.33516845812868 -7.688220810971703
-15.944381284644574 -148.26160817905705 -7.64741053152459
-16.019182540948357 -148.1821656689047 -7.648166505118265
-15.957550313582999 -148.12081287189207 -7.647836127441778
-15.672007549945846 -146.48713185858543 -7.652489460573889
-11.72517004371058 -128.31465882970318 -7.6809478552080375
-11.685483806071737 -128.2300965111945 -7.6812028910808845
-15.74398059116475 -146.4412832635071 -7.653064674126282
-11.75755814388927 -128.28705358218897 -7.681549088764277
-16.068708160077485 -147.2827781764519 -7.651843557441694
-15.751291732481487 -146.2329228967722 -7.653804005688199
-16.08734132737588 -147.18469969268992 -7.652128566805195
-16.109375051131234 -147.1000919035253 -7.652749886113423
-16.137762893443085 -146.9730692438847 -7.653298254245081
-16.187105680555582 -146.91673559909316 -7.653686801972371
-16.235286440763545 -146.93011716622982 -7.654079192499921
-16.196986221745757 -146.64976318913537 -7.654715180839825
-16.179821230172262 -146.44646981324271 -7.65554190894892
-16.257600880566386 -146.4212891159543 -7.656040666368541
-16.17662492712291 -146.29308946171955 -7.655902075033884
-16.009950126787768 -145.4702363083778 -7.657977162483052
-16.030565335878226 -145.40954434013156 -7.658452376736166
-16.368641665996925 -146.36631368449574 -7.656633291715191
-16.36244209729269 -146.21105079307944 -7.657327808406441
-16.400962931817247 -146.13890805133084 -7.657694122937236
-16.394312189856766 -145.92765104543082 -7.658309885541424
-16.431258034450874 -145.9133803859358 -7.65871510493624
-16.4295456292385 -145.78533587501977 -7.658974420704336
-16.20851834113582 -144.90571867489504 -7.660912299707967
-16.57254192612294 -145.84644862154659 -7.659639456853222
-16.30785701369824 -144.70962767291533 -7.662104119133904
-16.594188535519002 -145.79016142951582 -7.659759505306974
-16.359082459721034 -144.50043018841882 -7.663046575463052
-16.706311959627318 -145.641562578807 -7.660778814360873
-16.548428540987004 -144.36879200758602 -7.6642514311621035
-16.820934494419788 -145.51532949375212 -7.661725895123191
-16.79869635670759 -145.34819092912429 -7.662331991280599
-16.723098224805856 -145.05140115852106 -7.662778182421144
-16.61480317596991 -144.31274823299242 -7.664789939134427
-16.59440178311741 -144.26159251146976 -7.664708241792651
-16.92299599111017 -145.45638616491553 -7.662533746359006
-16.705730254634023 -144.261825599869 -7.665154629664942
-16.63254920971666 -144.17764608379423 -7.6652679179971095
-16.80459999738374 -144.23237791570043 -7.66563514120445
-16.77152545718426 -144.15743076123135 -7.665880986738503
-17.029260283306456 -144.9283950393157 -7.664622664996762
-16.974313195808648 -144.44622826010328 -7.665829630816663
-17.1062162249657 -144.56682877814583 -7.665989449842902
-17.17938564356882 -144.6434055099305 -7.665888040448518
-17.17422427755168 -144.46302046137095 -7.666383560391012
-17.05531472813744 -144.04605457857468 -7.667110254561721
-16.962799429413035 -143.77336880974377 -7.667674017850325
-16.84623344591301 -143.24740886833834 -7.668669769284797
-16.880990487722862 -143.07550035675322 -7.669145330490818
-17.235918008933353 -144.265648740512 -7.667157786693966
-17.110160288603762 -143.92880524194504 -7.6677837100476385
-17.054977608553802 -143.74206260059498 -7.667938214480693
-17.19405040554121 -143.87408487071752 -7.668063867077264
-17.187454321449778 -143.7856750541615 -7.668428490098648
-16.99513799176581 -142.6865846494717 -7.670347747201515
-17.00239201354198 -142.6368436484621 -7.670608870612527
-17.382211623457774 -143.8769332794093 -7.668849273539904
-17.05551236094481 -142.6712850466083 -7.6705434463550555
-17.43864008412606 -144.05718045435256 -7.668414550752271
-17.42474909942169 -143.8048749369594 -7.669148204251029
-17.118247312087064 -142.40543610766946 -7.6713442991929695
-17.51624137015461 -143.83533913267885 -7.669367039669739
-17.535963025413544 -143.7700162455903 -7.669512685596118
-17.199931951022567 -142.26625191282005 -7.671814615530188
-17.221761055113816 -142.21749252309033 -7.672016218611642
-17.065715569820377 -141.76722684061465 -7.672361406711917
-17.076406809643018 -141.73416580597464 -7.672312050331721
-17.263192814100073 -142.15246074422106 -7.6721604218399815
-17.73836720399591 -143.81540681764275 -7.670083670955903
-17.73342973125198 -143.67544661586945 -7.670393757135889
-17.68944218525712 -143.5322409881281 -7.670421997190362
-17.824208643422764 -143.9000251408068 -7.6699817668541845
-17.848949365421426 -143.54273164913005 -7.670837520388782
-17.85049706274457 -143.48115670107936 -7.671130711066994
-17.931403790417853 -143.5513906964187 -7.671037995672851
-17.54815382396799 -141.5184648340238 -7.671254390527947
-17.634240712081457 -141.5664217594113 -7.671122112907509
-17.598009302019555 -141.45088451138253 -7.671050313498947
-17.595523253921428 -141.40245710482202 -7.6710095867605474
-17.660993030866052 -141.27016087758355 -7.670661826947388
-17.656799268924072 -141.19927288211798 -7.67057495690727
-17.643893483541873 -140.87808819783493 -7.670093567700422
-17.836279997000815 -141.58022691036055 -7.670691690837975
-17.762923606108163 -141.14187952206518 -7.670228151016102
-17.703245454348824 -140.86944636220832 -7.669903754383442
-17.811236935425114 -141.1163272073736 -7.670050533036608
-17.774990823557044 -140.91323141517776 -7.669808241508245
-17.806044575616266 -140.87031505309727 -7.669624713993513
-17.76535543746812 -140.7488082400933 -7.6695062625222805
-17.72137393464465 -140.64324020996517 -7.669429371854696
-18.244385865157206 -142.50607326722758 -7.670936903702651
-18.133847860504055 -141.91362416732144 -7.67049927043433
-17.922026192192813 -140.96272463257478 -7.669502489387677
-18.295512644607626 -142.26439598935613 -7.670568956785658
-18.15086965574546 -141.74375071913863 -7.670224032903586
-17.97637163705935 -140.8656927691024 -7.669162068344124
-17.962035185165725 -140.67886882603696 -7.668799142176233
-18.15514057144268 -140.71178006602045 -7.668275538939979
-18.134504869498155 -140.6155011273849 -7.668129683907538
-18.10968637285469 -140.252467385867 -7.6672748542854245
-18.434747914792595 -141.3273690624652 -7.668767915578162
-18.340342684883844 -140.94160823060236 -7.668258853809499
-18.27054808451497 -140.64021008383077 -7.667748833018025
-18.162530441067247 -140.14554899026876 -7.6667940774363466
-18.542902649200503 -141.40183902578536 -7.66864218525083
-18.50341759325717 -141.15373652403065 -7.668214128587384
-18.202908921811893 -140.04885553062235 -7.666345162542508
-18.28202387191244 -139.855061791351 -7.665430417482913
-18.56832580827857 -140.85973856526047 -7.667364488732658
-18.365789262726302 -139.6720595460809 -7.664462865169842
-18.83035466116557 -141.54109607945887 -7.668119042520624
-18.43829100859049 -139.4816690833135 -7.663440217256231
-17.962507505908583 -137.30083259468114 -7.653438673519359
-17.92657505618346 -137.21579429055538 -7.65297027774568
-17.92810392369196 -137.1069319502265 -7.652072144504548
-18.90402616484713 -141.1114493008395 -7.666926731239975
-18.00741624579274 -137.35006807727584 -7.653556773304688
-17.993087007581927 -137.011233194104 -7.6508888755726145
-18.955786097414435 -141.2015997302211 -7.666948001707236
-18.070460516762704 -136.94722906601905 -7.649877386456141
-20.287267074715892 -146.60764075346543 -7.670660996027575
-20.31470121347429 -146.56338199017867 -7.670567755636169
-19.052895183167525 -141.0919094543432 -7.666397652334343
-18.655480462452218 -138.97518436605634 -7.660259969402914
-18.165864354956224 -136.91735884275667 -7.649065268510996
-20.34775765737325 -146.4852002661372 -7.670528984342618
-20.38264357815656 -146.41260899860694 -7.670489608728887
-19.1894874633403 -141.01528665638395 -7.665700118740832
-18.236400786911176 -136.89885009452973 -7.648468028530439
-20.443396525809746 -146.3824062091454 -7.670386641273413
-19.25926681945293 -140.9588513317804 -7.665343585766659
-20.554607629589853 -146.4214984144467 -7.670245275913464
-19.365676320549277 -140.9745107812148 -7.665025004628997
-19.319314293564453 -140.69746979823324 -7.664344051870916
-18.845820520499796 -138.7284436235336 -7.658081870075005
-18.839045285954327 -138.6558151626682 -7.65772463833324
-18.848746474699094 -138.55305631953573 -7.657086221268237
-20.63277149481445 -146.45021691595292 -7.670218309138442
-19.454783290653907 -141.01243770955315 -7.664784107425062
-19.434362925091587 -140.91392500744521 -7.6645601492738145
-19.403089772845995 -140.69404049024877 -7.664031941936341
-19.36889520050735 -140.5530932852516 -7.6636542101866425
-19.311727186294135 -140.39457627857325 -7.663368724821614
-19.31931729038202 -140.31077000315918 -7.663025187147989
-19.328389631320785 -140.22735047158687 -7.662664236805963
-19.245805392931487 -139.85614322970943 -7.661608917906893
-19.212952448788812 -139.79902944954586 -7.661472249230017
-18.879670126469172 -138.49122366661652 -7.656598621652275
-18.908452005069716 -138.4390416463164 -7.656126053157728
-20.722241895946617 -146.49764661113926 -7.670075999566626
-19.569477796526634 -140.79417594379157 -7.6636993515352225
-18.974625386687347 -138.32160094460482 -7.6550659026552115
-19.494569682275017 -140.24677113698405 -7.662116925509335
-19.418495814628844 -139.75821934673365 -7.66043976765705
-19.090496487279395 -138.26414193669603 -7.654107255408511
-19.059134328822243 -138.16934469621597 -7.653655882818083
-19.058906932882234 -138.1175975100915 -7.65331554019692
-18.130507231549124 -133.742011022573 -7.6036751828740545
-19.145013047167453 -138.24983968359945 -7.653750663746727
-18.246049882452667 -133.84943960619856 -7.605158152720453
-18.17606873506857 -133.78869117786465 -7.604344554312658
-18.14113153025496 -133.6790872035748 -7.6024087519667765
-18.172095405570705 -133.5792237767045 -7.600330679191564
-19.689830979861945 -140.2825854949687 -7.661421175141906
-19.60576978556571 -139.76906239337842 -7.659698977990282
-19.60445459110688 -139.70045076978474 -7.659352136854482
-19.545780337850076 -139.59475410738014 -7.659174502025915
-19.544783668008986 -139.43245209173415 -7.65837135034912
-19.155357748036778 -137.8401424867164 -7.650892277984693
-18.591744082151227 -135.01981002328336 -7.623507410494973
-18.554239151281053 -134.92226917128113 -7.622175928134083
-18.542601141316666 -134.82417483900426 -7.620659320867354
-18.56021102140685 -134.76324052601288 -7.6195671872299195
-18.29460042874335 -133.8762181908554 -7.605416220249022
-18.21215068494236 -133.51532807116993 -7.59890717941388
-21.195463636597403 -146.61923630741043 -7.669548229394797
-19.8666754640524 -140.45046173349175 -7.6613978469657145
-19.59863328851205 -139.38528673959337 -7.657917555353365
-19.59007718490536 -139.28352936907126 -7.657445908150971
-19.542343194665463 -139.17772541358806 -7.657108292613898
-19.42823665022012 -138.24773238779176 -7.65221386302332
-18.656641279027916 -135.07633442842533 -7.62401875446374
-18.596180568275326 -134.71962607213507 -7.618640977838609
-21.571585980159142 -147.62424726839828 -7.669671798763647
-21.359895114385914 -146.96955155113594 -7.66957555589736
-19.87467105356293 -140.23518139152645 -7.660525745747581
-19.872310981737876 -140.1969563798964 -7.660331825895303
-21.652776198072615 -147.64776048369026 -7.669514959747357
-19.602130069170958 -138.2853594083577 -7.65157087617579
-19.554223196406273 -138.08440218060133 -7.650429983550164
-21.790668340195772 -147.74853178355085 -7.669468967857295
-21.664968670616936 -147.48187768097927 -7.669409969657799
-19.70572588699164 -138.28866204531786 -7.651070323457638
-19.650854625193407 -138.09697905097372 -7.65004441814419
-19.8441858221933 -138.32158178797008 -7.650513152429403
-19.512489492672522 -137.0386137430956 -7.642292364251078
-18.94686026559571 -134.20336034036214 -7.607962090450119
-18.93412431006939 -134.17255331371143 -7.607498499389594
-19.944567908466908 -138.33649495584174 -7.650132597376389
-19.649387733128822 -137.0995883455239 -7.642096233165324
-19.59590714329311 -137.03594174315998 -7.641829583789425
-19.03293415102921 -134.2309307123881 -7.607975925400505
-18.96866865936435 -134.1107426143016 -7.6062245013146725
-18.97353149985038 -134.01139783454482 -7.604436500048755
-18.971157657635118 -133.9341073807463 -7.603069880287573
-20.032146202869463 -138.3149935881418 -7.649523381189884
-19.179390343713337 -134.4705344198165 -7.611239539566084
-19.175372933239508 -134.34119675382325 -7.609090301470421
-19.1122844758934 -134.28430103512667 -7.6084642584348785
-19.88056067953482 -137.18710102838196 -7.641491205634605
-19.236222619963876 -134.38865586731433 -7.609553191248957
-19.89139498611916 -136.32906267141348 -7.633025855723846
-19.879200000879287 -136.30194854828125 -7.632855686029324
-19.9805457168267 -136.0414871913669 -7.629307289802732
-20.45460083351709 -137.38504283234138 -7.639959449512768
-20.073738335551027 -135.82553583972535 -7.626257322348474
-20.107261540130423 -135.72576994854967 -7.6248921994793255
-20.538673237548377 -137.539312863269 -7.640809439979349
-20.138065808199357 -135.67773827778862 -7.624056686381455
-20.11378016576473 -135.60084091875788 -7.623113023780007
-20.631682534062456 -137.50855963705675 -7.639982466693953
-20.62431108161334 -137.47610580728784 -7.63980806677323
-20.208554827155897 -135.70699946948332 -7.6240098792351745
-20.723194955743544 -137.2859470999613 -7.637551123544584
-20.256006677269202 -135.37534466510272 -7.619056637110949
-20.755946735744104 -137.2084097752645 -7.636663596979457
-20.776061539989627 -137.0976543657935 -7.635530025497544
-20.72430266702503 -136.73194112936648 -7.632278131291909
-20.431534491458148 -135.5629842889399 -7.620674597368326
-20.327329611331226 -135.23623466566264 -7.6165950212387115
-20.866789326794706 -137.0174452166065 -7.6342446590696085
-20.492385641418966 -135.31391348078677 -7.616752197061913
-20.95498552970437 -136.96338598743566 -7.633225218949098
-20.9309274171989 -136.87550664462216 -7.632503389357186
-20.626566148681185 -135.46251980575582 -7.618083094854597
-20.577380627261704 -135.42005877236906 -7.617776438815997
-20.593472896356076 -135.31395288512658 -7.6161492284509285
-20.55575147894994 -135.1808894618233 -7.614426890221989
-21.03653822810613 -136.87780740563804 -7.631956800767209
-20.996679540519754 -136.78200627417374 -7.631243571358455
-20.989992682465267 -136.6373210258541 -7.629784160901248
-20.94462661068335 -136.5719659875684 -7.629422930419677
-20.686269885658263 -135.5454160162677 -7.618919907557373
-20.683118529118634 -135.51877242536952 -7.618544245681818
-21.06552634430644 -136.72154941187222 -7.630202683835728
-21.080563966488292 -136.5507034943017 -7.628371380702718
-21.080623802238826 -136.4481039713783 -7.627255712777454
-21.112414675855995 -136.42294829942188 -7.626870774672823
-21.072434605930038 -136.36022883448007 -7.6264360743282085
-21.165393951786697 -136.22647841169416 -7.624359950105033
-21.321915913809306 -136.3328591144645 -7.6246674686723654
-21.33933716129722 -136.30584120739994 -7.624200945457678
-21.292082882841765 -136.152532388035 -7.622862691908218
-21.305800179327512 -136.0955868753813 -7.622142845613396
-21.359678777974437 -136.0110183316881 -7.620789002041058
-21.337002400573965 -135.8623023890111 -7.619271225511271
-21.343815154482908 -135.71381974691613 -7.617308356637109
-21.1128529168628 -134.29737946745175 -7.597565040476069
-21.511605180172126 -135.06498915738416 -7.607063690046454
-21.728886537734844 -135.11937013154747 -7.606580945777715
-21.749702666657605 -134.99719339267148 -7.6046601822638085
-22.018839770834123 -134.31717211758823 -7.5927309016573385
-22.093032668839825 -134.27763247196967 -7.591646022975839
-22.236502610327243 -134.22912821781367 -7.590098976875014
6.141611859287959 -147.97126084336546 -7.507005675152131
6.067731930361443 -147.825766899991 -7.508692576678028
6.027890302416861 -147.70453021514805 -7.508658952721903
5.639287124405133 -148.1935051105342 -7.510173699081088
5.177407606251922 -148.53708001765548 -7.513209430005807
4.953670422933278 -148.27720209522383 -7.515099193211776
5.6580864895018905 -140.05396197288005 -7.516020199636591
4.994538300166138 -139.55648379400262 -7.5210583322640305
5.016913275115694 -139.4967867119874 -7.5211853186729725
4.921152742137384 -139.60477613571126 -7.522532044468631
5.639840324211413 -136.0988391825629 -7.498065242945978
4.949770820405298 -139.02602149360476 -7.51977894416121
5.076732320993919 -137.77532468303798 -7.512989723056961
5.5670816555320535 -135.48916881496993 -7.4955538677724505
5.646344956220801 -135.32459530725146 -7.49411826653165
4.987143524139459 -137.82336839388165 -7.5147279970802945
4.642278542271427 -139.08681399633346 -7.523277859171047
4.783991741253139 -138.4212124729166 -7.5197382459325866
4.97212955402134 -137.38160391738646 -7.512021367272434
5.299720697300337 -135.83214930349789 -7.500585987220869
4.531990362100878 -138.8740510328257 -7.5242438560347
4.670788488741149 -138.33771522534124 -7.520082309236469
4.7891025820965325 -137.5423137732013 -7.515417383229392
4.990059382940533 -137.00920309486168 -7.509643953628526
4.290386898383648 -139.51526961047404 -7.52839699745884
4.726844386489713 -137.44418762616388 -7.515340996401694
4.826378516969985 -137.14624137833508 -7.512542660739806
4.840751643747016 -136.9316643718503 -7.5113440251993735
4.94403967223618 -136.689020128483 -7.50861184652522
4.981159400967563 -136.25705506645437 -7.5054491610944565
4.190422969390649 -139.58122733081854 -7.529871412988257
4.449255506488729 -138.17372075811346 -7.521768546725822
4.456901971070852 -138.1152057728981 -7.521944710440994
4.701266681688942 -137.2867844816685 -7.514998860935125
4.80626124010406 -136.8017246031769 -7.510892149475408
4.785735317010165 -136.73614816527183 -7.510181281886392
4.8280963284212675 -136.43579096206201 -7.5086103146823335
5.007594575571943 -135.9474125123045 -7.504393178934736
4.641300976144244 -136.85112481544238 -7.512567307923725
5.199095127110898 -134.5721281655633 -7.4948419602432015
3.8359568221778986 -140.40182533988627 -7.535133787865354
3.8669933468676767 -139.96882925209394 -7.534491806754731
4.698342681592081 -136.36547882261894 -7.50908460483671
4.6880419392233 -136.116819597088 -7.508050019994847
5.060950140693258 -134.3880435502672 -7.494564231202513
3.7918426332069366 -140.07251571234633 -7.535483331281561
3.759591969564493 -140.00342014109236 -7.535169514679197
4.274622563690173 -137.96342414551637 -7.52323760521903
4.230538189747865 -137.77375266531902 -7.522286116430151
4.634213399209131 -136.29925032230315 -7.5101485095087925
3.617635778744564 -140.17670042654117 -7.537213052404848
3.9874038724937364 -138.57967938187164 -7.528487619541866
4.026405824417271 -138.52555517823822 -7.528357445846898
4.458551401195255 -136.532379035463 -7.513116244443149
4.744042956184014 -135.1419889461901 -7.502557944651984
4.765723109515946 -134.95518991475845 -7.501894817738061
3.5552984908622705 -140.25241565727626 -7.538257796031234
3.854437597664692 -138.61290038280947 -7.530550054510574
4.603489472790656 -135.0797294136087 -7.504411099803515
4.68777758822668 -134.71381347646076 -7.501381617050436
4.776220480148449 -134.46379874918756 -7.498878347809762
3.2178254848246493 -141.2728980167101 -7.54286292614893
3.855578687194374 -138.37382817115477 -7.529602570129992
3.8146434018703523 -138.30888169084804 -7.529296662011331
3.8916586485130473 -137.9652034932586 -7.526959131719726
3.970716807818018 -137.7944400020223 -7.52574312400051
4.63708178634532 -134.53221072928224 -7.500201613148241
3.1574924531483237 -141.18820957161773 -7.542883270635313
3.400611638303733 -139.6582262395535 -7.53811718349329
4.250311715942022 -135.86000190583044 -7.511758791642245
4.428508803352113 -135.2600309319684 -7.506683743718673
4.555878676499148 -134.65840912068418 -7.501883300038418
4.58169248572543 -134.22922469039105 -7.499565609336049
3.0118418182454416 -141.25851123640845 -7.5443332212765375
3.060285950761541 -141.08718928879898 -7.544264557433056
3.6132155879709416 -138.38619791140468 -7.531769581102356
4.059312023068408 -136.5617565834215 -7.517247570765385
4.498129112225698 -134.17315440869515 -7.499483531712695
2.874932262174939 -141.26997497871378 -7.546194093378011
3.0764886712974153 -140.35151444378255 -7.5432960567691785
3.569690994826054 -138.08548850738288 -7.531491933262929
4.214392227655196 -135.2024277373301 -7.509412192289087
2.797130791314741 -141.4272142394348 -7.54648222568125
3.0018654512462852 -140.38801838829698 -7.543585797704958
2.715601861592857 -141.3334415864955 -7.547766319803438
2.8797494762827345 -140.44026345531907 -7.545152928301736
2.952532617752219 -140.2526686434258 -7.543900665823627
3.7525246760163924 -136.42379350729982 -7.519857640674366
3.8860899490370855 -135.55467714248184 -7.514917002094578
2.5566740710566744 -141.39370101082366 -7.549292987895292
2.7032436577691428 -140.7733735028447 -7.547020003806333
2.7257319280799486 -140.53613292274943 -7.546529585159048
3.0785502391545823 -138.51505747384385 -7.538048843388628
3.6643075515980286 -135.72314880978522 -7.517606582598646
4.034363911937167 -133.9116395377365 -7.50361387076289
3.5971231555098875 -135.6052534330662 -7.517759383047446
3.1476828818337506 -137.38586733099558 -7.532260474945801
3.2469504915488034 -136.89477096294527 -7.528923803538771
3.782159217099 -133.7549373750716 -7.504692230766678
2.6293205107687943 -138.5925464081455 -7.543626951962415
3.2639535546045852 -135.65485139125963 -7.5223288454218835
3.6922063301826213 -133.85095042607722 -7.506681418249707
1.882598778498343 -141.66303628504133 -7.555123247060082
2.511064749156347 -138.70754318412924 -7.545042319623563
2.393686045499395 -138.82248935693963 -7.546431128213812
2.698794242715275 -137.65867759011718 -7.538594325504742
2.839858372486532 -137.01727470154015 -7.533702843302506
3.5004285148835663 -133.6640794785496 -7.507181428512816
3.5266372255244036 -133.60427407881096 -7.507074410887806
3.598461623422896 -133.5402340683833 -7.505212203947988
2.1028307949337854 -139.92754086820955 -7.552490089660063
2.331986259292629 -138.75171487270873 -7.547335473816195
3.4521625078715346 -133.7264433228873 -7.508772650114011
3.4468420158607422 -133.3869827093481 -7.506424162139546
3.606380114188063 -132.90422032406585 -7.500980987527893
1.8360873420249035 -140.29502744511032 -7.555645958361377
3.4192817749779607 -133.4457513571699 -7.506538632045377
3.4257843536223156 -133.04258102591805 -7.504023840674784
3.464997213349857 -132.8084282832827 -7.501763861256793
1.7124159838777562 -140.479818006652 -7.557041283294133
1.7215192422800367 -140.31479463621983 -7.556352052148843
1.8940832141763977 -139.57996785501533 -7.553517334320443
2.4244147078966716 -137.34751713371915 -7.540549703457101
3.2906643963785314 -133.29246736240705 -7.507466023372121
3.3856088939340516 -133.1039456248959 -7.504323221717097
3.3944279474296017 -132.87781763720767 -7.502504446284411
3.420736377233613 -132.75672561640684 -7.501216490540713
1.6530562443567334 -140.51515490988004 -7.557165578909858
1.6239258251107085 -140.11041663883668 -7.55755604530402
4.076768348401838 -125.66563972888409 -7.565721506679778
3.9719946966375765 -125.64743689871581 -7.566843283361928
3.8202031864595867 -125.88639984229079 -7.5664287236549255
3.821247501478936 -125.65807508418804 -7.5678170926195545
1.874480412437478 -133.66857856336227 -7.525881168990496
1.706681939302232 -133.53739434163285 -7.5262768025825375
3.2110628888123234 -126.52004266080641 -7.566974413241182
3.0722769701390398 -127.02136525108835 -7.564670153440128
3.0226458947375345 -126.8408224823168 -7.56613383819959
3.0828256956360107 -126.73699281826796 -7.566528482729071
-0.35005334254704223 -141.43445631600878 -7.575724917495978
2.9762300624836264 -126.50802833987969 -7.568932236138164
2.9786141557543004 -126.43416055094289 -7.5692553814195245
2.248438919947345 -127.7171146665003 -7.566503027719299
2.0867794912412077 -127.92211723421141 -7.5663788628271265
2.036007076288584 -127.6255656687557 -7.56864427903955
1.9094681355961427 -127.75583310861629 -7.5689302786711545
-0.6148466315908969 -138.5055485308107 -7.577411125982328
-1.6448133724396996 -143.00244790532477 -7.582696445855898
-0.7042339128996122 -138.59589060311936 -7.578733065727504
1.59894677564834 -128.10421599571015 -7.568864710316973
1.8994152840715604 -126.69753477160977 -7.5762425597207494
1.917599509118844 -126.6176423193233 -7.5764997656750435
-0.819523084194838 -138.60805042886798 -7.579552044792866
-1.957909812817343 -143.1283934639219 -7.584598210311943
-1.7385023643684878 -142.1679200157865 -7.586000653490406
1.4277147269626038 -127.81238655059411 -7.572227240609322
1.726748354907718 -126.66008144891096 -7.577877581935756
1.743649208105559 -126.58274333643934 -7.578138266927341
-2.0041695515645017 -143.01066018396057 -7.585581978696158
-1.8732233708926262 -142.35196240569442 -7.586957517747716
-1.8728933275529354 -142.243419851628 -7.587259366614278
1.567583804091818 -126.54984307582853 -7.579774422004295
1.634569860655974 -126.44055633676781 -7.580120915178277
1.650753260900192 -126.08409512352193 -7.582314217756061
1.8207337553753309 -125.3258569283191 -7.586282053274913
-1.9029715430742478 -142.11816801166964 -7.587855081529612
-1.747462753640665 -141.63836919697428 -7.58740647130954
1.5071679372125146 -126.6549323557546 -7.579673386595876
-7.006181643619057 -164.8930854352759 -7.5018934180107
-2.2908195929141932 -143.46210584214333 -7.585714494789021
-2.226205942962901 -143.33116310159681 -7.586159134347993
-2.2124204485093255 -143.17226859012194 -7.586286587300764
-2.0492590968285445 -142.18548824416797 -7.588418161142746
-1.94622392734618 -141.88241798751014 -7.588842214472579
-1.943736278421266 -141.78084372895776 -7.589086796238364
-1.9348429523309445 -141.7343999761361 -7.588722704586496
-1.887055548635976 -141.40938776149562 -7.589494268760779
1.5125157189871388 -126.031149995707 -7.58379140472284
1.5271602089034744 -125.95062575511948 -7.584347551059541
1.612386204440945 -125.67945811051572 -7.585407891660223
1.68343415856706 -125.3445128284659 -7.587146870944475
-2.3551295140217725 -143.35208430162362 -7.587011719791036
-2.3285409603861194 -143.1408217103515 -7.5876381581332994
-2.0570639534849704 -141.91848419322127 -7.58963186821162
-2.012981759220702 -141.79162704637548 -7.589222427776457
-2.0365624836907656 -141.60128429731287 -7.5901012918133635
-1.9772067009612684 -141.50813697512027 -7.590020285679019
-1.9116370902095223 -141.44523859748546 -7.58921379864056
0.8777420137542258 -128.34350992766014 -7.572988126800593
-2.462746531518084 -143.4713627385108 -7.5870608817583935
-2.1888427805242614 -142.25450608402028 -7.5897031705111075
-2.183587271961372 -142.20601927631725 -7.589414901079222
-2.1449619306924905 -141.812997848184 -7.59021761160652
-7.312057695254426 -164.94840514356318 -7.504860757059057
-2.3937336704671743 -142.65045232730165 -7.589931465063458
-7.401915109702629 -165.0424788285748 -7.505022822248316
-2.3568281682683967 -141.88596728371203 -7.5917068082533365
0.7456223800364441 -127.80574621001531 -7.5777420200807475
0.9709252261582506 -126.44628142595876 -7.585412742674603
0.7931573890316415 -126.86089787954612 -7.58393706583349
-0.04244585907037823 -128.3532232676975 -7.580290753353444
0.260734237178875 -127.02933813203576 -7.587118857331847
-4.618214876567295 -148.38343247949103 -7.57079714303336
-4.6781443008451795 -148.38813538579663 -7.570558770654995
-0.5051780900160985 -128.7688757488584 -7.581271846577482
-0.09699368245610529 -126.94194997647112 -7.590498323017042
-2.117448583875399 -135.82460397074757 -7.5828395363018375
-0.23170277594392807 -126.8397031709936 -7.59239845702414
-0.570110768567389 -127.61306202482695 -7.589674216752077
-1.8754130453377922 -131.7118613740533 -7.548936582550463
-2.002099178495147 -131.62688210419128 -7.549278685134569
-6.504224693485534 -148.07891013089647 -7.578833486747436
-7.584239666327808 -152.41978044113452 -7.560858036742068
-4.754874938950259 -132.5132091337343 -7.587448778245055
-4.760470305332231 -132.16584056465715 -7.583754026448218
-4.748652839099535 -131.998004656416 -7.581232441189227
-4.728487312881866 -131.8918226355479 -7.57979963908685
-4.873133995935158 -132.24107630760065 -7.585494870522728
-4.808673989815627 -132.15173710178166 -7.5837436452711415
-4.828566234595318 -132.1114591389517 -7.583613195275752
-4.778212531054583 -132.04271033168493 -7.58241365702386
-5.016319719286054 -132.54180397402038 -7.590706712581997
-5.0379469109236314 -132.45594148008522 -7.589815636376886
-4.871228798332041 -132.01478246330313 -7.582980780567506
-5.118128559860993 -132.40859801577307 -7.590132181088969
-5.125310883828497 -132.36604166585573 -7.58986460127435
-5.010058544015996 -131.74899181252948 -7.580874628520865
-5.09748089788243 -131.98012088756 -7.584771492544547
-5.034304554985112 -131.79303771558813 -7.5813967631615995
-5.221300051564758 -132.00048500626525 -7.585939617699071
-5.171938003772026 -131.94798126539402 -7.585080386539383
-5.182940827073061 -131.7934693796786 -7.582823469785865
-13.809982104187995 -160.3877333765149 -7.58176745570323
-8.691767146201183 -135.14235091445212 -7.505497390241381
-10.000013810424244 -137.35673125774983 -7.5396880292870225
-9.984246138164524 -137.30662638972728 -7.540414253343849
-10.248556238535839 -137.67294946343517 -7.53902153434405
-10.192655489329585 -137.5343734179104 -7.54139547558133
-10.198671765558885 -137.4977096015992 -7.54253914553859
-10.167439186595558 -134.96940021684816 -7.57248051759109
-10.150589026434517 -134.95809971617766 -7.5714823780193985
-10.242917443524203 -134.92630068626718 -7.575517426515753
-16.18786366945954 -132.44938879598035 -7.580744701331681
-16.12604642834062 -132.38389893346337 -7.579096629403904
-16.125296854283235 -132.28152317974246 -7.576493296723005
-16.304466654788214 -132.43264216533615 -7.580294802531689
-21.571386771160324 -133.21310544107126 -7.57673952287158
-21.558109255571576 -133.15308614553084 -7.575774134078584
-21.974474545709246 -131.65759517095847 -7.545870928680896
-21.99267705326621 -131.68711558782954 -7.546419585084077
