ply
format ascii 1.0
element vertex 839
property float x
property float y
property float z
end_header
38.659706313949115 -138.1058361511347 -4.240071825817364
38.20658698788722 -136.92263516885768 -4.2582754631509605
38.543623516511126 -135.63150610968154 -4.264796605724179
38.101570983393884 -136.9006543371572 -4.2602182691230865
31.56720387840275 -159.90894626781827 -4.2929875619091735
31.610006486196365 -159.82554747119795 -4.296943691304089
31.584287465524532 -159.74255458271634 -4.301740163638319
32.2455773540188 -142.77262206326517 -4.245843504320524
24.366404870595787 -173.86387872782578 -4.279498625716736
32.10630811173236 -142.69909543007793 -4.247314247072088
26.87136121127043 -161.65124502449493 -4.250519803648648
26.914107356266562 -161.59626117171788 -4.253033575182751
26.77999587626347 -161.72980727301638 -4.247006787968673
24.49461293559367 -162.33841805198074 -4.237355468569611
23.709345979352825 -162.19140282870575 -4.254657357255218
23.597071547386374 -162.0717027401418 -4.262720174695637
23.428861153683613 -161.9080754206114 -4.273998121228392
23.418478860218695 -161.79711061866263 -4.2804073086688685
23.38170679026375 -161.57230153535423 -4.29384823124296
23.4741643822727 -161.4374454945323 -4.300528520324936
23.338795333473914 -161.64059401424646 -4.290260348522211
23.371327560280477 -161.49740738851403 -4.298091374348791
22.57483786080191 -161.24013032787238 -4.32162115413219
52.258778778895014 -179.49858156123406 -4.227488705196802
51.30329915237713 -180.75372916143692 -4.241175171289174
51.143436180761775 -180.6851672910739 -4.2393237183071895
51.06900036420116 -180.66882594322362 -4.238752776227276
51.55479123869478 -176.8695994766964 -4.182255228957104
50.309114131883824 -180.2396597906041 -4.229141374505662
50.24971446952101 -180.2516339598676 -4.229318221962777
50.2753955214251 -178.922148333511 -4.204330493996358
50.782437280146105 -176.91993586907068 -4.1738816615745655
50.22793692966906 -178.95261084582216 -4.20473817238977
50.15780518858456 -178.92738661408828 -4.204098763150408
50.957425926264705 -175.40517119973734 -4.1551839050379
50.923013203494634 -174.84476355541548 -4.14801742487407
50.855760880670935 -174.81637214279786 -4.146588703327511
50.32333736742906 -176.24114702726015 -4.1591083139442295
50.63903120910686 -175.21828437339013 -4.148255701635256
50.25841203672662 -176.21823989910234 -4.158165431854787
49.667054541620274 -178.41900033711815 -4.193621048750286
50.06462708737696 -176.57253956994384 -4.162245988614611
50.16502788096662 -176.2451745261488 -4.157762126856126
49.97235475328959 -176.59640135614444 -4.162002807693911
49.15172954637982 -179.55795876238093 -4.21695756219426
49.979987879617354 -176.2871148750458 -4.156954555350391
49.05918628736557 -179.45346511814583 -4.215128786374478
49.87914444792119 -176.2910468905917 -4.156294420205901
48.923124031378705 -179.4850536500782 -4.216338788214834
48.99942236110534 -179.44946730320717 -4.2152616578440565
48.86885352254458 -179.58877648148828 -4.218784833821436
50.423225120594424 -167.24250773639966 -4.162410613527199
50.4135388678986 -167.21148192341238 -4.162648094097583
50.278138372676665 -167.51745492577245 -4.149144347073548
50.314136687019 -167.5093468754496 -4.151095498863777
50.20498387569866 -167.41183926609628 -4.147548056746857
50.18569486304667 -167.36209656887593 -4.147597397093445
50.22413577951059 -167.17234446809726 -4.153694433963501
50.20675726819612 -167.0876511876245 -4.154741416133676
50.19487235185433 -166.93010952001055 -4.157980180547597
50.082463872959366 -167.00406747386117 -4.150243360357479
50.04624389503896 -166.8160789349918 -4.153000203030848
49.778788284210165 -166.52832051613245 -4.146398507217544
48.43625284532824 -167.36289310119164 -4.242047754143243
48.387126015490054 -167.3722802649703 -4.238752138403534
48.40886715544322 -166.57753867031118 -4.242565115731921
49.269582516146926 -162.69544166814757 -4.145676852470496
48.28926236709309 -166.20870079965243 -4.234687876395306
48.32713382661241 -166.15649815066016 -4.238375521349374
48.36622554386017 -166.06181514812766 -4.2427868961939
48.943178508662534 -163.59290616916255 -4.240943622328379
49.22823241783297 -162.64569985458658 -4.14854648185295
49.218017320095655 -162.5860826787936 -4.152959338128041
48.264898053889716 -166.22293309516664 -4.232519604221864
48.31822798480957 -165.96540426281263 -4.239961156338295
48.90925403717993 -163.58119905942718 -4.2397593388521475
48.889000627820636 -163.5332290638322 -4.242137482450859
49.139483578529926 -162.54986192816258 -4.153975428273736
49.15033475974966 -162.4738323356405 -4.160208173784557
48.77962321716491 -163.4432755155403 -4.242449493543052
49.04522481850364 -162.49859816701724 -4.1558911292882925
49.06289115456545 -162.39895603139004 -4.164221024111846
49.04911393070002 -162.34684962994314 -4.168101606988598
47.368320105827124 -168.65584802280023 -4.21261743777698
48.69376314977472 -163.41763108944835 -4.239325816489732
48.7198048591474 -163.40542740839462 -4.241832411064481
48.98326822545808 -162.476555029702 -4.15625192621592
48.99031191403954 -162.39810054155294 -4.162683535783308
48.981934409363774 -162.2784201471938 -4.1721840670311385
48.96574531089017 -162.232631999123 -4.1755516611127925
47.20285038376883 -169.1442979933087 -4.225530796672841
47.3053082160794 -168.64761507038475 -4.209737122213705
48.661410175856226 -163.407808511748 -4.23819369836901
48.61230505857201 -163.34600441843602 -4.240155524307124
48.886273384717775 -162.34318574198207 -4.164813382765685
48.93862314697824 -162.30240612430026 -4.16929054422118
48.928310580117135 -162.1950594496814 -4.17785172119759
46.967375204032635 -169.66557499874273 -4.241456799288009
47.17071902462678 -168.83801630879864 -4.211905435635043
47.17275320777298 -168.7552978868416 -4.208701007635195
47.22271062608244 -168.67753123004758 -4.2075901246634535
48.833130565823254 -162.21278956381954 -4.17434348695837
48.80780119709727 -162.13706295455722 -4.180098481342895
48.70487083903224 -162.2218768598488 -4.170885645890592
48.75163135502013 -162.1141633307135 -4.180836597714497
48.61895146121831 -162.09090032068312 -4.180070487210999
48.638950665146105 -161.9943623423151 -4.1886436719393005
48.68804864029674 -161.95003016238562 -4.193424643388687
48.65479830091574 -161.84826855860527 -4.201499192878536
49.120055640581036 -160.05506457459984 -4.145478754801807
48.559284702183014 -162.05362448735713 -4.182022720477385
48.57923572602915 -161.96716109668367 -4.189786502209457
48.60418437717259 -161.85544612037606 -4.199877510757438
48.63687808134503 -161.79747444318764 -4.205540873827557
48.6271131377558 -161.70169478186176 -4.21369926425409
48.670085151771275 -161.60379409427588 -4.223097191048414
48.657976188968206 -161.52754212322222 -4.229618880713339
49.057872899697855 -160.03476553708987 -4.147789014606373
49.03265971648576 -159.9674562738434 -4.153012921827673
48.13869010434333 -163.05563321137865 -4.236776311086601
48.41527290506823 -162.01428060697992 -4.182523546461874
48.60002219463701 -161.46187860248332 -4.234436784119595
48.57123106312189 -161.3995050084498 -4.239519108899034
48.988528755630526 -159.90213250926647 -4.158376553862071
48.95761920583452 -159.82398056018693 -4.164507270302593
48.09170815493569 -163.20157882809826 -4.221579056922278
48.11651257621647 -163.10650308011148 -4.2311170185002895
48.500811877076394 -161.36993288317225 -4.240990429206168
48.88034225168053 -159.7869397020071 -4.1682854890165775
48.87459886566229 -159.68431443137771 -4.1758948789800945
48.91555226988479 -159.59617924770714 -4.181770561727828
44.55135072047074 -176.75234978358014 -4.21792859045416
47.96947831003876 -163.04915898296179 -4.22773330868265
47.999813580999444 -162.95109515808446 -4.238184233730309
48.41776990643332 -161.32860463415193 -4.243366439591059
48.862726208632246 -159.7266223288997 -4.17294024171623
48.879692628709556 -159.5501694035245 -4.185649320134159
48.858670545236784 -159.47832045255808 -4.1912477220913855
48.850111002848465 -159.37861111358896 -4.19872123215486
48.8652542421912 -159.32955342045318 -4.202099418963436
44.50832878445271 -176.7856608492943 -4.219963040821921
48.31823833684309 -161.33261109397503 -4.2413582553644344
48.80030426291465 -159.36432985488895 -4.200501764495228
48.80767043463318 -159.27730756247465 -4.206806534543071
47.867331051253714 -162.86638650173936 -4.238566474682967
48.16849633481163 -161.28949946792653 -4.242986112530257
48.74953937268188 -159.31687759482136 -4.20472888525511
48.761524471774884 -159.21670336356772 -4.211935545628608
48.73091262739061 -159.17964024801242 -4.215107395159464
47.819978587369384 -162.3109890656855 -4.145323859931817
48.67126513256734 -159.1223684224174 -4.2201985714875505
48.6438892016396 -159.00860063642386 -4.2290134082744055
44.16404411790166 -176.68066975690977 -4.227346170454834
47.99334506836484 -161.335770318768 -4.236021170085352
48.57591996005019 -158.97750690675244 -4.232325823296747
47.244198007394694 -163.81014442596353 -4.232291517885921
47.279012394227124 -163.727801676362 -4.2422631103349895
47.679692576332464 -162.06145865824263 -4.164591144222162
48.54237461801254 -158.9428038083627 -4.235405566602446
48.51995833628143 -158.87633954063716 -4.2406799732346885
48.43942385333272 -158.88286085335648 -4.241416553019863
46.60530553340154 -165.61088064018261 -4.196925333707175
46.461117181053964 -165.86916362208305 -4.1922499113990535
46.4426545993579 -165.78504255862717 -4.1881696862824045
46.482070477363756 -165.66478762182308 -4.184385950465274
46.52693824096208 -165.62618049070431 -4.18853123447465
47.50916545423499 -161.83105919643953 -4.182642745488437
44.5803176576417 -167.14214881437067 -4.186963156588447
44.51339342712615 -167.05750158433386 -4.1796377509931375
45.242451591859435 -164.0606699725343 -4.1791393251986655
44.42090452230951 -167.022315232613 -4.177500894625368
44.30777268100974 -167.08238956638863 -4.1852422076180495
44.348441496807474 -167.0337919112653 -4.1798082419958975
46.08415187773188 -157.42612616105285 -4.14809991401486
46.11367894834699 -157.38174641948345 -4.149138721654823
45.97465961697509 -157.42522560242773 -4.151535640725481
46.03609247542015 -157.3872083074972 -4.151295092489096
45.877464656695885 -157.46241557593413 -4.152892955079758
45.888598121865115 -157.4189259584061 -4.154452927680699
45.70360469510796 -157.51835503732923 -4.155739065053769
45.775332343053485 -157.47659276439816 -4.155388485461122
45.60527520776007 -157.63362915455937 -4.153685785894921
45.63410534444145 -157.50089072522516 -4.158596846062088
45.68241799346117 -157.50534224943706 -4.1569577479737285
45.5228058787124 -157.68566107999484 -4.153881880537171
45.5579322401831 -157.43381727784305 -4.163809853869363
45.44541609170413 -157.4016218356693 -4.168556910361644
45.51175612447511 -157.31759899821986 -4.170248087475499
45.131978751715316 -158.21134875291142 -4.142574124288835
45.35268945668041 -157.4397343131451 -4.169639087125986
45.371897390192785 -157.42221520695512 -4.169827481050284
45.111773039733066 -158.2061663458292 -4.143378260944916
45.30653135237674 -157.42377433821892 -4.171687453815842
45.222151579269614 -157.26471306002267 -4.181046698052862
44.653972648102695 -157.77941717699537 -4.174881793174778
44.85123899105821 -157.13846899887463 -4.197109428454725
44.868963073732886 -156.9525426578842 -4.204648650144569
44.82664703331502 -156.84520896154663 -4.210488296193931
44.80398256429802 -156.644718065238 -4.219789731291646
44.68879597793235 -156.98253445405825 -4.208370907544938
44.770645230570075 -156.57185877113415 -4.223862349
44.157153637826475 -158.23075720073228 -4.168832828073803
44.468389630072956 -156.7561063679417 -4.2242055716431715
44.44197416857981 -156.74513459856803 -4.2253810276097425
44.20261530921053 -157.25175233560185 -4.2099167658039995
43.780668204012564 -157.89887024680954 -4.192904290432686
40.91945138626127 -159.84954956315877 -4.1686178037807995
40.94601734417994 -159.79001505289767 -4.170882226935581
40.96798295734031 -159.70501995958006 -4.174381919725126
41.3167612744468 -158.40739712991726 -4.22631025643816
41.3596575654704 -158.36450245172273 -4.227368373131338
37.88313037022329 -171.67825326787514 -4.148454755868747
38.081628105083674 -171.00051259944172 -4.15079793410875
38.23323473867134 -170.17865500280217 -4.160193680080986
40.80547745722228 -159.92083034562557 -4.1673175066254995
40.86227614781134 -159.88413680748175 -4.168029472178676
41.16885939317672 -158.4886055319534 -4.225615498103847
41.19888163337176 -158.39915940567948 -4.229023560472908
37.85461398791428 -171.65938453159725 -4.150685315976953
38.022289694900216 -170.87902377507746 -4.1574167282786565
38.19855678065379 -170.13061209338957 -4.163687264160202
40.73881160124818 -159.9126004335157 -4.168840246715689
41.09155526536295 -158.46533206410038 -4.2281613464616425
37.94230439875748 -170.57964569791764 -4.169697302266511
38.13120810965565 -170.11541959114243 -4.168531501336585
38.08232767868745 -170.04183160971903 -4.173665782020779
37.64615166335149 -171.6152623091077 -4.164909328307989
37.919684145414756 -170.53779334268012 -4.172210933952946
38.034407663308855 -170.04661249089406 -4.176738557301254
38.02963504576774 -170.00956050322796 -4.178025827428376
37.900068350620046 -170.09064263458012 -4.184658685985459
37.874476591208776 -169.99242117196715 -4.188949800627855
37.79050326216903 -170.13135168771993 -4.1910196479356605
37.82089253360094 -169.96322988971613 -4.193338558689134
37.74522368860648 -169.929757221276 -4.199385538677608
37.56516507349232 -170.03090880076053 -4.209010298314179
37.62027313183662 -169.8811675202241 -4.209255806889559
37.537777078660426 -170.01483661804434 -4.211294901273064
37.36147379435832 -170.02308377295387 -4.223217258243736
37.292257333262015 -170.00005240210294 -4.228636034835457
37.305990112032674 -169.9276484193249 -4.229706853813372
37.178497969294895 -169.99303597677365 -4.236712249446604
34.443961216505116 -180.22194842806604 -4.191810520697252
34.37722639536254 -180.14371616449105 -4.196975221710407
39.320140184210715 -160.06154895380834 -4.184451888629056
39.33744715186609 -160.00369779505814 -4.1869789151465335
34.293501367937274 -180.15553687971916 -4.201539600668736
35.000090228287725 -177.05322481671226 -4.216751599433036
39.25671208343042 -160.08086249307573 -4.184468297274703
34.95516617704076 -176.9313425799784 -4.22179527311395
39.073691340471484 -160.19443072581618 -4.181636838491946
39.12011820781749 -160.15905723747755 -4.1826663916825115
39.16307855708922 -160.09194077871607 -4.185298928082088
34.85063277378126 -176.89058165176118 -4.228922041060017
38.998812704964045 -160.30691242503653 -4.177177215635234
39.022751978583024 -160.22147265961726 -4.181037926691024
38.515624772961324 -160.77908866429496 -4.160493639837093
38.55228145305447 -160.73324283749264 -4.162316330022719
38.597426105713495 -160.6403638981575 -4.166336786749487
38.63287255328872 -160.56759725270243 -4.169460432452069
38.452534301854406 -160.80796742914043 -4.159923846999455
38.34500249317485 -160.8265016968505 -4.160436628352729
41.029014744040985 -144.6917364748993 -4.140186767770745
40.177446353996146 -142.30749302665407 -4.176544575582697
40.013633007236464 -139.98476985271552 -4.20039875941127
39.92225294260712 -139.94783939600546 -4.202290316226932
39.1100639331519 -142.84696084235344 -4.188687711692955
38.96720878789294 -142.91003719023598 -4.1901933749976745
39.03459010676152 -142.86908749717927 -4.189519333802577
32.46206331416795 -168.6205741008757 -4.199644474744439
38.89474073223953 -142.9278558533686 -4.190996676482446
39.882451202587724 -138.69672311543712 -4.214234754159382
32.424566920110415 -168.5886700397157 -4.20303621530423
36.95982682826282 -148.39650989748978 -4.1516392275633835
36.99843454384492 -148.33736800778053 -4.15208366776608
36.886339273295405 -148.4521836423653 -4.151309869356377
36.784196248713165 -148.45328362091564 -4.151810720802893
32.88519343366174 -162.38387364703593 -4.141785913791121
32.9514028598858 -162.33353766278884 -4.143845456757484
32.969423603393835 -162.23616995559803 -4.149114465586991
32.950332739363574 -162.13493385421245 -4.155024521450465
32.82731736920994 -162.41603057561568 -4.140525665647925
36.875903662628744 -144.71374033325387 -4.1961603465910775
36.93660408929206 -144.6763110880413 -4.195946344033263
37.0508977431851 -142.69607356706905 -4.216516639192204
36.995239016303174 -142.7735145698693 -4.2163688959027485
35.628227916991435 -142.53423304066698 -4.231749574956107
35.56216221219756 -142.5839457169476 -4.23179934809097
35.47667425525738 -142.58365198369398 -4.232384928267099
33.190209451209554 -147.85704916371665 -4.166940667883366
33.2627683493983 -147.77991960678418 -4.168357835702778
33.14661224261611 -147.9152176627517 -4.166006306135069
30.45917356163128 -144.68122555948435 -4.215626284445258
30.540001180920143 -144.6516001205243 -4.216433877281036
30.579931907451446 -144.56317136030214 -4.217905203749205
24.552784629871365 -163.97537115456825 -4.14092238554682
24.62565071176556 -162.41787798619805 -4.231465633435988
24.434815138938895 -162.67539464969335 -4.218645553629474
24.53392968512704 -162.47670505251054 -4.228930475195322
24.40144904221604 -162.5689332579755 -4.225119242205521
23.788526454858513 -163.61607629882045 -4.170678354932491
23.698938592338948 -163.54058835913972 -4.1759646051953805
23.339200303033625 -164.17782245857654 -4.142317882514811
23.38354539051899 -164.1055945707338 -4.145978239805979
23.5794373124806 -163.46838387217784 -4.181668020431052
23.584121369525846 -163.40013013509258 -4.185475626608083
23.39461650426062 -163.67871568163886 -4.171140309123947
23.280819015353867 -163.74854664565763 -4.168407473320454
23.165286458637492 -163.81918835683044 -4.16534232519944
15.945302865370031 -165.44268163745963 -4.147183271408446
15.851764727703141 -165.5453659623543 -4.14220197402522
4.072980998807012 -167.78902884930187 -4.1349494161081255
51.2004839086003 -173.35117690978709 -4.139853780599631
50.90477685350403 -173.15928739218296 -4.131785100094583
50.9436204842755 -172.9557044324314 -4.131336478339937
51.26465477411835 -172.00836886603858 -4.135968948327886
51.36845733255815 -171.49006971298616 -4.138924147070465
50.3144919506989 -175.08718229888953 -4.142217401894569
50.816622739919715 -173.10554068396868 -4.1294030887882105
51.14481524240346 -171.77087377303238 -4.13212089033158
51.31944913830531 -171.14694810158295 -4.137877885078986
51.33918994064341 -171.02647736588096 -4.138853033894556
51.38404724790888 -170.97445548124372 -4.140553323412363
51.39574378723567 -170.70995399958835 -4.142027176523015
51.201737652568 -171.42134365076788 -4.1337175942267725
51.198571283119236 -171.26978345216 -4.133762858064226
51.307830455622714 -170.99710648385087 -4.1378999278811035
51.35443752406865 -170.7170563613307 -4.140515000814897
50.079243929643475 -175.20135541436005 -4.141060842843347
50.89364424745472 -171.91632427376254 -4.1252414041198255
50.992661067387736 -171.55465176606108 -4.1273924215590485
51.34496583997041 -170.44095344636273 -4.141611306718749
50.77964767065371 -171.94363613344558 -4.122230576358974
50.83320683908194 -171.79369749032577 -4.123238554942578
50.974476883631496 -171.4840903256769 -4.126766232257874
50.84916149614432 -171.60239492187532 -4.123257819191481
50.82789342692704 -171.47829873662718 -4.1224391116344306
50.42122738282187 -172.72918706496424 -4.1179107155767944
50.47438946994884 -172.70971880010538 -4.11892506145869
51.07704437295548 -170.02161504734542 -4.134449700480978
51.07662300022909 -169.9220110083359 -4.135167847661924
50.015238362989415 -173.92785316939208 -4.12300245630208
50.31161616008725 -172.67071755004142 -4.115125118191449
50.55283863445771 -171.72982323307087 -4.1153560167714724
50.6073501518827 -171.64064182429652 -4.1165510288363985
51.00915246458257 -169.74853148190766 -4.1339520087439965
50.04766383488242 -173.6073265540675 -4.119646043352911
50.22242574622751 -172.6094012555694 -4.112751448864333
50.46598868318748 -171.6802369577393 -4.1128738003063825
50.97993167266326 -169.76233425703776 -4.13274362086013
50.96928031947676 -169.67682236982836 -4.133044768865421
50.15304489590739 -172.5731842154556 -4.111023624763075
50.31415402407181 -172.08998576753535 -4.111070122402545
50.29025164310775 -171.97517209195468 -4.1098283305314105
50.290005063004045 -171.89231034034404 -4.109366010705884
50.28534843256669 -171.83456321346083 -4.1089246150943435
50.437204104364824 -171.4944276418961 -4.111419757202277
50.63571989031684 -170.52788171771786 -4.116702825173201
50.09403393561079 -172.5489806895184 -4.109609307906183
50.75459238304945 -169.4264006251604 -4.1269169193284165
49.570929219292196 -173.58540632124567 -4.1124097871048955
49.674792445603174 -173.11754776697546 -4.108014571356175
50.199008657201055 -170.9770077181643 -4.103383073990771
50.30761968074496 -170.6600811507432 -4.106181276318434
50.36531776388885 -170.6087051585772 -4.107963599354754
50.676902565406685 -169.31005001107664 -4.124940321281403
50.69767332303087 -169.09662656931914 -4.127954660370979
50.732208954848275 -169.01617262458106 -4.130251238321055
50.17812544492192 -171.0010134135933 -4.102832520297203
50.506628146580525 -169.41267666233924 -4.117468736059654
50.619967192751346 -169.21227331369883 -4.123624357693757
50.64273408212903 -169.0028996508884 -4.126759944218642
49.468809283175425 -173.0898133306539 -4.1045926210426025
49.9324471964779 -171.24517314677115 -4.0971208096048235
49.9849128406082 -171.18476059177812 -4.098204277120648
50.39923936063095 -169.5442281127339 -4.112544252907232
49.88090924542465 -171.25635049323387 -4.095859844389438
49.923207058409076 -171.185437697103 -4.096595773049684
50.340064374985324 -169.49356831110683 -4.110665034299157
50.28555739220166 -169.30368910615607 -4.10994304100722
50.02934782256682 -169.44540187818495 -4.0996933445363775
50.01166728964364 -169.3929696669304 -4.099349884037437
50.11561560445018 -168.9547704596136 -4.106265109355402
48.65492761567135 -173.87698908645743 -4.107772244419196
48.58574438746177 -173.90673435082738 -4.107851241765897
48.61117940753562 -173.8729966261728 -4.1074233400310245
48.76307405831448 -173.35549390131402 -4.100115812482212
49.30536298123519 -170.96413039987215 -4.08026285419211
50.13596560725682 -167.55965507504644 -4.14124050417549
49.5598819991902 -169.4054779497858 -4.083679398161678
49.599890325899295 -169.2492609557234 -4.085518081947524
49.643248890424864 -169.20192925978105 -4.087222390024698
50.0926294121004 -167.4953158720939 -4.140270171671665
49.43545361082378 -169.46426872559303 -4.079469655844426
49.58488670863264 -169.1829026960748 -4.085248138159333
48.65453782701118 -172.28653467010463 -4.083143517853625
49.38662200739229 -169.5241547072884 -4.077864489078042
49.44051814481906 -169.41500842469932 -4.079720683911579
48.402202263585295 -172.86286541429888 -4.08926001803883
48.41064653996506 -172.80513704647768 -4.088402806009791
48.58531762633445 -172.3582526632179 -4.083347806562749
48.58137516682255 -172.28514861028535 -4.082252405127687
48.44628073784998 -172.50685562003727 -4.084086772349858
48.48150877276374 -172.30295495266455 -4.081399805410637
49.442243941481486 -168.25598244377963 -4.086424176047507
49.472767023325936 -168.22237758595003 -4.087996728313117
49.685631895010474 -167.2478411986211 -4.124662743164791
49.61632435316954 -167.18690147636164 -4.12234636589259
49.57787971479927 -166.9518100205514 -4.125236000155702
49.610636025922474 -166.921440922945 -4.127593553829246
49.68924347252157 -166.58066017586717 -4.140120995068959
49.59172276376323 -166.5728394186754 -4.13508688183875
49.54622142605622 -166.47688416094076 -4.135244969072532
49.37350125487109 -166.7830179626034 -4.11842118074973
49.34824036144476 -166.5317707209996 -4.123176157746128
49.1938998032467 -166.82575351243176 -4.108263516414857
49.21358248800061 -166.26782291558558 -4.123079878121749
49.00512212532749 -166.7073909932023 -4.101138950145229
49.83014861777552 -163.45039469989845 -4.104399605204548
49.75702534457635 -163.40076291820253 -4.105993547056365
49.73783223386729 -163.34385011005645 -4.109475252432159
49.69575424385528 -163.28217435546168 -4.112766630984785
49.663675552002346 -163.2286925773213 -4.115741480561028
49.62568920579458 -163.16839558378229 -4.119127681599822
49.52572657489992 -163.12064268597817 -4.120113267331905
49.49072484684545 -163.04132342074527 -4.125018155374486
49.41127710460789 -163.09765241924987 -4.118969102290071
49.46151815709713 -163.0000185711678 -4.127346827046243
49.44168012849694 -162.9280554485128 -4.132182635935552
49.85593889794467 -161.3421430649573 -4.045153671254473
49.84468006348387 -161.2986425458645 -4.048282650647513
49.85712061747443 -161.13955499358292 -4.05922251422603
49.29318446684926 -163.15140719643358 -4.112162766706095
49.40839863445191 -162.87910958013134 -4.135047061263506
49.38494364183299 -162.84575254180118 -4.136972126615163
49.79581233644322 -161.2616307445873 -4.051411061970688
49.79744323369327 -161.17219147188015 -4.0576070559006245
49.80915953721886 -161.06434023862485 -4.065020598901616
49.808290383056956 -160.9600729686524 -4.072337475247774
49.29482944845888 -162.78378170131353 -4.139524753181361
49.28233524235302 -162.72009918844486 -4.144092849134572
49.774762974411686 -161.00579282990856 -4.0694990562424715
49.70887750562601 -160.95299208251086 -4.073984348998816
49.73845512511494 -160.85796357965975 -4.08032317391534
49.66404091624145 -161.01845521525104 -4.069901482908794
49.697454494500214 -160.80390605380794 -4.084617160337655
49.689813363943536 -160.72829357348394 -4.0900492288461905
49.62012257071381 -160.69228253287605 -4.093436849782485
49.593001348141776 -160.61584287172877 -4.099185508238754
49.53142523694254 -160.57620533003902 -4.102767677519133
49.514674003949885 -160.50422336188262 -4.108090737855554
49.396796737180004 -160.79839859951514 -4.0886377661410345
49.45058256917895 -160.4391642861522 -4.113543974513408
49.432304071886676 -160.36831202809412 -4.118830495203704
49.37156120291952 -160.49516645115276 -4.1105410502283535
49.371982833736084 -160.3418875085994 -4.121501033978929
49.283145744083065 -160.29722372201638 -4.125849063913331
49.252280523735294 -160.25119002160707 -4.129574772771761
49.203635674397454 -160.2044297962976 -4.133567988862005
49.13982942969658 -160.14081722141376 -4.139008137215674
49.118675868084615 -160.09986405477574 -4.142237555102723
49.53134232832514 -157.1067071807353 -4.044685909599635
49.40422623002931 -157.14677041956213 -4.047467316361103
49.506480510388535 -157.09062570180296 -4.046338041732897
49.321307175296184 -157.07898630769222 -4.053651009825321
49.37956464340999 -157.07668957254174 -4.051628659970519
49.258298881265134 -157.08805811653235 -4.0555164146656155
49.184239583358945 -157.06166064258852 -4.059420830951238
49.02796794984336 -157.2853735937694 -4.054726238037351
49.002709276176674 -157.11031490738117 -4.06373441163115
49.08838375027443 -157.06584970080374 -4.062697088254838
46.61614578981243 -165.62458784368388 -4.100038757023318
46.456973487318756 -165.86907373342933 -4.091641785800121
46.43809191923116 -165.77870050451457 -4.089712142448425
46.491927497929396 -165.66210225421028 -4.090249365505445
46.54040345954631 -165.63079957283855 -4.09401514513206
48.63604763358043 -157.13616063748458 -4.075660951024242
48.621195820088005 -157.10331561215847 -4.077683933924644
46.42388862641781 -165.78332106654364 -4.08871296118766
48.53798050563371 -157.12712646950033 -4.079549131159334
48.43542137544791 -157.13198357729976 -4.082945576757307
48.31002887915461 -157.1445664493494 -4.086776975667962
48.370112486279645 -157.12877701573265 -4.08539435860377
47.87389865320839 -158.39544922657117 -4.044966605489786
48.22882610793035 -157.1423913915927 -4.089717161482
48.08409354204095 -157.22831837058035 -4.090856914125333
47.99696384131359 -157.2130656110239 -4.094566281148007
47.918223631016204 -157.2417239755251 -4.095998462136693
47.87576263031048 -157.2064229172563 -4.099050742089292
47.724359421202756 -157.31626615311103 -4.099283568005947
47.76040066089934 -157.2471458810364 -4.101179501393448
47.65950662298333 -157.23536433880005 -4.105150445186893
47.73710773533601 -157.17023524175056 -4.105433872490519
47.54308886923903 -157.25733330576264 -4.108123495183782
47.60335939652173 -157.2266292301439 -4.107454363342979
47.46031346334339 -157.27879277371613 -4.1099541589558015
47.52129560642816 -157.24024669642992 -4.109618070294084
47.29245039003504 -157.41793145014913 -4.109371372612452
47.32293868140912 -157.3516988643065 -4.1113042138223435
47.40091991284302 -157.309432178384 -4.110587299777485
47.22010296950798 -157.39119697361272 -4.112986340410954
47.11992188558885 -157.3934142523016 -4.116221029432937
44.577489730828 -167.14424967542226 -4.08279462880222
47.0146068886155 -157.4094332543948 -4.118994393961726
44.51620764840052 -167.06507786850867 -4.0789696042258266
45.246255182060494 -164.07583984818982 -4.138433745264177
46.88084768403102 -157.39470684647983 -4.1240464184138945
46.93606918299322 -157.3974101759207 -4.122121078463497
44.42321099703235 -167.0297492850798 -4.078409977971544
46.80947307731454 -157.41694992935626 -4.125394126072323
46.81072674859813 -157.3673626661692 -4.12756088624638
44.30961935032279 -167.0916590885964 -4.084440498873912
44.34565431431715 -167.0431038693765 -4.080733274508492
46.706121630094714 -157.39157747692025 -4.129879573308204
46.61275713215105 -157.46012189862148 -4.129868572830237
46.59051665748667 -157.41081618044274 -4.132760964920756
46.47259449954365 -157.40919536886008 -4.13661567173102
46.53138248723675 -157.39125146139133 -4.135520413720334
46.40950640922355 -157.4402130678569 -4.137251576240524
46.181236272865775 -157.85745575652226 -4.12610923638785
46.20903635103598 -157.8214755616541 -4.126809050087376
46.10741216771486 -157.8339549136444 -4.129468594618555
46.0712345008962 -157.7981097719415 -4.132171646461441
46.104667995056694 -157.59542202771817 -4.140039490963209
44.94252859467741 -158.93244962605155 -4.11677470834748
45.151268614168906 -158.22260034598662 -4.141512979327739
44.8595715619478 -158.98638053213492 -4.11682211450329
44.91979870071807 -158.95948648838214 -4.116248824891113
44.77745541132307 -158.9743948115295 -4.1196883850963175
44.72136162855271 -158.88677198719034 -4.125078249590725
43.66998245677262 -159.92046550665455 -4.108253194580454
43.68886936295789 -159.88921834157614 -4.109137927081492
43.611637228100975 -159.9413732427291 -4.108770977372937
43.536931954236 -159.9010883791156 -4.112318749361608
43.49814584267738 -159.8496178386695 -4.115473132071107
43.47846466621076 -159.8243061410764 -4.117049342095466
38.747904522990495 -171.02192941408836 -4.108221391370658
38.67696602343925 -171.03685128541292 -4.112330189971042
38.57194274326625 -171.04861108663923 -4.11863928444393
38.43672916882198 -171.0674070002769 -4.126729619705313
38.47719055955576 -171.06731194263156 -4.124168334300847
38.342560537964566 -171.03499447282556 -4.133362613657943
43.67744423007503 -149.76185049905902 -4.041211016352163
38.25824439564801 -171.06272197444454 -4.138117598051134
43.62526259665775 -149.70961984674688 -4.042946071501862
43.70700301887938 -149.16259440375217 -4.0454603117846935
43.75168755041926 -148.9452750541781 -4.046121735506962
43.51321664432332 -149.47197958775874 -4.047633711134918
42.84925642513956 -151.9636780718085 -4.041682098988261
43.54855769711363 -149.07618581017684 -4.050038531105416
43.35596344243147 -148.42231946303508 -4.060108575261361
43.29589694779813 -148.33540682363287 -4.062224370556244
43.395764184499775 -148.10001773551375 -4.0618143180546324
43.22468643733428 -148.06895883411144 -4.066136447464653
43.12724290120558 -147.40967449706076 -4.0738740510008915
43.0142261725055 -147.51925974427448 -4.075552252962019
43.057736262620665 -147.26776398888478 -4.076685986478979
42.79832314803348 -147.71008489270997 -4.078791796516491
42.69441590009088 -147.84548887084733 -4.079922764288247
42.89648593879052 -147.09358785266568 -4.081794362219344
42.80442036261387 -147.05746949417528 -4.084174149825893
42.67430810630398 -146.9478156377115 -4.087966164674107
42.568891885573464 -147.1199037371261 -4.088798081602135
42.506718881776784 -147.0997251004776 -4.0902747582806676
40.938987927536616 -147.16567626540734 -4.119445655030382
35.16526073600711 -169.31550582046017 -4.041585498234575
40.66511924409682 -147.32989910631625 -4.122465051211792
40.89070559372445 -145.86104183257152 -4.1321613532371435
41.07924027833974 -145.42303877532268 -4.13279146336263
34.55987491820953 -169.35594666248804 -4.066206710148845
34.466573427157066 -169.29725529274307 -4.07345089576598
34.395497588553546 -169.24929593997248 -4.0791445409647284
34.35821274385702 -169.20275846531953 -4.083289846433439
34.337476735126735 -169.1706046658386 -4.08587960303534
38.46649659153396 -150.17341998425889 -4.119817784520388
38.37638389969494 -150.2362084781123 -4.119747821154386
38.42538700822023 -150.21609805590606 -4.119557482406564
38.2827009938567 -150.21784784684064 -4.120612947336039
32.91008748607965 -162.46838367636505 -4.136728035822527
35.74599734306088 -149.90630746053586 -4.135061986022256
35.776861033946346 -149.8442883040495 -4.135875836634177
35.790018609434796 -149.75107330007614 -4.137327366626788
35.65539763529343 -150.03679922741102 -4.133131001443576
35.7134313487138 -149.9650110292031 -4.134130826343805
35.562574328622674 -150.05064169352542 -4.133019997212452
35.44818448225355 -150.0302517741597 -4.133341121022049
28.327909069618578 -174.94257269518928 -4.0484548645007985
27.961248161773984 -174.87233199753035 -4.068025677306987
27.84666257266291 -174.70707193794553 -4.0815143555011515
27.782540230806102 -174.82902039380582 -4.078056533094195
30.20686210010271 -163.56090094131937 -4.103476447234544
30.241346492735715 -163.49320139856954 -4.107107806885286
30.295795829501756 -163.3985014454007 -4.112050094972402
30.31683906042653 -163.30414108878148 -4.117322240973211
30.274940124537267 -163.22905051258388 -4.1222065454942625
30.168530854005247 -163.61011204588607 -4.101108174724957
30.21472471303147 -163.1759931659479 -4.125850371636771
24.559982819247146 -164.04354589434982 -4.136938894230249
22.64951271066475 -165.37635017059375 -4.077890336909785
22.13899712394535 -165.5577789388791 -4.072485064599613
21.954575396305124 -165.33636054753987 -4.08777574532895
17.846836456307877 -166.2799336619389 -4.075483966546636
17.8120895952792 -166.19259640943974 -4.081374062325943
17.83351424514427 -166.1010043664847 -4.086537852752614
16.58782387340503 -165.79975333520431 -4.118530361292228
16.107002458113175 -166.1239145715942 -4.104299302417199
16.148355191780052 -166.02084731196499 -4.109921499447905
15.68413368704303 -166.65406507426283 -4.076388831376614
15.709531487831882 -166.54952929699434 -4.082706237406461
3.7759333717540216 -168.3799178221134 -4.101944555264184
50.53564697394411 -162.60627280467787 -3.952639147141264
50.46231144596224 -162.67070955544017 -3.949125827173298
50.48414268810118 -162.54872276806856 -3.9569391964941976
50.49826144774931 -162.50909623198743 -3.959423696723389
50.365498960787875 -162.7288286065079 -3.9462515121646105
50.40130194478761 -162.47800210934344 -3.9624320884369
50.37888488303929 -162.35613549069464 -3.9707285557768475
50.284524165896805 -162.61465614400535 -3.954556757819453
50.28156936577127 -162.47770763885902 -3.9636352135808126
50.297795885420115 -162.42660054870282 -3.9668608683547832
50.331206878328175 -162.277539491156 -3.9764442927196537
50.15354525213174 -162.44692320017376 -3.9669855867857287
50.17386711961689 -162.35026104053193 -3.97321281253829
50.06230519607294 -162.5188495288865 -3.963124672682671
50.13341288012807 -162.40844076800377 -3.9697463984950794
49.98569251235613 -162.43179237428333 -3.9696587678656594
49.99645974408631 -162.3284851188276 -3.9764584297652132
50.01702269953476 -162.2351691662864 -3.9824934926589237
50.10270713348002 -161.94593663963647 -4.001102320648152
49.92131534174878 -162.352597315569 -3.9756099139053678
49.93329447699741 -162.22680773394794 -3.9839292230215584
49.95030415805822 -162.17604472597216 -3.9871437063823962
49.98830479425506 -162.04812549829862 -3.9953997258307914
49.9925874348722 -161.90728494710515 -4.004878441385914
49.98751096149068 -161.86119467810238 -4.008077559326666
50.045935308358594 -161.76511642475836 -4.013999282128879
49.87169564039529 -162.17048964792443 -3.9883409427764636
49.86936835801014 -162.12670241895938 -3.9913217944469372
49.95045366396275 -161.80558622139375 -4.012237077205964
49.9926276829816 -161.63310687259482 -4.023584457236601
49.88281111084139 -161.71814976292777 -4.01896064667702
49.90686188766615 -161.6113139230159 -4.026007862279533
49.882655957565895 -161.5252688793609 -4.032189155650348
49.92411157114954 -161.41987615089127 -4.039005083583248
49.69976675314709 -161.84332436783743 -4.0123693221974035
49.83574220455816 -161.59587593162527 -4.027860275105428
49.79820054899256 -161.51736376989655 -4.033681953136742
49.845016698710566 -161.3971953374199 -4.041447479066156
49.66796144545214 -161.83550119106366 -4.01322507791345
50.210114522312665 -158.6612620835033 -3.944508743802308
50.218811025838654 -158.59424878539838 -3.947447990160799
50.23274108494624 -158.50105233244383 -3.951478419184779
50.28529464386729 -158.3692605134167 -3.9558758179482667
50.22608682488365 -158.05246215963047 -3.9736438746652007
50.12737909960343 -158.00158518619622 -3.9799509575754533
50.178550366827906 -157.97043442618616 -3.9794641384967315
50.146470297215046 -157.89569425758978 -3.9843361020208627
50.11124059109623 -157.8454775634314 -3.988100095280741
47.30485477255086 -168.71210459129148 -4.0196222681570655
49.85627048333595 -158.32623911411739 -3.9746918724061207
50.02333910756461 -157.80637652098977 -3.9933302659880305
50.014268098495144 -157.70260927696262 -3.9986173044135462
47.15041831304502 -168.8420187692011 -4.018079052327927
47.19269062570192 -168.75057985809468 -4.017868358525829
47.24349575686872 -168.7061222547944 -4.018371605855745
49.6439039234123 -158.91435078767185 -3.954351167540111
49.606719195769536 -158.89493028825925 -3.956741271490864
49.68177126816461 -158.7830656007881 -3.9592936792136193
49.99523410584872 -157.65493458723864 -4.001598581644209
49.96445065282512 -157.59867740374338 -4.005435586403057
49.505285486047484 -158.88367509822828 -3.9612747660546708
49.54803846016189 -158.87833212335926 -3.959842636066437
49.846538977264515 -157.6420676206612 -4.007806155550218
49.85392243521879 -157.44386824738373 -4.016904893988983
49.85824443394769 -157.3902093630096 -4.019283746178644
49.769380324408765 -157.61575643188482 -4.011948131044075
49.7469739165877 -157.42810500894146 -4.021646053502592
49.81270088094933 -157.39668986910564 -4.020667526141465
49.52738705403259 -157.96905844861243 -4.004307290269537
49.72444314118044 -157.40718703635753 -4.023460362097353
49.72827008514579 -157.33059018137052 -4.026927267795975
49.54976480759137 -157.48230199764987 -4.026423058907714
49.63957362656721 -157.32129172940247 -4.0306464372298825
49.62674695224756 -157.21229789136004 -4.036233117249483
49.524813953227174 -157.19075331608343 -4.040994085759013
46.59228635853054 -165.6355229430089 -4.000858684579277
46.435259329490215 -165.8502509565844 -3.9912093585672084
46.44182259790642 -165.77563158702338 -3.992489560145597
46.490807735949865 -165.67554725500807 -3.995461193661955
46.53324043318034 -165.63969937877084 -3.9979009652896385
46.421632816401214 -165.79327639896252 -3.991383418106
47.959769734457865 -158.54539984767206 -4.035000156944976
48.0200832528321 -158.45573492778087 -4.036973103380127
47.92574245500841 -158.49056865277475 -4.038744829605213
47.893233276210786 -158.45286855682068 -4.041647132946118
44.57725978925944 -167.16451252309147 -3.979310040233082
44.50931684013413 -167.07454876140906 -3.9783866461994553
44.41208618181097 -167.05139068002038 -3.979820469364004
44.31586589393799 -167.091535173523 -3.98305717825268
44.34786971903684 -167.05461925047223 -3.9813586451422873
45.954782690479355 -152.98538617408195 -3.9475578243363136
45.88362815923544 -152.93779223296053 -3.9504458095180253
45.855778190307824 -152.8608255310849 -3.952060968691966
45.824809032746096 -152.79559951402067 -3.953705244775537
43.67463640322821 -159.9105612987094 -3.9566419730700724
43.68632051169365 -159.88113937543312 -3.956641753550746
43.61066018846308 -159.94484859433018 -3.9576290052519547
43.51884364578336 -159.89187276225434 -3.959869453913723
45.332079785019104 -152.45544895126562 -3.972746684120678
45.23150281581542 -152.64873487310285 -3.9742595510793968
45.292315993605264 -152.43747055095113 -3.9741673229677255
45.16493047005309 -152.45010040538932 -3.978001913656403
45.17091260143167 -152.39043119457247 -3.978335879157134
45.052102866935286 -152.3367251474816 -3.9824223035766355
45.09688653218409 -152.28401665047613 -3.981486620065482
45.01335359298385 -152.30986317665736 -3.983800188548544
44.9857065393928 -152.0873862346171 -3.98651139094097
44.918592920328415 -151.76844240599686 -3.9911714678416526
44.87704673373083 -151.73197796285936 -3.992680847065361
44.81755043754236 -151.64261213589734 -3.995172282788814
44.75743987870309 -151.529477753142 -3.9978665294230185
44.68912068255556 -151.56053902725856 -3.9995575711471436
44.53039086468282 -151.56295220487607 -4.004005588136887
44.60372474276134 -151.40319887522728 -4.003282422454632
44.487235766254244 -151.59174108862777 -4.0049884660098165
44.43190766234955 -151.16640221130197 -4.010018467534773
44.31670435757099 -151.114504643582 -4.0135950920132775
44.36469819258758 -151.09918351350575 -4.012399747906411
44.270640859038124 -150.85208531048775 -4.016976996525223
44.1336157831016 -151.28363112002032 -4.017074146757263
44.09041522487298 -151.2338375680647 -4.018594797646776
43.91487918734836 -151.51004858205815 -4.020832319386226
44.226215301924114 -150.21178074465163 -4.0234657245058
43.869183288839984 -151.5369954032568 -4.021783679662038
44.17730861994556 -150.25968250048481 -4.024346234433659
43.93374649350688 -149.97349385006783 -4.0330600926581806
44.028624250880185 -149.49628525963743 -4.034556665308297
43.977477715246934 -149.51487984437074 -4.035699992582289
41.38031209431111 -158.42803223098986 -3.999289931372819
41.38385102170754 -158.33185850222878 -4.000536120975174
40.910465735422356 -159.8616018795264 -3.9779638275692264
40.9443863335647 -159.7803816856266 -3.979508621933456
40.949126997233506 -159.68787970633122 -3.9811313116374647
41.30946968904631 -158.43868570629664 -3.999493897359609
42.91127649348376 -151.9351232119757 -4.0406151293465555
40.82458053080157 -159.92207664456572 -3.9765520698659915
40.86559251632588 -159.89651252507883 -3.9771769078423587
41.19073680570185 -158.5000168147639 -3.999137030805861
41.22963617618872 -158.40465724313367 -4.000288601999603
40.74492167487974 -159.91243153880214 -3.976379069879929
41.086209982841154 -158.49598827921497 -3.9995563715467863
40.61043076820632 -159.8064135318378 -3.977789967437415
37.37668391460522 -169.05406371607668 -3.958576193893129
37.29596945959966 -169.05779628299638 -3.9618873035466042
37.2166625718727 -169.05970917204306 -3.9652329297733107
37.147426510009474 -169.05289956235683 -3.96856895315425
39.3496954117671 -159.88500738658013 -3.966037786139652
36.84049318209824 -169.82869319514222 -3.94221387206381
39.190065251240455 -160.14669920093473 -3.9574863701474987
39.22148918953171 -160.08470108658292 -3.959496296817786
39.242879238512344 -159.96957011902686 -3.9627155950761033
39.32221440535273 -159.89776480967498 -3.965390504465549
39.338989335201106 -159.797366949957 -3.9680514119355355
36.740946829159945 -169.86312039247886 -3.9447622565288953
39.09806497900404 -160.23107019250446 -3.9540635823607917
39.14533597950782 -160.18261242719993 -3.9559633768461024
38.96697287219894 -160.28537369752218 -3.950824054486845
38.99454311221974 -160.2357745471074 -3.9525635691627916
39.41478837643671 -158.40451560547095 -3.9988298964916513
38.919703127931285 -160.29313908362252 -3.949981639803689
39.2602012702814 -158.74026150365233 -3.991145443012289
39.276644222082254 -158.64221004096345 -3.9932686839612
39.30887061977666 -158.54225876280054 -3.995501116533973
39.36139954344079 -158.46315807392048 -3.9973834847397005
39.38181580859923 -158.40567147444924 -3.9985915670830434
36.363228325824814 -169.98294826047214 -3.9549004323310024
39.14591075430865 -158.6905647731498 -3.991359865061587
36.080932691000044 -170.10542117246524 -3.9608170099182782
36.23934593242317 -169.61889406956146 -3.9788504669153677
36.235785971682134 -169.54229973799275 -3.9829427292839097
36.34339585894713 -169.31726321425904 -3.9898661203839088
38.53715244340089 -160.39102670095255 -3.941623973133311
36.01465765917017 -170.28510633751748 -3.9544855757754385
36.17671087985682 -169.52229334463757 -3.9865566408632853
36.094149821931566 -169.24257380390722 -4.004612423770473
35.74707097372998 -170.26158042029695 -3.9672434908070775
35.93657146201299 -169.4613782797669 -4.00017812551618
35.981019492286876 -169.2726636525574 -4.008029909545995
36.14921670679007 -168.68246742598024 -4.031455073158916
35.90734345930608 -169.27886989826328 -4.01090085837803
36.01058672781051 -168.98420917017384 -4.021739754370309
36.13021808164592 -168.65645234450585 -4.0336932248655994
35.43272950057472 -170.81246044916023 -3.9526822652800924
35.737680220845235 -169.5267458110552 -4.0054614581926815
35.98917852723042 -168.68004200327164 -4.038667756491804
35.383178351599454 -170.80318802017416 -3.955312249721903
35.33285977413847 -170.69856577145325 -3.962771154391822
35.714295067679416 -169.3580017229709 -4.01527014052888
35.3093234803541 -170.6221919646061 -3.9676835319677304
35.56752335876012 -169.38774457003933 -4.020138859492623
35.378931332735576 -169.41710315914824 -4.026885594052235
35.16275559633223 -169.43980663648057 -4.035216150224146
36.40476210860543 -164.4181120518562 -3.9849444734782025
36.416544232435 -164.32567866014273 -3.9903514974013294
35.061581930844824 -169.4163754186903 -4.040896455814231
36.33430681639586 -164.47502633652618 -3.9823389602066155
36.3884028093142 -164.25738944355993 -3.9947619133274053
37.29145040362108 -157.39510828323472 -4.004819468188426
37.32769528374443 -157.35894782407453 -4.005939434656173
37.32514711466631 -157.2827468881919 -4.007615397552774
37.17733663530264 -157.4713307509572 -4.001990052092845
37.23692277621679 -157.43515753011008 -4.003353269634789
37.291432724533294 -157.2009411589137 -4.009220645756184
37.11571780007996 -157.4603543769145 -4.001593173318911
31.934331234746438 -165.95474208032314 -3.9400524595501785
31.851085942525337 -165.922844776882 -3.943047555386243
31.714439224387704 -165.89761998865026 -3.946043268049821
31.587415963410507 -165.86796499568072 -3.9493864129732703
27.389829725493563 -152.71966202235546 -4.005000604890889
27.424531137404827 -152.61492445620206 -4.008541728774287
27.435115277421406 -152.48969295495468 -4.012317291745563
27.357485424426454 -152.34982647544456 -4.0154362469869715
27.389925435698327 -152.28690145783466 -4.01760283156836
22.902629690178586 -166.63405597328406 -3.998034394133067
22.766913938969097 -166.57211236104715 -4.0035073411633455
22.88086422733344 -166.18726524147806 -4.025761357466087
22.69507516928855 -166.50273668280943 -4.008433257261675
22.40603041893375 -166.30762809590794 -4.023759768405853
22.22635907381646 -166.4020844686018 -4.019788275238961
21.541411576812887 -167.02665228404743 -3.9889810760036726
21.478430793252503 -166.95630362153065 -3.9938751143057525
52.89491086230702 -169.13951520899357 -3.9000145003410225
52.82449400142825 -169.06052456309277 -3.901428205637543
52.66284776055187 -168.85602970175322 -3.9056019895786647
52.61673930356936 -168.60929140084465 -3.9136091932834525
52.20461421672858 -168.25435919783285 -3.9185177896114918
52.102176858934705 -168.62255574917157 -3.9031677203041064
52.157554969816154 -168.19624032614948 -3.919719599698458
51.99278835974153 -168.52676605121815 -3.904447930556364
