ply
format ascii 1.0
element vertex 834
property float x
property float y
property float z
end_header
61.33680356571162 -219.28121558093622 -3.547727035773828
61.2682087399517 -219.2865083208841 -3.5532339802405017
61.31945766386184 -219.50666034307127 -3.5380634208156545
61.29166916763917 -219.51565673713617 -3.539160999240922
59.89240027772142 -219.4737243810539 -3.6819758647051564
60.25177496935316 -219.51944534850017 -3.6668790654056735
59.994896406492025 -219.55939841181632 -3.6456134889243925
59.90266775829616 -219.48344414523356 -3.6766330387623625
59.89454190879709 -219.48221868728734 -3.680118940163762
61.02026635889687 -219.62084932987463 -3.494301240809739
60.29767176441936 -219.65136190708725 -3.596441745562006
59.023082817690906 -219.74161419621052 -3.7876443478055775
58.919377577450376 -219.71954185508724 -3.834333285776088
58.896512888418215 -219.7075813202231 -3.834598003998909
59.019185397201824 -219.81183070993572 -3.7909760502776826
58.87057430033404 -219.76756472775182 -3.806723123222415
58.91134897398331 -219.85484225724906 -3.7890700709442684
58.34603201703062 -219.83721889846268 -3.8654592352984913
61.30164204885753 -220.10169848138298 -3.544733219641464
61.23694915000432 -220.09624504230126 -3.5311165345946907
61.23421154252046 -220.18717439441056 -3.5278537833305164
61.09303390208128 -220.1845577077343 -3.538417599927693
61.04066638779796 -220.18945558167897 -3.561648056613017
60.946178395928655 -220.19345478021563 -3.5877294999190115
60.81427902803079 -220.1776395277024 -3.594689287577132
60.74082446597096 -220.19023982154297 -3.573071205364939
61.293012054616085 -220.25442197756396 -3.505913949036153
61.20661088734411 -220.26915023979745 -3.5224680696516697
61.09031532846243 -220.23349586627538 -3.5671735777245392
61.00044174539282 -220.2803723235065 -3.561313564555749
60.903924212035506 -220.23877185838202 -3.5749819618659258
60.85589054348589 -220.2546877554864 -3.5444634415144813
58.43067051014283 -220.15841415556739 -3.898741055701085
61.30832412367483 -220.39608288005837 -3.4799862374877657
61.225055336665406 -220.39527690646977 -3.4762079590956736
61.32365476583109 -220.42527306400245 -3.4871019319904804
61.10935146583082 -220.51448578949652 -3.474951886071656
61.187687973857145 -220.57706600390375 -3.480396863790868
61.10951773838844 -220.5487919637971 -3.489176672489839
59.135076005330454 -220.52645320165678 -3.764634229149257
61.266366437716016 -220.62992675148544 -3.496547819170211
61.09803699390921 -220.70885331379873 -3.5232672081168057
61.10834685028184 -220.73049082598055 -3.5171216350429617
59.091446285981796 -220.67241525875394 -3.802312207626433
61.262466258736055 -220.86706388072074 -3.5169694915104
61.20557033890166 -220.84925639608105 -3.509064372404981
60.82750465337733 -221.01640637791445 -3.5433717387892094
60.402140173325265 -221.18469453417248 -3.618022741422864
60.3281555927828 -221.18227044655848 -3.625132321666232
58.90646117369517 -221.09463555520384 -3.8686678697265333
58.823382900516705 -221.09037847133126 -3.79541273124659
60.42556336461459 -221.20312863170773 -3.632862193035492
60.29151784815263 -221.20514624397066 -3.6360417827179994
58.89171001953079 -221.2138336697144 -3.8569115938445475
58.880055595233145 -221.27596332827645 -3.8710465818718287
60.270076726394244 -221.4892872752317 -3.6699293952803864
60.23777101976429 -221.4238628534811 -3.675389817961333
61.743120570285136 -221.79815411736007 -3.4037543251293205
62.59429230678155 -221.920707481715 -3.2861215214175883
62.523430295608364 -221.88446023211299 -3.2835202511343686
61.82274643326329 -221.90290084720363 -3.385180382944815
61.78742341055151 -221.86202534711168 -3.3871458684964737
61.91505852848562 -221.96389416017 -3.394699130335445
62.02112689174951 -222.12822196680398 -3.364084496495895
61.96103661520803 -222.07160205667714 -3.370853609960564
62.12096080549158 -222.23119670970314 -3.362994559021036
63.21783600802785 -222.3845385002762 -3.248882119391989
62.20699802591582 -222.33693068124362 -3.3379468026810186
62.177870880859324 -222.30834340153035 -3.337433282418784
62.299070961650585 -222.44451158751994 -3.3136118867468003
63.36907187108813 -222.55041672197552 -3.2199661463109663
62.40539105668557 -222.5506484837369 -3.308140269395925
63.480196773397665 -222.62797522056135 -3.204732749189995
63.46771417681499 -222.6040313844184 -3.2207535586655798
62.48967663034916 -222.63438213199998 -3.3006883712347888
62.470408357788685 -222.62833011325304 -3.311216698215446
63.570673056750145 -222.72621804638655 -3.204665644562972
63.433196293715696 -222.70743836013614 -3.188031558944779
62.57687780586366 -222.73497631185245 -3.3044063065213516
63.68195612171114 -222.87341834205077 -3.1704914691064703
63.62492813144987 -222.83777858263733 -3.1819627903822307
62.674092040822934 -222.82561878652731 -3.296254438313619
63.88947514705601 -223.16465128606532 -3.149890612348955
61.37166814572655 -223.87515836435162 -3.409602854407804
61.11846260197736 -223.89976452749158 -3.459394331343429
61.00392939356116 -223.8568088265674 -3.4901234336240035
59.03703431369379 -223.81105450172012 -3.7739097584108308
61.41842493939332 -223.94687333872645 -3.411383670033477
61.07090118381148 -223.99897955096793 -3.5043039745020077
61.02033449775853 -223.94280381116303 -3.5045261267071406
58.98934181688734 -223.90128470996933 -3.776266703786707
59.12463372334895 -224.05053437150303 -3.8000508276557508
58.968520831928544 -223.97906848336757 -3.7722224218447487
61.19322376366954 -224.2030169155128 -3.4893215334356884
61.07891259482155 -224.12202906104437 -3.484945298221175
59.09002731365221 -224.13167283143017 -3.8071645188666086
61.8261019065839 -224.28274834443258 -3.337483613456948
61.80866319528939 -224.2821692988047 -3.3400718591434346
61.534945418121865 -224.26399732496157 -3.415205375550345
61.21207285146769 -224.26125276700898 -3.4878756912013933
60.34641600822965 -224.28044648981066 -3.5443149990770113
60.1701076066185 -224.27459124925423 -3.5704825942984386
59.07008220433485 -224.21969571584503 -3.8035251672579706
61.354365434091264 -224.3921471334822 -3.4396551438482064
58.9537746039096 -224.317118334367 -3.778110891520124
58.86636995731171 -224.30952120189497 -3.8089216632603637
61.6088700626513 -224.44681541262628 -3.407195788697653
61.36144565554461 -224.43543271573873 -3.4559493526318676
61.310691212354584 -224.4321635606471 -3.4694977819407073
58.63584078270907 -224.3480816114022 -3.8484507045462344
63.38371929874746 -216.2902026716686 -3.168004472188058
63.31740776215343 -216.32837498748916 -3.154445480206176
63.17976928894131 -216.32810570601575 -3.191528129216347
63.10271174199921 -216.45273204740732 -3.1700511936755618
63.120928622213945 -216.5314432945893 -3.176482130986171
63.05031388036097 -216.57401334474517 -3.1640403164909996
63.46864803290379 -216.6074739274271 -3.172401606190408
63.37571766419116 -216.68244834386067 -3.1754842887267984
63.08875478609957 -216.58447693686594 -3.1922145400039037
62.969246821570465 -216.58009043777858 -3.2090099575120874
63.004814122464865 -216.69724769359786 -3.190352410882049
62.920917096984596 -216.71776220158947 -3.1826692623088446
62.830353617933945 -216.754906975686 -3.2404426138630846
63.31733499419996 -216.7908490422881 -3.1696183840060117
63.23738504994601 -216.86567451133024 -3.2032546520186274
63.187089998455 -216.9309943554079 -3.20113986878788
61.286235325047194 -217.09364124521827 -3.473497918516589
61.25955428479704 -217.08349903076856 -3.471211871330667
61.207193926299276 -217.15207789557974 -3.46826306444118
61.190407363452024 -217.47693903787467 -3.4884739197160455
61.28439029055956 -217.5625708740505 -3.4485281421352676
61.16152622500653 -217.55255863786843 -3.4858674086562482
61.17201886717992 -217.62878687023803 -3.4900438948228323
61.13697950071647 -217.6451941894912 -3.4834884406889066
59.97073020770523 -219.23889595674916 -3.637479171574393
60.31535629751774 -219.3830892403858 -3.501223922903894
59.72917963316044 -219.35420773342017 -3.618291261992701
60.35145193168436 -219.48585715364308 -3.505410259895418
59.92937671917658 -219.43688863455012 -3.625076587746294
59.85397882299479 -219.39334890117388 -3.5898260009261733
60.34598127698346 -219.5029888606932 -3.512563143994573
60.24814299051903 -219.51994175980153 -3.5849524227403906
60.12300323968457 -219.55931920019967 -3.5912790541705446
60.04643877007826 -219.56202404290204 -3.5913585661148764
59.97114038182702 -219.54351097928682 -3.6044401571450138
59.84622476441405 -219.4939788477509 -3.6256078805697323
59.73509102099776 -219.5608053209386 -3.583925860944712
58.52291592776354 -219.46397960906856 -3.779019686088745
58.45077434147571 -219.47450283731604 -3.789041168217227
58.390612811079826 -219.45197571586957 -3.7742293164885847
61.01780835508923 -219.62292195151875 -3.489134029394835
60.29031652187578 -219.65170259494656 -3.5744673252724075
60.19964640904253 -219.68432224590828 -3.573290945356812
60.14127950771552 -219.60142048749563 -3.6076188829869036
59.946937030640555 -219.6116671437502 -3.615804284738154
58.522700262094304 -219.5705546002601 -3.791846102913394
60.28789560097924 -219.73064237580982 -3.543815853138392
60.21639575676728 -219.72829362350458 -3.5674786129420797
59.92555646243064 -219.69944166496308 -3.621352617780813
59.816570607467455 -219.70529247817169 -3.5850766813909907
59.05100211709781 -219.72512941828347 -3.7639482609150057
58.69572511462945 -219.71352045903757 -3.7836658062212645
58.681480880736416 -219.7141089893861 -3.7771768965156394
58.99804454866071 -219.83910653905153 -3.771781803755643
58.966338275708026 -219.8103890088216 -3.7716931240225486
58.84946795085056 -219.80738029623714 -3.7656920284719733
58.65567905415468 -219.77476721339298 -3.7855116026854736
58.42002095541463 -219.8212388694626 -3.8137254854700635
58.37563446098482 -219.81503948828973 -3.808431275335323
58.00102378788311 -219.7940135480752 -3.8496024002459728
57.95305006911842 -219.7839785410869 -3.827192029965741
58.90967975794843 -219.8716111874568 -3.782330967946608
58.84769142830189 -219.89951738820153 -3.7686109259586655
58.43696846354262 -219.8413348676169 -3.805577284788866
58.38533351582567 -219.83204218448364 -3.8358992683081605
58.217554696470486 -219.9103892651639 -3.8226699644991236
58.167006157275196 -219.89291400156955 -3.806656077648257
58.004702910785234 -219.8388648139209 -3.8172260287513313
57.9678584021009 -219.81950016353224 -3.8231028554051862
59.0303878378875 -220.037199380152 -3.716081461450105
58.93161715560951 -220.0430414578421 -3.735238149204055
58.84975117555106 -219.95855537510388 -3.7680503443525484
58.30511414183325 -219.97814899180582 -3.822774954216517
58.259060418076295 -219.96025270042307 -3.8185446696868417
59.12605006334934 -220.10503922803719 -3.7376733984595605
59.040306642381466 -220.12497736890816 -3.6994408020084215
58.42427882190972 -220.1242308740845 -3.786325646114391
58.23764367292509 -220.025693909896 -3.8151047056533764
59.125648893757344 -220.24252138386606 -3.7379087100768325
58.981337360705766 -220.24735974932622 -3.7523360017011713
58.963760246585764 -220.22341788723224 -3.7110497850406663
58.45702852655128 -220.16175784207874 -3.8298233660774295
59.173791102451176 -220.26983888608862 -3.728174963179136
59.15969355337302 -220.26890963128986 -3.7212327727562395
61.16664401694791 -220.51885156795615 -3.4598482525108665
61.097581997065646 -220.51605363823776 -3.4716876848143277
59.1497748856586 -220.43647484098673 -3.6941415294078492
59.03356744655772 -220.38699147510053 -3.703494099405482
58.8689087299576 -220.4144483493747 -3.7247097342666997
58.859579553459696 -220.4196682021771 -3.725637651281148
61.16182164831302 -220.5254022295885 -3.463820112036193
58.908178583925505 -220.48326500490103 -3.7082145810429057
58.82271018993354 -220.47948282925154 -3.722801648901512
58.52900017858647 -220.49542616294568 -3.743583846603964
58.76723356380869 -220.60138891954932 -3.713970365804131
58.597817226525926 -220.54693883092364 -3.7247843312524034
59.00324076991835 -220.6948651749297 -3.7202002867398023
58.88386681644268 -220.71499971089787 -3.700073763033151
58.844212769047196 -220.88919177599428 -3.6940825345656325
58.80884741444361 -221.08543941826196 -3.7833864219840097
61.33057125781575 -221.34714988156753 -3.42008239414162
61.311953729110094 -221.33786796662423 -3.4202409794459503
58.536638405235834 -221.32856979199522 -3.7441217515064067
58.528160400361884 -221.32786097416178 -3.7568135003009857
58.540022225597454 -221.36842458560426 -3.727242532813
58.520505006670334 -221.35721863905218 -3.7342912606350334
61.65963223270844 -223.43257026424428 -3.3386163255391472
58.53584403302668 -223.27419020379693 -3.717498216841093
58.09179223398082 -223.28859882421835 -3.7683270597089114
61.86979000373776 -223.5305144596535 -3.2764308435311276
61.74986728170395 -223.49581264003228 -3.304761034771613
61.691160700045394 -223.4857383681515 -3.3238933490906755
61.55013546242085 -223.50305443096028 -3.3170812673201238
61.28202363248307 -223.48300189757435 -3.363838007233699
58.546805050852804 -223.37315369362582 -3.7358425495231873
61.88843121131139 -223.5947635300509 -3.2862280324848334
61.69355642277651 -223.56120541379295 -3.343344764872583
61.61982268176239 -223.57740599020627 -3.320133604340757
61.35932124606146 -223.60060867471037 -3.347887828686503
61.292419681477845 -223.5384349052467 -3.3653651282881922
58.52941884945271 -223.5009952928629 -3.7525933620948067
58.411216497096255 -223.48201521461695 -3.7539211450356365
61.92179005786189 -223.6878613220241 -3.294897728836309
61.732300175940175 -223.6946902282697 -3.332159243066918
61.68339372653686 -223.66682242062583 -3.3211428163048695
61.59338557186516 -223.68272944794853 -3.32169684083529
61.44373826132337 -223.6514270675256 -3.3259718407396295
61.415526906628756 -223.64859483475817 -3.3373599338619018
61.30360517709292 -223.65038389411953 -3.3920485369061346
58.561578789170184 -223.5406220896118 -3.7520749869032963
58.322611369614705 -223.60462496471666 -3.7501814082735048
61.75004478712789 -223.76035506555752 -3.3221750149297073
61.676967267900814 -223.82716804154103 -3.3255803953807987
61.626872015421625 -223.76019898608283 -3.32550647834226
61.44851946523948 -223.76214439739283 -3.3220779210454183
58.45313274448436 -223.69092203360037 -3.785152708547524
58.280679766647516 -223.69314004288103 -3.780558843680199
57.871999312529205 -223.6238413832597 -3.805173887952526
61.567814524319154 -223.9332822537521 -3.3220459161602243
58.44074695844614 -223.7568996683399 -3.7943167202369326
57.865098228979306 -223.72464712681008 -3.7998711138743513
60.29778797446201 -223.99460272126427 -3.5381201310481174
60.199918277808756 -224.05633523621609 -3.525982985204021
61.8436217639706 -224.20084718682085 -3.325781752377242
61.807458636575895 -224.1795283010085 -3.328929179643259
60.313850053916944 -224.15448664013257 -3.535946462344216
60.18242935535479 -224.10983897732592 -3.5511931641590397
60.440706250479565 -224.28816867997148 -3.5128761050262205
60.387653799719814 -224.1972210686084 -3.5292513130091763
58.02902720038457 -224.14134532674896 -3.793996526915415
60.491703395136035 -224.33321797076067 -3.509690594381258
60.37582390698926 -224.32936989702625 -3.5268893565504937
60.269643613231736 -224.3397697828959 -3.489731348702844
60.23617126574352 -224.42497474310258 -3.520698005382464
60.03553735311382 -224.41831197921096 -3.5504759185763173
60.00817817486816 -224.4174032684245 -3.5545365456852753
59.31594314586419 -216.4821581139063 -3.6160088824492083
59.342191084867075 -216.63567678200758 -3.6039725250041976
59.202073263169034 -216.61465045097498 -3.58724350410268
59.27784693221974 -216.71223645415475 -3.6005278302722643
59.23502314219328 -216.69686450776695 -3.597126869318796
59.237833917166085 -216.79550252090743 -3.5830987596913304
59.44222386087729 -217.35668688053994 -3.610961827022478
59.473714177363014 -217.56496907243087 -3.5690207672954744
59.500270642946965 -217.70146889463044 -3.543637592974345
58.34593996222455 -217.7095288838408 -3.6943669375083252
58.317135369354006 -217.66261873887174 -3.6921953697874543
58.3830094987987 -217.78635601308517 -3.6914846212211483
58.45719903392608 -217.89706891373297 -3.6787183739155433
56.62917073979819 -217.94850189060227 -3.9220452921837277
59.51655998213524 -218.0733314148752 -3.522768922478277
59.3407074999977 -218.0985929291551 -3.5590983718867646
56.70918927073875 -218.0245078047688 -3.9200390284916002
59.519283279274816 -218.18839747610392 -3.517006783597635
59.490914958831 -218.18233768230664 -3.521656097096659
59.33643370047254 -218.23792338790943 -3.56238210481968
58.60312477978173 -218.20989859813918 -3.6549055331736398
58.50306941414343 -218.18157803471917 -3.664933202437429
56.82958870441518 -218.1109317364629 -3.9038862367002536
58.5930392095681 -218.25534786588443 -3.6583492735703906
56.871568527313784 -218.18423732250454 -3.8983859404013974
59.398010366937896 -218.45337466172776 -3.5387068998399975
59.5941832217118 -219.2554897906704 -3.587315008069007
59.57459252680504 -219.241952829658 -3.564373219501266
59.63753848005254 -219.30115859672645 -3.5847121380169984
59.567395208060454 -219.30377544879585 -3.5521413113303724
58.82837395674517 -219.32860445661524 -3.6065448256576507
59.28195423443249 -219.37745083485265 -3.5604359392907865
59.2496754215895 -219.38509362391417 -3.55623399703533
58.82984120619638 -219.36557548218923 -3.619541745282188
59.39490519755557 -219.53646754407288 -3.5665757144548724
58.51070444553185 -219.4632118950287 -3.7435665786244496
58.45953402974892 -219.4650223254814 -3.7497016853701464
58.369365862843004 -219.46127036505632 -3.744777965690463
59.697706969532916 -219.65620881865036 -3.559015893925725
58.93483415423366 -219.6828107293231 -3.673738544914923
57.919870162453655 -219.7837058822095 -3.8215160599916875
58.01451052316457 -219.8460770774479 -3.8102612553041135
57.95726860440852 -219.82175064906065 -3.8183442901244375
59.01009051642772 -220.1383076759775 -3.658556685241771
58.75598217334429 -220.1220438540877 -3.6673401382184596
58.88627384435456 -220.20801111911348 -3.6688097751480666
59.12888309989536 -220.31256723357677 -3.6486441066010444
58.95127284698791 -220.2581946323716 -3.6616583744680256
58.80170952012236 -220.389240409969 -3.690990749585774
58.83635047230697 -220.5318426193495 -3.675907624560763
58.72354070081105 -220.49322500644735 -3.693605719241577
58.517014651300336 -220.45827946913786 -3.7291730243733077
58.75149751884888 -220.61445778989687 -3.700083730967636
58.589178717180936 -220.54840325310033 -3.7191599454415063
58.87393834113217 -220.72083739519508 -3.680477954325315
58.60168921765078 -221.3343433941937 -3.706419180074334
58.639992750006904 -221.3621871719684 -3.702912481377987
58.5954862368456 -221.36214032143002 -3.7103786580185614
56.835882441439274 -221.95323947861314 -3.877601997303387
56.751748765101496 -221.9101555714491 -3.8996292110145214
56.63134027842953 -221.89208453774694 -3.8998297493828824
56.56020804209915 -221.9505463768359 -3.905877407835203
56.43093203178941 -221.93322159126794 -3.9127923904536033
56.82048178795622 -221.98004609119096 -3.878592985223042
56.5333085623346 -222.02287395942537 -3.915108186409533
56.46250201556181 -222.00625334628543 -3.911399056264427
56.46349968661293 -222.08177488254057 -3.917739920502317
56.77215699985794 -222.24811458133527 -3.866659157721493
58.24738706203817 -223.0031010336124 -3.7405456990370753
58.153829921684604 -222.97607750601526 -3.7273141578355378
57.48644641126287 -222.95695053626716 -3.765917143487765
57.43149271295844 -222.99761971905875 -3.7701915010202462
58.10385540332712 -223.10045212834152 -3.747473852261149
58.1143429312534 -223.15177500548302 -3.7554385726058848
58.042692040454924 -223.18318721503366 -3.7546166027099606
57.34730400687345 -223.1751538751748 -3.780276759883506
58.13354142499567 -223.26477820935685 -3.759582160791777
58.04905953611298 -223.255054270749 -3.766943894425924
57.9454155677831 -223.2412191149442 -3.7588882349239916
57.30163956185515 -223.23522516757126 -3.794193741902384
57.237278175575405 -223.26279011361027 -3.7870602379730967
58.42734420419674 -223.3704176019132 -3.697763878895204
58.04301391927594 -223.37662211161398 -3.7705730158737354
57.94114241646489 -223.34138505762274 -3.768741308135747
57.84632429541673 -223.36819036424183 -3.7715850554335706
57.12379135738921 -223.38204324519558 -3.822266497891729
58.374229765482944 -223.43636763545922 -3.7118703516984084
57.999860659367705 -223.45122268494893 -3.769941903217156
57.7237632139963 -223.5061615217841 -3.7875803709791493
57.02683834232427 -223.47358054500137 -3.834150787851265
57.99183452455558 -223.60136310382435 -3.7699279769805805
57.725899138032965 -223.53561059838486 -3.7896944129245913
56.97557823654391 -223.50948079217775 -3.833148828612428
56.93834338137144 -223.53667701190238 -3.826990884490236
58.26616008765922 -223.67270213206348 -3.7346466753363625
57.62713648715725 -223.65884295343963 -3.79954644054718
57.512236091916186 -223.82752183029788 -3.814062781059202
57.43157086987792 -223.95871206274398 -3.8109732287529923
57.3981103390215 -224.05912919780536 -3.805771840457386
57.359778728491015 -224.11164078751554 -3.795881323457119
57.27751928025283 -224.3224793906855 -3.795001754122181
59.532698101710544 -216.0852294108991 -3.4732602207176466
62.15860450611859 -216.27861819680564 -3.117030682406216
62.11551686741901 -216.3210443424105 -3.1205345556767656
59.54744993863095 -216.43556131075295 -3.469340976567658
59.555747924830314 -216.54717472590855 -3.445376258899061
59.35388007364996 -216.50185238638406 -3.4757726320834292
61.885882070279024 -216.64572139204458 -3.166183678600562
59.42782025463393 -216.811425214196 -3.476245479863766
59.44146557846639 -216.8879616171582 -3.472597558803438
59.47339217229508 -217.03052740976017 -3.445095525539271
57.98429511769202 -217.29475516917358 -3.6998218768592768
58.06815911937523 -217.34927435893016 -3.7091991710584487
58.03343045818409 -217.35143691785487 -3.7011273333367867
58.18834101250467 -217.51808399483835 -3.6775116376167896
58.08040637058718 -217.4760115622545 -3.6759821131985713
58.13106547269851 -217.58497796221093 -3.656179647736546
59.29247237236352 -217.72654182671045 -3.4628110537211234
58.3110256363923 -217.68658181816716 -3.673532155035367
58.18061777020695 -217.68146731105728 -3.63602791187649
59.28816461919089 -217.7561320060612 -3.4503849163368367
58.249907073674436 -217.79075926813354 -3.623202744105266
58.216070380083494 -217.7728061701258 -3.646937327129966
58.27264754068965 -217.84674281126223 -3.626009167047897
58.22699760428789 -217.85118599708161 -3.6840335396822543
56.70144265438242 -217.82108959609772 -3.8359522935107373
56.30048521539517 -217.78742378087165 -3.874144544232286
56.21812541779546 -217.76175306546662 -3.8965711907930256
56.77417763467876 -217.91656770470863 -3.838227074782969
56.70793195597728 -217.93202258531068 -3.8663879899939846
56.593199605540164 -217.9242198808285 -3.9149282441193733
56.35693710244753 -217.86861538473767 -3.885637185051582
58.56476214311709 -218.09794911130106 -3.6441760886726513
56.764802525954046 -217.99209650651153 -3.870802626472197
56.54085423934341 -218.01338520886347 -3.8640623639959233
59.44533693078635 -218.22081305639583 -3.5227619731055815
58.54517296507819 -218.1912846495556 -3.64880557682277
56.65382889111569 -218.10021820291706 -3.855473269602495
56.605510932077216 -218.10456969325247 -3.8564854685425347
58.55659770643064 -218.31808491425514 -3.647534127515778
56.89956491342397 -218.2625394210552 -3.8549889257490055
56.78270078003571 -218.22171660329423 -3.8379118353183546
56.71395414689792 -218.18643249226807 -3.848207094852702
56.97500583483714 -218.30346341826802 -3.848423238656329
56.90460543227744 -218.28985327987345 -3.85697477956919
57.032598587140036 -218.39143701268955 -3.8264655702498573
59.17969941427193 -219.35230789743545 -3.525213057657986
59.16722925668159 -219.34672363884198 -3.5310828239979766
58.82769329606875 -219.33492919521547 -3.598507823950761
59.209125606322615 -219.37822053759743 -3.53432414784281
59.172775405016445 -219.3579200590159 -3.5325232904068935
58.90607973256878 -221.52653919088283 -3.518713353799923
58.858337653956895 -221.52002277291373 -3.4885530493665295
58.87488386609209 -221.55698152779175 -3.542442420611247
57.031324727806194 -221.78169721195016 -3.824439743058801
56.44157848438085 -221.9094336213889 -3.9014008673029203
56.363413045438016 -221.9225423126015 -3.899138541363345
56.28870326639657 -221.91253690312874 -3.888086830701877
56.13463324549038 -221.94717099162565 -3.8953439158414285
55.937338355856966 -221.90844012506537 -3.963119228606928
55.9135059062519 -221.94125072003243 -3.9724215714411395
56.655257871970576 -222.06266715031643 -3.8775364615168804
56.42231010944314 -222.0179762366071 -3.9083461319963195
56.36579699846182 -221.99355827847276 -3.9018362543227925
56.13962431087768 -221.9744650420426 -3.899515574325614
56.07471986215825 -221.96538888892752 -3.9203557540801564
55.938324174588864 -221.98103435980275 -3.949048933987494
55.9030631359285 -221.96783569761092 -3.9490240311868465
55.76505785322296 -221.9819272841131 -3.955090828548531
55.6580815348397 -222.0158722414663 -3.9787786851531366
56.629755995906095 -222.12009369393826 -3.868735330836822
56.58556908211153 -222.13978059447717 -3.8724907955488206
56.40015037246744 -222.07823020336986 -3.912730687839794
55.632482164691396 -222.05695725226227 -3.9416832915423194
55.5578379459223 -222.0643765905821 -3.960793583339762
56.700163698903225 -222.26575749581866 -3.858473053925012
56.53134082863177 -222.1896683764243 -3.8662731705228786
56.72092779821695 -222.28087512067003 -3.8538632287560546
56.66223015146104 -222.32790178499562 -3.8612023764133063
56.56958774051074 -222.33390331508605 -3.8762409370956687
56.44378695553506 -222.32978368172132 -3.858338267943717
56.37433006393028 -222.35103006289896 -3.8731586904953965
56.631078821777535 -222.42444467982253 -3.8432683396826337
56.449257713047786 -222.3908029426531 -3.8746624503683478
56.34477548365969 -222.3998967171738 -3.8630305238239586
56.60841461904862 -222.52041448293267 -3.8277019303433155
56.5401141670655 -222.52016236347814 -3.8331400021522293
56.595093327883745 -222.5867149539729 -3.8251268575847783
56.541429598761596 -222.5995046359392 -3.8246933949026234
56.45502387418106 -222.57283149983903 -3.8414799031947866
56.50743610162843 -222.6965948628545 -3.83230616878355
56.46213468010825 -222.74590920373612 -3.8265199670595305
57.54278457445746 -222.85135456327305 -3.739842248616817
57.50296545339548 -222.90533424202576 -3.743278357356411
57.289464847500504 -223.2278823099763 -3.776948743454631
57.20510306618591 -223.24349244716453 -3.7667063713250055
57.2964844661239 -223.29615774664512 -3.775812218643389
57.17790623479345 -223.29560176804986 -3.762031750179577
57.063041127266736 -223.3846020813827 -3.796086300161241
57.189345987753505 -223.44722647379558 -3.7859722707301553
57.15809576416713 -223.55296556496043 -3.768479985838805
56.912177227603074 -223.5535148642803 -3.8083675406862154
57.10318332114767 -223.63829039090413 -3.7804933076037823
56.85938934153452 -223.60702572689422 -3.7947982123482786
57.0077489958072 -223.73577309532917 -3.8079983033503573
56.98724255284338 -223.80390470461623 -3.7892508780998546
56.943639982684005 -223.8978508731279 -3.7949677169421014
56.90303255380902 -223.907733277255 -3.8105819158989545
59.26731756094125 -216.0608075263302 -3.4561041821983314
59.2967178037023 -216.2475553877417 -3.4620934819930667
57.49364613174399 -216.9720279588238 -3.6602208419420887
57.43354185797013 -216.98138349821255 -3.6190235429808717
57.60196467522689 -217.05286256179193 -3.673049408504084
57.51492241593439 -217.0512946660557 -3.6587078621827875
57.675916800146894 -217.11961412542087 -3.6752806611515956
57.50908941132494 -217.13049704326573 -3.6358648970358765
57.50599765200246 -217.23803034519088 -3.661800793420266
57.557944524519904 -217.37163909448142 -3.690435109570511
57.52915273431445 -217.3135244025474 -3.6852546844366056
56.579615961478986 -217.52800973992007 -3.74474564612055
56.51256501898001 -217.5030688842382 -3.750946456499408
56.656923667634665 -217.65319556438894 -3.7720225809739123
56.60086103765162 -217.58099980932224 -3.7586404261729784
56.47527047610903 -217.62900611310474 -3.7698857864594326
56.20181825598356 -217.6120174576242 -3.7886707984325048
56.75254241640825 -217.76902365581157 -3.7579693341299483
56.67186142835331 -217.75919386157432 -3.7668726914561783
56.5515149485664 -217.72921797400397 -3.776489808919808
56.464221413861324 -217.69588739021614 -3.7653739417747363
56.278119029285385 -217.71783446245624 -3.802721854299449
56.2134510487488 -217.71678333137265 -3.8554342234264833
56.77761405054668 -217.80192979721554 -3.765100697122194
56.66451381482215 -217.77255539211217 -3.771285777922813
56.53313599103674 -217.82946546908633 -3.7897230732662233
56.46271946967473 -217.77821326508743 -3.7789770218157503
56.42103994740441 -217.76601923799495 -3.7815734683824354
56.2755154488357 -217.76799185836254 -3.8139334312342967
58.55270323897409 -220.2737999550502 -3.455417589657485
58.785818498707734 -221.55968803595425 -3.4826134079712086
55.82959940230184 -222.0169720233594 -3.8440706239581717
55.75115963629081 -222.04125076335023 -3.868407838993322
55.74396408103563 -222.0559848564856 -3.8411550653648963
55.65099052390457 -222.07870934653903 -3.884407880426408
55.57642369025218 -222.1011545597951 -3.9024313066572676
55.509957287460146 -222.14544150100187 -3.8464213653801416
56.182881046449126 -223.01308501657857 -3.7540998654981164
56.06272293109366 -223.0605551417873 -3.7541819752867336
56.967481431610196 -216.02111489554915 -3.598231797092076
57.034266112367824 -216.11774274881233 -3.6065935768822905
57.13538013910069 -216.21687750774342 -3.62632458538062
56.90169593480672 -216.23516362230146 -3.6084483641534346
57.213218543850985 -216.32984471730816 -3.6254080292221738
56.96711545330657 -216.27815181457325 -3.5994366673157345
56.933223208263136 -216.32123220881633 -3.6208135609245367
57.08257295094282 -216.5176792884885 -3.615454985657465
57.054557834309115 -216.48135140735766 -3.6195443222139634
57.17399362967682 -216.6289435140635 -3.6173156444424652
57.29340507954024 -216.7958842439773 -3.6136062661929267
56.3186777591001 -217.13253204503732 -3.69287043953649
56.381843738154075 -217.2667334108545 -3.6597754016693
56.53648585732569 -217.4403158735592 -3.6597329166220254
56.46797694614744 -217.3788705126175 -3.652953089604389
56.22962731305587 -217.41412545924555 -3.6936225907402087
56.551661137030344 -217.5129243474457 -3.725959817479825
56.35154310873552 -217.53893495017252 -3.7490279507350994
56.27703557825781 -217.49430705819444 -3.7053633804692487
56.16782149647358 -217.49459316651442 -3.725273590381006
56.450521783046625 -217.64621898023174 -3.727981895674093
56.393554527753835 -217.61089441024882 -3.7251571000724444
56.28417196316034 -217.6080380824579 -3.7284001637583666
56.45838405582112 -217.681320780117 -3.7396718790420627
55.79005409455071 -222.34889734822067 -3.786686677701146
55.74268693078081 -222.35730004315585 -3.7974005379266496
55.794193516501345 -222.46842218166245 -3.7612002689940596
55.716737189981124 -222.48820164822266 -3.7695873618559235
55.73852309862011 -222.5531907038345 -3.7769355346880946
56.973436038571585 -216.27390552936225 -3.5819382494924934
56.94703641803979 -216.27069728412388 -3.5773435077140014
56.97537282734806 -216.30575123413772 -3.5491632394463206
56.19344461285448 -217.36583241286007 -3.6777036486250525
60.98018493706483 -231.72905413212425 -3.5248952343631483
60.82006650072386 -231.91623332522394 -3.5565916621373894
61.72216842056623 -225.70383952673245 -3.5335866314391144
61.43934064852313 -225.37794525312034 -3.5260045043164054
61.68364363271717 -224.28755682165377 -3.5350097173616772
61.36711199326702 -225.39156573630476 -3.5354143969456056
61.350276444846216 -225.27590447969337 -3.5238301611724774
61.29841732849333 -225.41969477624684 -3.546253833741427
61.29798311508425 -225.353520945743 -3.5385935875785304
61.474910454391434 -224.33986178110374 -3.5597015231931515
62.873558008030706 -218.2040397168928 -3.5213384804406154
61.19748547309413 -225.16946437136343 -3.5282594433975816
61.41853546134323 -224.24232913506958 -3.550369070455434
62.653699242545045 -218.75739141974074 -3.5559023477024905
62.808596286678416 -218.14203081859444 -3.527133128243541
61.120994255860616 -225.18269676464135 -3.538400660915111
61.29485350057546 -224.20637916593122 -3.5559800841190525
61.511845822251026 -223.29913719706406 -3.53298823990555
62.53250136874099 -218.92744920978032 -3.523488219293376
62.590898606162405 -218.70609044907707 -3.5573959174913004
62.75560523067324 -218.08816755888674 -3.53268137751908
61.02781944077027 -225.1054466423633 -3.5399470518854077
61.002262899687686 -225.07472266345005 -3.5392799298072735
61.27065924715931 -224.0286219947307 -3.532051518125897
61.4164017142278 -223.24898857625257 -3.5295412581802044
61.414978418662635 -223.210441419212 -3.5230838719717563
62.48223451370525 -218.86099831164955 -3.5274160152409326
62.47549252015976 -218.73099231525424 -3.544360053554308
62.536268338542804 -218.5482575465173 -3.5755102044508007
61.12121589988354 -224.0187921023757 -3.5441834448337577
61.16198958663852 -223.8970521742645 -3.522431377104317
61.30849558889468 -223.32454737395844 -3.548774394325453
61.329318553312696 -223.25549949243197 -3.535590577019408
61.37224823764258 -223.21598538929075 -3.5263721049421757
62.371544014302394 -218.71357160800122 -3.538408699935577
60.8627052641888 -224.90222162654035 -3.535170598945915
60.89250927398541 -224.83442896805263 -3.5236309396982195
61.07389268893548 -224.1367461206462 -3.5662507014725975
61.11306959046061 -223.8786137500605 -3.524156820249143
61.2184025744649 -223.37288670297932 -3.562966081462846
61.2300689415592 -223.24563747030263 -3.5399394474843553
61.29711150668955 -223.181741245603 -3.5247807807088836
61.35714242250462 -222.64883954134277 -3.5342066596663244
62.24606315863112 -218.71562751379562 -3.5283463054428053
62.29608000363873 -218.60541562280105 -3.548848975405991
60.77660557701027 -224.75981295939164 -3.5284492793525732
61.09085832801426 -223.30276514653355 -3.5593171651336637
61.1412961120387 -223.20609298775432 -3.5387251035358163
61.181320092383594 -223.14931888861523 -3.5261789920819595
61.221886742418 -222.76291037787567 -3.5604016589014584
61.25997076215922 -222.62137774748842 -3.5312918333873493
62.21396675878595 -218.69589000577247 -3.528911104978894
62.19790559097534 -218.66528623282775 -3.532443663057022
62.29647445349322 -218.03380969977792 -3.526917432462724
60.672076227001426 -224.84356991359127 -3.551088308870418
60.67202098155771 -224.71743138224147 -3.5359883146588444
60.717651028830986 -224.68887223116658 -3.5270822671943716
60.99710212046941 -223.38292686826844 -3.580675458453328
61.018202217871554 -223.30377186949391 -3.564808371078288
61.04795334500125 -223.1956623380695 -3.543333422060173
61.036289290658694 -223.07799904536074 -3.5232049334649087
61.16828700067529 -222.79815704678498 -3.5694516900784454
61.16317530734073 -222.66103025932725 -3.542045376553817
61.22599188170741 -222.63813887037745 -3.5354913983599174
62.09157328728224 -218.5989130904762 -3.535655320915339
62.10744781086035 -218.49053017703147 -3.554842363560403
62.24742444249475 -217.7235114929228 -3.578063338298774
62.378690709522985 -217.12466387617246 -3.5414766498070107
62.46684819840251 -217.06022112394504 -3.5494485226091825
62.632366316347955 -216.0387041438296 -3.5303208213465163
60.61552197844141 -224.72169698890494 -3.5434375680353036
60.83883837315696 -223.87877102494664 -3.5508035902461628
60.81129985667693 -223.74005984191865 -3.532652613255042
60.93070364679573 -223.33525390861126 -3.5772578298944078
60.91755565219931 -223.2537881802015 -3.5635295286621336
60.98991672024609 -223.21425570645425 -3.5508439702557006
61.00559902768841 -222.83288779365617 -3.5838365612512484
61.00263561511988 -222.7605706986951 -3.568966585667447
61.10005575385405 -222.36824191483132 -3.5752759210979477
61.9960589269492 -218.6116485289562 -3.5273492153278134
62.052907370853944 -218.47641824420788 -3.553939016136731
62.08975069064987 -218.03098104077708 -3.5233456906845286
62.12244470314047 -217.93544270460106 -3.5400400183112377
62.278020378253565 -217.18459308517222 -3.5345963119484054
62.34380851716166 -217.13508692933766 -3.5407180241867766
60.466766357175466 -224.9252062505394 -3.5865205953837407
60.49561260675726 -224.7974736334828 -3.5674866911206244
60.53588301991357 -224.75255276379983 -3.557016965494846
60.720165627207976 -223.7333530822267 -3.54107214146179
60.74071659846534 -223.62547148504873 -3.5225403092835954
60.916793272568746 -223.09164392435932 -3.534298287570972
60.938070219644786 -222.82357342502206 -3.5854436093890123
60.953608325277976 -222.77820421715373 -3.5751115798604585
61.01568255379855 -222.6209614950323 -3.5396301787279643
61.06085672424341 -222.3692833010079 -3.5759833648212815
61.05502118991565 -222.31153847430167 -3.5628177300454498
61.062070278623445 -222.18300750205313 -3.533797373328853
61.87153812061769 -218.55242975366502 -3.5301771640868425
61.918550056113716 -218.46403604377963 -3.5485882936735296
62.053922209561286 -217.9742052509742 -3.5325071966188357
62.154636200147785 -217.25532833270415 -3.5267054828058226
62.183249755058746 -217.16379306881672 -3.540619368286811
62.42516815035138 -216.13861272609944 -3.5289510483453217
60.150574556694785 -225.64051022158762 -3.523890955543012
60.58737801226824 -223.67676444472988 -3.546771911126689
60.615239076188864 -223.61566579738394 -3.534350044613962
60.75613133637714 -223.2330882086749 -3.5732166581234894
60.86873458983835 -222.78393355674527 -3.5810183883837508
60.82792009448662 -222.6217922737002 -3.549067741731992
60.913866395311715 -222.40111407879914 -3.586238689788484
60.94406079550398 -222.3224893237694 -3.567018421820418
60.98402994849088 -222.28050418349096 -3.55660216512621
61.02720434766362 -222.15844885271503 -3.528436115306177
61.754135003735314 -218.54799403361 -3.5247676728772643
61.85820438643738 -218.49230872843842 -3.540285982161464
62.1051947307377 -217.16966164336924 -3.5421235749817424
62.14002491899779 -217.12278524374997 -3.5486461229526385
62.35027815854705 -216.1963648760534 -3.52552980205369
62.340593103686174 -216.15019950538993 -3.5326964276404684
60.49351143591057 -223.6997602667203 -3.560890880194115
60.58671298273149 -223.21935210482187 -3.586339827015643
60.66896272590488 -223.0970411705718 -3.55582982423918
60.866400832382126 -222.19945923885837 -3.5398974614219165
60.90834077299957 -222.18261126858874 -3.5351511790628654
62.04856613276073 -217.1804861787131 -3.5422330733272354
62.256266198475856 -216.25764774638225 -3.5228699376586063
62.25183891611002 -216.2180580262309 -3.528808440733794
60.41919121534963 -223.6594894053815 -3.56332769673553
60.472034327216896 -223.56578844206328 -3.5426900758251088
60.49108635173397 -223.46479517895725 -3.524946584102421
60.578794980756996 -223.15005694457642 -3.5741335453919305
60.58151344292724 -223.12082043153876 -3.5684169357622277
60.72756281537303 -222.31215335920743 -3.5710253107022134
61.845021821450274 -217.31015574950078 -3.5280708540263817
61.898590140015614 -217.22412664976588 -3.5404467197993332
61.9664978429588 -217.04618656022 -3.5677297056010215
60.346438191569696 -223.7280193409823 -3.5826611048360433
60.36769243758385 -223.57051046846632 -3.555618763660503
60.36587667333481 -223.46529867029417 -3.539527030582065
60.54788570706255 -222.6512849654014 -3.574503619965755
60.62351611049956 -222.47854603013425 -3.5312057800698553
60.63589451795457 -222.26677358193828 -3.56398233366755
60.64404072194644 -222.21683265319717 -3.5512290069943004
61.51134815668421 -218.47303387453206 -3.529091871669145
61.53118052619149 -218.42700984806083 -3.5390284405475714
61.73426496202816 -217.30017041031263 -3.5342655773182674
61.7550583613834 -217.2530190328363 -3.5414245235066004
61.81848515478823 -216.9852035190281 -3.584694557958507
60.061628761334696 -224.28264542256844 -3.562452371024228
60.113018247432656 -224.17939860599097 -3.542905231526471
60.23297587620765 -223.52100992768018 -3.5644073740628563
60.393045567894475 -223.1141521460763 -3.58637923238269
60.3515584377812 -223.00945189611232 -3.571001048061422
60.45579249379797 -222.63886885451987 -3.5794259871684586
60.53925364435464 -222.48156622442943 -3.5379306152842664
60.52485855979759 -222.31909109762773 -3.583075515295757
60.5386683583133 -222.28581574022112 -3.5738273380916845
60.531044173777005 -222.15711614515993 -3.5419876270629667
60.577201793234785 -222.09885521089612 -3.525224423386504
61.381189121140814 -218.42060898831895 -3.5363099217649694
61.38285141547975 -218.36728577537724 -3.5477079042645503
61.71755907594115 -217.2672138553493 -3.5406406583259025
61.84729032624764 -216.39796962121417 -3.530923663858945
61.91318241676888 -216.3539952176853 -3.532564664290068
60.026078670782375 -224.31161396998564 -3.570859959351586
60.456988409105826 -222.25055659914983 -3.5700276870468812
60.46385686414932 -222.13271821782763 -3.539732799382449
60.52592770073035 -222.08086871626801 -3.523272067383302
61.33948558426063 -218.45149983553645 -3.528861683809483
61.32687537334511 -218.3570411055874 -3.5490387514734874
61.396405698144875 -218.2403976237062 -3.5754289167366338
61.49332470296553 -217.41155954746003 -3.5262217753281564
61.52312935324407 -217.40571104194868 -3.5257588444522736
61.77964963240768 -216.44915189794128 -3.5283926364192952
59.251099652082814 -227.0847608497519 -3.536845603825543
59.27097830096659 -227.03097227188223 -3.531191860999989
60.26940316053103 -222.37230198524503 -3.53715801102524
60.36209457789684 -222.21635140224748 -3.5681264762221825
61.21933372114883 -218.40226851417216 -3.5377574694108844
61.22283130619173 -218.3131077132101 -3.557748645375071
61.237413325881825 -218.2367888773356 -3.5750829219524967
61.40451735900318 -217.76770648100677 -3.5751494042885654
61.41168659519747 -217.44121186970887 -3.525220788439142
61.42260894311197 -217.36831913695045 -3.5375809109297136
61.612443504616074 -216.54095484168522 -3.527612275737188
61.627245095159175 -216.46013328240346 -3.53861424762199
61.9787845404366 -214.96974123857106 -3.53298602732795
62.002089281216406 -214.91248911595508 -3.537605181870655
62.069565466663875 -214.85350872872144 -3.5379184495616145
59.101760511971115 -227.15504843835086 -3.5625614629657574
59.18458186957073 -227.0325064127053 -3.5440769589540055
59.18906770234325 -226.9827823791605 -3.540908478938962
59.83603351378879 -224.1277192347559 -3.575358441302747
60.19305555961532 -222.47633115058272 -3.568628382934668
60.17426232692185 -222.36532767994902 -3.545456120148145
60.25012597109985 -222.2404971330098 -3.583727366223336
60.292995901732425 -222.11137952753722 -3.5464428284715
61.14383905223117 -218.3749835361146 -3.543431134459946
61.1874917485416 -218.28368375919845 -3.564291684739063
61.28866956429756 -217.79588678164473 -3.572802481017429
61.37459538395978 -217.34551707403995 -3.5443604823680652
61.3687655445868 -217.18116888292903 -3.5743767096739516
61.45402663759219 -217.11915151896622 -3.580425767121143
61.535364454292285 -216.52236921899836 -3.536658694109985
61.906706534713116 -215.04430920199943 -3.5312500985419355
61.97418677632171 -214.68060829564863 -3.568662861921982
59.010217083196245 -227.23633866860948 -3.5802943840023187
59.06770513618047 -227.0321468329136 -3.561438807310374
60.04122342767078 -222.6295336710494 -3.53488778045384
60.151602244678 -222.34101907633945 -3.542419829683016
60.146470887772736 -222.1994691796672 -3.5830985093734795
61.0314369434823 -218.43095267356009 -3.5307180470278596
61.253132376669384 -217.38728740205542 -3.54411644008616
61.26233823043546 -217.18432339288032 -3.580663460542132
61.35784375074306 -216.65116780535539 -3.531930995148045
61.42656959422479 -216.56120881719434 -3.5398324281584497
61.46522564346625 -216.4536457257043 -3.553027440363683
61.66801599457232 -215.29781091284593 -3.5249793582871516
61.76507354418949 -214.92182610552558 -3.5609588641542604
61.811765078824216 -214.85166802219442 -3.5646312148581556
57.91628544214803 -231.42894396091995 -3.5556066936973103
58.98545395197534 -226.93765932100018 -3.568979713470879
58.94828664231272 -226.86831323941635 -3.5710702824714424
59.00088512364166 -226.62775993515706 -3.5511056744817453
59.056719787986395 -226.5243164697491 -3.5375429456006753
61.00996139026244 -218.03810534368336 -3.532444568725807
60.975391605570074 -217.96297912247726 -3.550019540675732
61.15217397248109 -217.49539053277198 -3.5308194801561097
61.21768562431784 -217.17129659662737 -3.5861224558327947
61.366434936292265 -216.56030011106796 -3.5451632574139444
61.3468740993377 -216.39643550548962 -3.5722584238273516
61.61999864289696 -215.21332805344747 -3.5404518233424724
61.72767309705089 -214.96791569001692 -3.559217761463813
61.7329569775382 -214.7759233013451 -3.582382899124051
57.851845169748 -231.45717853909443 -3.5654420576645616
58.94718347717664 -226.69895503349088 -3.5627441501978727
59.85259029872572 -222.58838959764694 -3.5525104621693115
59.84377518221704 -222.55894561851153 -3.5480695259083013
59.920035926313545 -222.08278228698444 -3.5788943018464425
60.853595435690174 -218.2894881606943 -3.5674848120946856
60.88273789680323 -218.2165201476771 -3.584613288002353
60.910150774179385 -217.83999217070198 -3.5800997874251075
60.98697425050572 -217.54762428325532 -3.5325708256629627
61.04824914200771 -217.49731328618438 -3.5375224195958612
61.58722358226949 -215.10975679873806 -3.556754856211099
57.80844241438272 -231.3650596526523 -3.570398685026714
57.76770587125986 -231.26902385924737 -3.574901795565987
58.81329676467633 -226.53733084783127 -3.574856532626827
59.821502805402055 -222.17554046816184 -3.546751942080798
59.81741936920177 -222.14433826188608 -3.5401413733257
59.84678507732901 -221.9564964564804 -3.555234460288986
60.69658186712092 -218.39806326551147 -3.5458193764665658
60.72192941526599 -218.28552349837005 -3.573152685697218
61.07759050151572 -216.64380987778463 -3.5587497748983727
61.41667720154796 -215.18346465670362 -3.5662714653424645
61.420975353793025 -215.10778590097414 -3.575280891654419
57.68248463712398 -231.20471793925435 -3.5864027169816395
57.724711915777625 -231.1885768236797 -3.5799720314558625
59.63930721120747 -222.43137621731842 -3.554649513219036
60.57708627074404 -218.34852628060665 -3.5641389682728573
60.655747658345554 -218.27893981141577 -3.577911587453982
60.69527863369109 -218.015894503975 -3.5545230968592865
60.72479457458047 -217.86577798395535 -3.586158600283603
59.633299429885 -222.40718507713038 -3.550944704627978
60.4893186046361 -218.45561774261094 -3.541516343789823
60.52148143120324 -218.3675003321884 -3.562481263573824
60.536933611294735 -218.27297791357782 -3.586192138338809
60.596098719799485 -218.0734395332233 -3.548671872064316
60.60649408080796 -217.96850695900798 -3.571776109251898
59.45348749443694 -222.41136662562113 -3.5824813331216534
59.4953553496871 -222.32947671880999 -3.5593285558118586
60.37379159909735 -218.50746629600764 -3.5357138502191527
60.412030998860544 -218.32338742120223 -3.581694508778022
60.38742627398672 -218.21795226700317 -3.5328908763163342
60.44820800134605 -218.04111715878568 -3.56832459038711
60.62530852335159 -217.6072407711383 -3.5513561608200033
60.71174133983588 -216.79150689592888 -3.573020620494195
60.75202428743509 -216.6848920232615 -3.5858026012112636
60.897353599289616 -215.97993003748087 -3.525568737294656
60.93071141664938 -215.9101102300156 -3.5304568618213326
61.01377779507928 -215.8363141333963 -3.5300552661872158
59.343575751516575 -222.44454452412774 -3.5278557164876756
59.40031700204366 -222.3309894768141 -3.5767910176647515
60.24354937645735 -218.4969392178689 -3.549500740843978
60.24782837841355 -218.4052954079291 -3.573899415481659
60.39495008999592 -218.0887567722235 -3.562181719156915
60.61117777768276 -216.89688245315998 -3.5671965442996076
60.602588459639186 -216.88088263066504 -3.5707580223284663
