ply
format ascii 1.0
element vertex 809
property float x
property float y
property float z
end_header
-11.956239524572567 -9.47810990237123 -0.7074689083459289
-11.890593467124203 -9.248409941618757 -0.7064952199040525
-13.525690818857367 -16.74088062108675 -0.7429592407572428
-13.532325497975487 -16.66937277313184 -0.7406467402977595
-13.462465819767115 -16.490966855215753 -0.7299670246655238
-13.444947283886663 -16.424542631886098 -0.7265138843837431
-11.980456180291721 -9.316017933016685 -0.7089362755317116
-13.6922257586709 -17.202400552516686 -0.6577853874737762
-13.720464023767962 -17.12878609475494 -0.6591767420355044
-13.582742449656525 -16.745978938764512 -0.74645392926544
-13.571932812220284 -16.613961396354185 -0.740851232093992
-13.585092561582332 -16.5478294902549 -0.7391237150260865
-13.495088751923452 -16.39743232362499 -0.7283665055336802
-12.853905042922092 -12.686643146041003 -0.7266285333045235
-12.146292067252165 -9.47596532409474 -0.713259806028467
-13.769537914972108 -16.787482280754382 -0.6587625654167694
-13.695834805442615 -16.533560928451365 -0.6651339898056877
-13.6611082330842 -16.431765424025915 -0.7287398274370628
-12.913201520606364 -12.675449039671472 -0.7279560265978064
-12.879405279534142 -12.500900271031414 -0.72679186359048
-12.848550229356459 -12.409914934819122 -0.7259322437468279
-12.822020290232523 -12.31955329392076 -0.7251692497745521
-12.349485971994204 -9.734229898558258 -0.7182421031460089
-12.262057878445576 -9.682777126214258 -0.7158075655480994
-14.463676617792876 -19.811433616563235 -0.7409495410550015
-13.799247209488797 -16.772025275595308 -0.6610320543197922
-13.801918632574102 -16.728250106453828 -0.6606526908337311
-13.783572536336955 -16.613064207562324 -0.6574904692478252
-13.74023594714069 -16.53486283718221 -0.6527052405011274
-13.720372630372538 -16.447541974322153 -0.649689154644536
-12.956714878053251 -12.653762629407186 -0.7289077681221163
-12.952315678829082 -12.604332579413358 -0.728720638916285
-12.4223437404867 -9.803208561155135 -0.7201897390828931
-12.420350303510325 -9.725766345578398 -0.7204754703708117
-13.937044380338856 -16.64713238754488 -0.6707794067216761
-13.86038445669855 -16.63881220079733 -0.6642878075184404
-12.509016694536097 -9.707794141954363 -0.7233331113208634
-14.168916127887481 -17.479263275011622 -0.6991030462443247
-14.00443723308413 -16.656380962812545 -0.6764911055428515
-12.607453558734269 -9.72494475829501 -0.7263318963618786
-14.189688232821767 -17.001434499638798 -0.6957485553622401
-14.169823278176201 -16.740504747096665 -0.6911255008486579
-14.075208806616706 -16.680043333638043 -0.6826366882349216
-12.754871720122226 -9.86781495534816 -0.7302300622680425
-14.22549635939146 -16.952098691384762 -0.6980669164560529
-14.253104350831418 -16.83055603732725 -0.6989223499540027
-14.233426369304828 -16.719616236989484 -0.6960441227584433
-12.853574586085061 -9.895004300667935 -0.7332457962756196
-14.34796734371266 -16.77541109463986 -0.7059269210382911
-14.334614180284328 -16.721415802822555 -0.7042514651864703
-14.284614727614159 -16.64175214182428 -0.69928266981456
-12.964886328143583 -9.911920667302951 -0.7367376586757773
-12.949186492393242 -9.883813667731442 -0.736429071583814
-14.508163651681357 -17.11466353177638 -0.7220373540077798
-14.454764149333437 -16.903859839534974 -0.7157913244280417
-14.401465255527732 -16.786645440885053 -0.7103290865990499
-14.447343583660075 -16.72522831953348 -0.7133274994984721
-13.081484851285031 -9.919100317968422 -0.7405372478389958
-13.006899919495218 -9.865419118845299 -0.7383726815163428
-14.737682313975837 -17.608157681354406 -0.7437411073625431
-14.701780900514956 -17.565502218019727 -0.7407161689535033
-14.715783544758544 -17.479285111935912 -0.7410633901467725
-14.626044094362143 -17.077930342174945 -0.7308056750501141
-14.570974810994558 -16.9825887385375 -0.7256632517824504
-14.525946898012103 -16.77620023199415 -0.7200986874119856
-14.510214086272944 -16.718111256943693 -0.7182514880799278
-13.217710149968962 -10.05023427410428 -0.7442564470289109
-13.145116865292213 -9.955416739714723 -0.7423847410813738
-14.800503703514455 -17.385976934090365 -0.746638456650121
-14.736363911668912 -17.33786237981063 -0.7414437823344155
-14.753005910376348 -17.23737315210741 -0.6480596160366467
-14.75874582616343 -17.139600143461223 -0.6508869885220596
-14.701165966094218 -17.017219651802044 -0.7360216743796801
-14.694450494011758 -16.937382536061953 -0.7010716906941983
-14.671696801501508 -16.870267583909413 -0.7219540238730207
-14.656766800998007 -16.748689689405367 -0.7300951577662758
-14.599921102506817 -16.68619708817098 -0.7250119636249917
-13.301130443862794 -10.166466616545588 -0.7462525043669802
-14.806399401510173 -17.317436605229155 -0.7465259600573484
-14.794648689301836 -17.123353038298173 -0.7142912762182814
-14.821307852112179 -17.01275223578972 -0.745123244412284
-14.736593997391529 -16.94556496920211 -0.7380954052992392
-14.773155190932856 -16.85482455540089 -0.6750794457851796
-14.94594659817369 -17.183412353985684 -0.6662849256165455
-14.893348063535676 -17.115727665621936 -0.6634070845776076
-14.838925077173807 -16.878779091287804 -0.7221811382835701
-14.818692478963497 -16.862657985085924 -0.6950650881987191
-15.020162424931428 -17.193754889669684 -0.6723357062693627
-15.201784096350575 -17.34196261885953 -0.6840774200989737
-15.126606834536977 -17.303652323793372 -0.6784859100181184
-15.106853819168688 -17.186444134363906 -0.6797639317319631
-15.096901615577707 -17.090383603665728 -0.6814466060322102
-15.233463438501172 -17.34587273043838 -0.6866909213009139
-14.217438559008283 -11.864041527862653 -0.6510131452636303
-15.579468315977381 -18.25901898644124 -0.6906179089520996
-15.572824405927788 -18.23919129028054 -0.6905977954037968
-14.290963980924452 -11.905929235105752 -0.6557308783225146
-14.236012009453539 -11.874482450593831 -0.6522293015916043
-15.669988530729395 -18.36189249982717 -0.6946556243291497
-15.658839383782393 -18.2889416324917 -0.6957807405963972
-15.62581983129537 -18.219217935792397 -0.6951541568250804
-14.385407589804666 -11.92139040864183 -0.6608408386895952
-15.709221255303769 -18.098337239107977 -0.704623573562527
-15.72952975835573 -17.979945712307114 -0.7092463405219618
-14.474175015863036 -11.87629252880256 -0.6641711676258235
-14.505790997798629 -11.810099353074879 -0.664150228729262
-15.807276440911549 -18.026228659489192 -0.7136438552262112
-15.785886997540148 -17.96536430429798 -0.7137208232074054
-14.526819320504904 -11.774156875988405 -0.6642908824051816
-14.538837370751677 -11.68348482716356 -0.6626467867893043
-15.959474333126638 -18.281480444492452 -0.717484601370858
-15.886214840790053 -18.00699004696139 -0.7197423493226032
-15.894553949169346 -17.944151660799577 -0.7220131402341179
-16.012971990844594 -17.966551380684756 -0.729525189114951
-15.993140344788078 -17.91662496206176 -0.7295390645902275
-15.97371999013797 -17.81794580940356 -0.7308538978884144
-16.047822564112714 -17.85000535952455 -0.7349644098310558
-16.059578119708956 -17.797984519792596 -0.7371493931754838
-16.06439020657501 -17.72923881286301 -0.7392779643454863
-16.166844645534493 -17.762565418616912 -0.7450566457681955
-16.109304204629737 -17.708296567539143 -0.742805643371577
-16.15619911942639 -17.574391604087296 -0.6506881463682579
-16.193661991640806 -17.561185399494843 -0.6537048916402595
-16.377880440116023 -17.820961889302087 -0.6482754014238772
-16.354433362840822 -17.767883949967324 -0.6502402923367072
-16.524123314450666 -17.899041309124677 -0.6511753956161965
-16.61010396760486 -17.969224496144623 -0.6511832941250284
-16.56572524152375 -17.905897310740094 -0.6528006036336618
-17.07565310565348 -18.37525000731135 -0.6478271435061902
-17.051324862394747 -18.345539866667902 -0.648515440417593
-17.367124810474483 -18.45653874294727 -0.6536925991115149
-17.493369007167427 -18.572057345357383 -0.6514966975849825
-17.410659758743535 -18.43476683419816 -0.6562322264596319
-17.61353659193075 -18.66060349798002 -0.6504796773444724
-17.55663173430628 -18.62544924060579 -0.6506172525262226
-17.661465717145056 -18.708880316447495 -0.649334075150091
-16.131498061123448 -10.795128319486498 -0.7290294694805066
-16.120626862625667 -10.76408371917012 -0.7276836788595583
-17.811973301282684 -18.775180749928005 -0.6500821739000278
-17.844973883927338 -18.77322972215868 -0.6510479533350138
-16.202289948376553 -10.36189811400383 -0.7231009806729913
-16.05396863826805 -9.400769596086985 -0.692244968486579
-16.248066245254314 -10.221792382169253 -0.7225162337773048
-16.205261653524804 -9.611286957757134 -0.7058751168885169
-15.969465799442935 -8.60096997712518 -0.668859454485027
-18.134700001414526 -19.008825257814046 -0.659854874243862
-16.196615436361878 -9.496249865277397 -0.7027164914732071
-18.254595648708317 -19.079850501766607 -0.6586436587328066
-16.39995920543754 -9.917399421559374 -0.724317791312656
-16.08513016084053 -8.405274799857814 -0.6709944396168239
-18.388787800908975 -19.151564525794747 -0.6574907102534306
-18.38450553493932 -19.060376810935168 -0.6609551501370141
-16.46816002517949 -9.803465728219958 -0.725645349124002
-16.426051601020323 -9.578001907063069 -0.7179499467875322
-18.453294928750324 -19.12260376438187 -0.6593597434807779
-18.458822515507446 -19.01420415391312 -0.6635234010578571
-18.440613782350294 -18.96281905770113 -0.6652531149240279
-16.668570688456605 -9.9576924913938 -0.740994213001734
-16.533022147878576 -9.475370563371872 -0.7218274595270864
-18.53578551645007 -18.91644169027302 -0.667856273605131
-18.518643232351224 -18.86767366685829 -0.669478245033126
-16.659611488664478 -9.276176255139777 -0.7245927767266226
-16.417911229057378 -8.413977069974116 -0.6904859601840838
-18.57469717267203 -18.84306296012628 -0.6708105524501473
-16.671693898150938 -9.075608946527387 -0.7206527169571614
-16.660482237185313 -9.01717564268833 -0.7186227614867733
-16.56298596215424 -8.14422366029163 -0.6926610394535531
-18.854501910526707 -19.1965435186044 -0.660246959939476
-18.917845361149617 -19.092587211958424 -0.6642479882380474
-16.56761134664796 -7.685808073269738 -0.6822963556982906
-16.54758944739871 -7.639374071089963 -0.6800699691797485
-19.020372966975675 -19.341323878879447 -0.6562385770948089
-18.9637902308785 -19.28350980197238 -0.6579092685071232
-18.972301751492584 -19.198743342852993 -0.6608996190776188
-18.94366173863561 -19.09596290101642 -0.6642661047201186
-17.171905204619247 -8.874963259711148 -0.7454210412480429
-16.945651850160637 -6.919460029381608 -0.6865675239976912
-20.032715403205227 -13.51823621291939 -0.7480351448139713
-20.027450977086094 -13.423365886463642 -0.7429661310943411
-20.00238244851873 -13.317267499705078 -0.7371548651374548
-20.07521773121316 -13.40869476991869 -0.7423482984685115
-20.045599425849847 -13.352521603032045 -0.7392344569176947
-20.012748629009955 -13.281302045639219 -0.7352281054848577
-20.208493219652162 -13.50048034608282 -0.747747543087
-20.15962576636354 -13.058912663452304 -0.7234109105048214
-20.13265724593941 -13.025479640923923 -0.7213639530690366
-20.261666632547602 -12.763248559158937 -0.7066843091928501
-20.256553212143825 -12.709962157431328 -0.7034607058249909
-20.345281276592328 -12.727189662967826 -0.7050253888225848
-20.511024801248272 -12.514212085412229 -0.6931779579700066
-20.608595778410848 -12.385651782247601 -0.6859297707643217
-20.57693791510217 -12.350002364417461 -0.6834972278153252
-20.665842212053114 -12.273037776726852 -0.6793285648048197
-20.768205498957645 -12.143930052818273 -0.6719586811077198
-20.800374013882223 -12.071922805542657 -0.6676282441265736
-20.809318039775988 -11.999859918351092 -0.6630900471235717
-20.95639710154341 -12.10321302714388 -0.6707875013642102
-20.941346842313518 -11.833804804788024 -0.6534506323850735
-21.018328732579437 -11.766888574375136 -0.6497614770968773
-23.247227395929762 -7.737110427381885 -0.7482538868593971
-23.434459336172814 -7.463412401632904 -0.7417900351504637
-23.913637314760074 -6.8708381200682584 -0.7308959931051167
-23.684701084155876 -5.859876328159981 -0.6667173591741735
-23.691744036004376 -5.7263656228005395 -0.6598304954621561
-23.649017796492792 -5.617621961783833 -0.6519770707892676
-23.987053409756342 -6.886573383715589 -0.7348351224792635
-23.718974381138576 -5.633253950324388 -0.6558959246763263
-24.023376372374052 -6.682410778873537 -0.7256374669277973
-23.89975555691398 -5.992259196305076 -0.68337340540342
-23.876194588729863 -5.959531010647588 -0.6805036703037255
-23.850905491147792 -5.80111801503476 -0.6709055148589137
-23.995986973174293 -6.132296734642749 -0.6951002305972002
-24.031201814004945 -5.909697821471031 -0.6846068470133224
-23.946105897708204 -5.790320555213357 -0.674468289394798
-24.15876193501986 -6.083498239144358 -0.6995539798972493
-24.198546019000872 -6.161402354576351 -0.7054442377047048
-24.23364178078134 -6.0670025485062435 -0.7018498046250898
-24.325811197635254 -6.152233544837232 -0.7104513796613059
-24.29638173593918 -5.880002471842737 -0.6945592150373006
-24.257248142849015 -5.732377407236676 -0.6849998241230442
-24.44374310305888 -6.12598328010866 -0.7140982202451356
-26.30798018320033 -11.592637067244738 -0.6670705156282726
-26.611559555618907 -12.067986378553993 -0.6937813402469334
-26.911918401708185 -12.075992941196102 -0.6952344970606391
-27.168550266541075 -11.888114937117379 -0.6862525734603407
-26.992960695834455 -11.451414951411898 -0.661849913876356
-27.722656234778583 -12.316292739405677 -0.7102846437297172
-27.85535987096243 -11.89423365132815 -0.6889339254458724
-27.800269458575865 -11.818615996078595 -0.6847524063071675
-29.503486327267122 -12.001626976837377 -0.6996761310793183
-30.71114913760055 -11.382109566152081 -0.6713458015109738
-30.685979976954897 -11.307745880077702 -0.6674420262116839
-30.782998962085927 -11.475463324880932 -0.6764265624158671
-30.82419340760876 -11.411425568214417 -0.6733841044630298
-30.894574455969156 -11.616213934776093 -0.6841681641552301
-30.874407060133215 -11.510507817719393 -0.6786709624257479
-32.053876877768595 -11.547856112986533 -0.6839917060838953
-33.023924306340675 -11.450327254086005 -0.6819514426810223
-37.348951400809774 -11.50774657766998 -0.696464099968471
-37.51541112872221 -11.636989956039415 -0.70309996859184
-37.452862981592574 -11.567509201951298 -0.6994013190690025
-37.601682146952456 -11.704260319909828 -0.7063142664693398
-37.693333912691855 -11.76940851540344 -0.7098511693137841
-8.997303953300875 -49.31246564462125 -0.5780452122893456
-9.35640361290391 -49.37749972166141 -0.6070276219923727
-8.979580000021935 -47.578235329188246 -0.5621533891900197
-9.133975436633452 -47.420236382807204 -0.5719695502531739
-9.555280902606448 -48.95463564285802 -0.6178989651362374
-9.283060153397168 -47.28116984187082 -0.5829663705077834
-9.501898973129189 -47.336689381383145 -0.6003587671450883
-9.633257252160906 -47.264183864687226 -0.6091354892077744
-5.5968525153793145 -12.176541673741568 -0.5808927110973074
-6.344149329975913 -11.97819912322231 -0.5918868119868186
-6.75454219841172 -13.128246003329718 -0.6165721423775833
-6.888134120256632 -13.120452932932508 -0.6185699578124382
-7.123320898972182 -13.318790035027618 -0.6265371503829334
-7.065880414586591 -13.216313914877743 -0.6234394100571866
-7.300979542195899 -13.515921496526374 -0.6335234541061636
-7.17464217279068 -13.327765354612948 -0.6274993303007462
-7.182633377364041 -13.268059788623294 -0.6264932139852737
-7.417442738140878 -13.577179991749341 -0.6366924194991604
-7.382861132427172 -13.46878666494674 -0.6338864378497171
-5.914976397478949 -6.132611505110932 -0.5508075230150136
-7.194437481152727 -12.391790805971798 -0.6126820213365871
-6.014953976652642 -6.457855651718916 -0.5534679040965258
-7.254811548967087 -12.182580279419316 -0.611024177853803
-6.149470067367325 -6.454350448820421 -0.5567798142869576
-6.1120471819849715 -6.363005987486355 -0.555853815739415
-6.3080920896000645 -6.650191185621097 -0.5608702928023446
-7.812290956563079 -13.746886030848163 -0.6468162303290016
-6.39140235266305 -6.1991325863579245 -0.5627661229701313
-6.554157607130833 -6.16979106372243 -0.5669352283159728
-7.737031245539082 -7.030173919855709 -0.5968774559036627
-7.780650857379557 -6.98919531757224 -0.5980412994437283
-7.871431003264854 -7.0249929030076785 -0.6003534151492684
-8.240658728399843 -7.285464162754136 -0.6097542920499497
-9.041209997168375 -8.125394244443392 -0.629898435733729
-10.798027207055021 -15.238861653859782 -0.5572052003748966
-10.759067396580525 -15.207011625569507 -0.5543257146737787
-10.7117520029317 -15.050382762657629 -0.547782363178543
-10.74695154351739 -14.996236260939803 -0.5482430466206979
-10.83143603622542 -15.055443559469651 -0.5540779672732765
-10.814962847452351 -14.946881404594402 -0.5503721580845632
-11.09994233088977 -15.293593241842492 -0.5740526640638146
-11.091369686592344 -15.129203573233628 -0.5692290297881597
-11.202217092592822 -15.28218809212569 -0.5788948577387095
-11.147707253173461 -15.222554608935065 -0.5745480321652243
-11.108278851721561 -15.127781126494371 -0.5701296781171383
-11.311966796923313 -15.238265599899963 -0.5833463843752509
-11.224808550798652 -15.231175857505928 -0.578787069433293
-11.542831740251241 -16.24468724257932 -0.6217684230869427
-11.405429383447096 -15.337245802896486 -0.5907413596256932
-11.347703046612668 -15.305384530027533 -0.5869715955383624
-11.510976137107537 -15.353067454284584 -0.5965903022153678
-12.70883771051232 -19.894795502055054 -0.6085892492431617
-11.852859200924625 -15.476475972671919 -0.6172444554784968
-11.776224126525843 -15.331093324605975 -0.6094798285590072
-11.928216652416964 -15.438490867079558 -0.6201225173937398
-11.930304697575805 -15.354242027882785 -0.6179854289390594
-12.07339536456158 -15.530709585723885 -0.6299849163708819
-11.976203798839462 -15.37172953757967 -0.6208304728095491
-12.233860019489159 -15.786810684816466 -0.6448860182729529
-12.195867328118771 -15.710245792913227 -0.6409518535034406
-12.172202625548394 -15.618724082649297 -0.637319494135387
-12.162015038041876 -15.512972107377994 -0.6339984260919362
-12.087431180531244 -15.47393109949897 -0.6291289081493423
-12.240206946388108 -15.67276160162409 -0.6422244156291184
-12.213439543289859 -15.574259458704047 -0.6382505719279424
-12.62816314234203 -16.214572021476418 -0.5546776521062249
-12.57686879561004 -16.137426920369453 -0.5493520353341729
-12.11346440688084 -13.63827995218708 -0.5839628883708874
-12.046584299227842 -13.63878595137998 -0.5804568573585214
-12.735683023777835 -16.282991632239987 -0.5643526901740819
-12.147857545905023 -13.6281726850594 -0.5855659868012981
-12.161507762888714 -13.576172168289604 -0.5850875017219163
-12.137034431752467 -13.490077571137816 -0.5819270402590453
-12.90044143050626 -16.502637134451373 -0.5803754884242596
-12.811155276037976 -16.196561753376216 -0.5696103057436968
-12.773009030913345 -16.1170411718177 -0.5654501450792413
-12.24444715381897 -13.443642309899428 -0.5864814223304945
-12.25168494837161 -13.361500170821857 -0.5850427654991678
-12.195412335455163 -13.288573900147451 -0.5804748341087465
-13.015280154886295 -16.766155661424442 -0.5946530958408686
-12.996377671750986 -16.566919299090227 -0.5896406126819376
-12.923579915356639 -16.374945824313457 -0.5809207642846634
-12.897492207857976 -16.17186078907968 -0.5764771756742869
-12.82452286809713 -16.056968001667574 -0.5689610720600822
-13.139473740392294 -16.719881828665375 -0.6045426505989324
-13.076880115613015 -16.54522430902759 -0.5961932278283142
-13.060359627337142 -16.454300877532994 -0.5932041920346822
-13.0290692294492 -16.361325614565082 -0.5894492147411858
-12.993204923281088 -16.291652842823073 -0.5857401143877339
-12.376481247512434 -13.023536971573623 -0.5839915103779458
-12.382606659193128 -12.882071317618754 -0.5811559540259851
-12.332315107973058 -12.798210056373296 -0.576636406485888
-13.22631910853793 -16.628765806972943 -0.6104773707753682
-13.138036950566669 -16.50855071560823 -0.6008382976706133
-13.148958273963538 -16.404454841892715 -0.5999306475538987
-13.12027268059765 -16.32122964955454 -0.5964875054138206
-13.081650530032862 -16.222850945565185 -0.5923077085213226
-13.078991819999146 -16.167360867051745 -0.5914504132789964
-12.415741463045574 -12.982894563693247 -0.5851121238253717
-12.410145224368192 -12.934991517331767 -0.5837470776464562
-12.386150438118904 -12.725193859617557 -0.577767430280421
-12.36483060486755 -12.64672336769829 -0.5749093699544094
-13.28619827112029 -16.66643388349622 -0.6162117338972242
-13.322134478246163 -16.639480392208878 -0.6188271632990219
-13.263147358666286 -16.471676421399636 -0.6109928540049805
-13.180278296206664 -16.359961092187966 -0.6018432420006181
-13.404956519013378 -16.53840586674217 -0.6242620721471634
-13.35509176326533 -16.42245672010743 -0.618046667172986
-13.433145206675524 -16.556105185032102 -0.6269722761062702
-13.46551182167252 -16.450122987982823 -0.628002242707542
-13.467146642099639 -16.382334876972855 -0.627003431468221
-13.518551928812656 -16.358521291021123 -0.6310247522453792
-12.835876209678238 -12.68938309325452 -0.6001756142049866
-13.710628426502803 -16.800224457587603 -0.551759357778709
-13.71619407432638 -16.72721859224728 -0.5531060686151752
-13.71114973608207 -16.601998079633276 -0.5536872734428298
-13.675030694904674 -16.50626384665741 -0.5503802363090031
-13.665688498169775 -16.435254994533796 -0.5970700941246974
-12.896618982451587 -12.678536842228972 -0.6030739200202113
-12.927971858412722 -12.639906278718307 -0.6038028985739367
-12.889305147479446 -12.491620249460818 -0.5983929776259872
-12.892843713894468 -12.436661754288865 -0.5973101102825296
-13.73578977394402 -16.58889732394013 -0.5565189897575898
-13.739048287713368 -16.529216668075815 -0.5573645356341617
-12.943522493614054 -12.597167164312053 -0.6036247574552028
-12.913383663397717 -12.394364630527123 -0.597387944031196
-12.89756785126104 -12.339332377216369 -0.595296528355133
-14.530760121967877 -19.794781226247515 -0.564586306538279
-14.08054906957045 -17.409626604754067 -0.5810024436579886
-13.861597271993485 -16.66679337058928 -0.569586478078911
-14.571043458539354 -19.745300041036074 -0.5693845670546913
-14.146666871154824 -17.50017621616592 -0.5857118855328225
-14.096866519630668 -17.36538882846024 -0.5834479458909991
-14.130398275223605 -17.079984201926486 -0.5919310695884781
-14.046314399372498 -16.99433578704121 -0.5847672993690732
-13.975764292753457 -16.598903803289577 -0.582690590382075
-14.655363928591692 -19.475998553491365 -0.583320503878316
-14.1620216246358 -16.949784966321218 -0.5973245742244144
-14.070307168945003 -16.571893994897454 -0.5931802119578662
-14.729881433492283 -19.239244179821156 -0.5957996567842108
-14.247418655307206 -16.84133575207249 -0.6078314691947291
-14.24480747659122 -16.73893804281087 -0.6092172792195946
-14.228958209866093 -16.613799607193762 -0.609441970194829
-14.192168962693291 -16.541711417639224 -0.6065577772951856
-14.816171532146903 -19.445786590352135 -0.5979884920031082
-14.874381290166191 -19.363104719126618 -0.6049718058596789
-14.401951545904275 -17.345169207041728 -0.6133406687592997
-14.433760394701169 -17.195957155226722 -0.6195023217968414
-14.37596131738683 -16.892870325223612 -0.6198478305037414
-14.356823099174564 -16.78959678568559 -0.6197875966264966
-14.279169935723194 -16.734765890254334 -0.6128105642690691
-14.273059092724147 -16.60048737520447 -0.6142473583717943
-14.329819686908197 -16.551477041465308 -0.6208826820218225
-14.95147199960598 -19.348101406977044 -0.6118129855736254
-14.480276905678767 -17.161121043257122 -0.6246535769248402
-14.511900509108953 -16.977453492123907 -0.6314844732473454
-14.460546670623847 -16.899855509148303 -0.628050011868679
-14.454872584290456 -16.797937050176053 -0.629404085054359
-14.447547433156938 -16.702156283953702 -0.5807510723075525
-15.00222276736336 -19.336069718324275 -0.6164052209886053
-14.627261691617493 -17.058675665619518 -0.5502374729673101
-14.59268102764 -16.96371840960029 -0.5612928599082811
-14.535872179050486 -16.888968696745824 -0.5779623034376343
-14.46760209758896 -16.68363444338835 -0.6327768748847081
-14.741056478728838 -17.334318908418293 -0.6446805945414773
-14.720033128825397 -17.220329249981802 -0.6218276191876007
-14.735449406225536 -17.155988401452476 -0.6030485557397576
-14.659232951676083 -17.0252568882874 -0.555514467231659
-14.680264521885052 -16.977852709704173 -0.6473959807723013
-14.613083593512368 -16.901840250915562 -0.5568793124285529
-13.43625043089413 -10.599924038015306 -0.5810836225086891
-14.835940859377386 -17.11353114758764 -0.5693780993554589
-14.80693304143021 -17.065339260438183 -0.5690793915004424
-14.782552877258727 -16.938188401827333 -0.5735396959706823
-13.510788470335084 -10.632646966738433 -0.5856166170971355
-14.951664081756535 -17.15500065821154 -0.578635692877988
-14.908673405865258 -17.129897501995018 -0.5758119979203191
-14.816432763860073 -16.803154190729508 -0.5845048424084547
-15.030832830895077 -17.269379399539332 -0.5795375829033476
-15.0228066462718 -17.1779476157256 -0.5841766709208056
-15.001675361861144 -17.1119008888163 -0.5860256696434247
-15.159769788943844 -17.259705137668604 -0.5923001234365048
-15.110518911033783 -17.189964926673888 -0.5917218900957497
-15.25290390870879 -17.334554851593843 -0.5966886707805221
-15.213900335832559 -17.28258190742207 -0.5961355986155292
-15.334171042702753 -17.355177914847282 -0.6028827797217262
-14.339080279787984 -11.952136049359742 -0.5485729646522122
-13.944088550827077 -10.127491998107015 -0.5948492135256465
-13.962666419981309 -10.101891842988756 -0.5951802083592406
-14.396251799090862 -11.945620874181163 -0.5519563226923961
-14.087865676143988 -10.334100739397456 -0.6071075005669642
-14.043687672567449 -10.15211367115268 -0.6003923317055988
-15.671736255537114 -17.727116102511772 -0.6081865756420918
-15.64164609417724 -17.715879389282435 -0.6065604363759395
-14.485965785851286 -11.904334200031286 -0.5554840607125247
-14.148919009614971 -10.44978400260095 -0.6129203647213957
-14.124911196247357 -10.117564253063305 -0.6035816738580594
-15.747298321818674 -17.741675301075166 -0.6129641958651707
-15.759998860601893 -17.669106241584302 -0.6183797917757217
-14.53335810606875 -11.848208811642454 -0.5553487006701099
-14.540937089181988 -11.780696900725232 -0.552009062644411
-14.274289812851569 -10.163684823967479 -0.6121560235820495
-14.222719308871472 -10.1424893754263 -0.6090397701448875
-15.916724466420858 -17.85035784372638 -0.6183706007256456
-15.851566880028907 -17.75889049448493 -0.6194529205176302
-14.307747913652571 -10.185339967130119 -0.6143095840981634
-14.347664686603142 -10.115518254476333 -0.6145544745747433
-16.028805068568687 -17.917146102053213 -0.6217317421689432
-15.972414279314947 -17.808074460120235 -0.624690039440478
-15.94783353306136 -17.740098736437634 -0.6272483642830756
-14.392196973141303 -10.08688388562528 -0.6160996252811497
-16.05349592802941 -17.959524596852013 -0.6207246568504
-16.079080805747868 -17.874161613194293 -0.627525297135791
-16.06301580752006 -17.809958512157515 -0.6304961871478977
-16.084229385139803 -17.69735804811535 -0.638767640567113
-16.1291493418585 -17.7807294139107 -0.6364337008961266
-16.13430078096947 -17.644684952975446 -0.6450792384489283
-16.167947209799504 -17.57053247503521 -0.5527296010570495
-16.287291873583914 -18.03324999927976 -0.6304482994101741
-16.323923923004248 -17.904567600292044 -0.6402767393967603
-16.3114153828274 -17.894424974587 -0.6402349757886281
-16.282905674214195 -17.786054217057963 -0.6451647232730375
-16.432544057965437 -17.916996546566516 -0.6454259767812334
-16.335054982462573 -17.81069913608194 -0.6465853196731952
-16.3736688600647 -17.717363241600925 -0.5492153721966979
-16.511561398555997 -17.97027658960124 -0.6463129761088855
-16.468638464627297 -17.929708097792776 -0.6465423437109945
-16.734950280109505 -18.364353581115296 -0.6338883287863599
-16.709505385404558 -18.315146923921112 -0.6356202872166933
-16.768399646792957 -18.4424756906389 -0.6309203930518525
-16.80435507693609 -18.34669451045029 -0.6381054005610839
-16.762540823549948 -18.250336222735005 -0.6418408406485228
-16.996845850020804 -18.700580796983274 -0.6261008350340386
-16.922173225872452 -18.42712383469817 -0.6386362014555746
-16.863531169384373 -18.396054099838178 -0.6379161847524473
-17.01448561501343 -18.418154056599725 -0.6429730784275347
-16.945591700444947 -18.35485463543203 -0.6437416963199392
-17.175982063878397 -18.598437276725207 -0.6391543753258089
-17.055791446879166 -18.398937094618823 -0.6457270378412322
-17.237453203001667 -18.602096538977186 -0.6412379217983442
-17.40262210436935 -18.849276457502874 -0.6335709098920066
-17.35593646558348 -18.659321565485556 -0.6423042918268964
-17.448937502750365 -18.67261823513833 -0.6447105219195763
-17.716534305944606 -18.771353579513885 -0.6476441056227427
-17.808340536575063 -18.926962358317166 -0.6422041439002613
-17.81603746171318 -18.87222141207314 -0.6452166457518669
-18.562358974845242 -19.514350039808683 -0.6455493375531904
-15.645119707223571 -4.758039425301135 -0.5613430624959646
-15.712172333877794 -4.715310424162828 -0.5641919926434157
-15.854264003868678 -4.6252670171545756 -0.5702548844684099
-15.995947761960517 -4.60320149710887 -0.5778831451761118
-15.961973244610183 -4.532588943158508 -0.5743029545335431
-16.13583075236237 -4.57303341905072 -0.5852310534174651
-16.362155037007376 -4.953906469532551 -0.6071134421742611
-16.214397208829656 -4.447954573981924 -0.5868638441545229
-16.4312028700424 -4.93617343903165 -0.6106934357780471
-16.404455782122145 -4.830244308177207 -0.6066806442334368
-16.519476494504147 -4.667694216951155 -0.6095844703144401
-16.489807538778336 -4.587379934067981 -0.6059914710048263
-16.556951897380035 -4.644401981619707 -0.6111976426324761
-16.72250890376206 -4.764899229285403 -0.6236044185185043
-16.97861782971862 -4.975628919236085 -0.643383246981863
-20.549124048361097 -20.77689755781943 -0.6145612242641144
-20.720116894064304 -21.24008482195946 -0.6000501862806695
-20.748685077106565 -21.139792688789495 -0.6034114759642277
-20.76515955984686 -20.95837546661188 -0.6092197883802146
-20.719722611109827 -20.646201886542833 -0.6187922922186246
-20.71654331425978 -20.56148465230108 -0.6213344944727719
-20.93904468554978 -21.082476899167432 -0.6055796618834215
-20.84236006379347 -21.00901863665617 -0.6077558648432819
-20.847465104361355 -20.883356403759645 -0.6116318531806095
-20.81355838465225 -20.799660365565124 -0.6141764717950084
-20.777910147785576 -20.532068069206886 -0.6221589896778326
-21.00185927328932 -21.11363715373559 -0.6046863093740844
-20.922460660012412 -20.616876999626392 -0.6195150020744675
-20.924917845869178 -20.478241396280435 -0.62344831122444
-20.99488075116611 -20.615516218659316 -0.6194289741223451
-21.000731348943223 -20.50124205280503 -0.6226210094301303
-21.001071112475536 -20.323961151632254 -0.6274457155670263
-21.106087568167677 -20.4748124022038 -0.6230234677674488
-21.04339710354558 -20.330703022790168 -0.6271149995939296
-17.314727853033524 -1.5175886580514852 -0.5827474618216733
-21.174587617261874 -20.62941438869556 -0.6185945497125909
-21.180112519428757 -20.594451057965056 -0.6195179606097925
-21.197147435969775 -20.39406801292441 -0.6247840661227484
-21.13713028785945 -20.390680527622838 -0.6251314616890767
-21.299487571214534 -20.40066954564849 -0.6241098102784104
-21.266566786078048 -20.289915984845752 -0.6270766339561623
-19.95937763720682 -13.718043399301518 -0.6068328163790687
-19.956064864339126 -13.680113233516472 -0.6046122476548617
-21.4148416162172 -20.47786650083563 -0.6215639026964763
-21.37697768669602 -20.363312340118505 -0.6246353405520693
-20.021436639145442 -13.615990036797731 -0.5986238354725759
-21.538210090123737 -20.68449126066877 -0.6156760563620838
-21.47670204278135 -20.404872589104983 -0.6230045536226374
-20.09236838096662 -13.540029028455049 -0.591692916086502
-20.116896050247774 -13.408453439211444 -0.5825976746729558
-20.037547349052886 -13.321426944736736 -0.5793338987889484
-20.04841327567648 -13.243084274211734 -0.5738269960140787
-20.191624900812386 -13.479794818010797 -0.5848448318764845
-20.16085030022523 -13.397759569110868 -0.5805880531380131
-20.144297012002617 -13.344373379038704 -0.5776878023521143
-20.15697415093846 -13.17067313322892 -0.5658336496292815
-20.145713713899003 -13.054931441604639 -0.5581887476776073
-20.22686162329048 -13.08432055502233 -0.5579491464044933
-20.210097471569103 -12.985305470194984 -0.5515156089179377
-20.284714588681588 -13.106981642968629 -0.5578586782657899
-21.98950701463636 -20.82589832981712 -0.6095398531194789
-21.943171728040152 -20.676804291613674 -0.6133972143289919
-21.95109718837178 -20.642567580479067 -0.614114794660616
-22.063146980235516 -20.834792755869508 -0.6088166628435709
-20.794152221666856 -13.776603007777348 -0.5843816426355524
-20.783899798622972 -13.734690645870113 -0.5822769632689506
-22.289451860910386 -20.90028137609667 -0.6056395840579052
-20.939764367416522 -13.92364582826892 -0.5879142280757912
-20.94280182539745 -13.905084782507894 -0.586852479039528
-20.852122072473122 -13.819990730062232 -0.5850097162490309
-21.19811388517045 -14.704981654864437 -0.6164985036383497
-21.191596312209132 -14.658466204099076 -0.6147928842021056
-20.978925125463114 -13.95447260707754 -0.5883199901915204
-20.95373704204095 -13.885087855513556 -0.5853679591611851
-21.2362057621176 -14.73286483776888 -0.6163911207198364
-21.22440027677963 -14.602135447725315 -0.6113614915155448
-21.415088098128262 -14.557312769547966 -0.6031276725718673
-21.086789106396 -11.667211469028754 -0.6438332150541155
-21.080441196510208 -11.559956550623664 -0.6366843882652462
-21.063684152325706 -11.532244919675726 -0.634686748251026
-23.15872976498565 -21.549706377256083 -0.5840460482187273
-21.14011608805074 -11.673644756595335 -0.6447173663684225
-21.10314313082244 -11.596262316671286 -0.6393098410550717
-21.103310344194576 -11.457218179022224 -0.6300479390234619
-21.14131424493211 -11.38388698872829 -0.6254891170717578
-23.25374354806308 -21.682692964806336 -0.5802871422422375
-23.27754028199682 -21.517325210839687 -0.5836599521976736
-21.79744664953658 -14.272376180471522 -0.5777428095671338
-21.75761376921433 -14.21374492629949 -0.5762199367623744
-23.345806379062342 -21.650377493568648 -0.5802099768663758
-21.318064107860824 -11.042531554134007 -0.6040437411664527
-23.582578749136616 -21.719206165488323 -0.5765690665560002
-23.56605776978748 -21.632339467840787 -0.5785409920283195
-22.1174622517261 -14.511774231939578 -0.5780441782336061
-21.41766271499888 -10.833671544897175 -0.5906891238427388
-21.580463842734545 -10.63059862071625 -0.5783425424880944
-22.475582430819102 -14.752424176020147 -0.5761998322886756
-21.61811517350823 -10.573217478744906 -0.5747741514552641
-22.559409754207433 -14.77605303111872 -0.5744251654843486
-23.020638179089104 -15.00428478185868 -0.5678806456711117
-24.625189685962567 -22.324872345169663 -0.5537698586262202
-24.757038838833424 -22.51511092882891 -0.5486287577887539
-24.854378934953957 -22.385470418610097 -0.5500590585944958
-24.83552887175818 -22.211051406256814 -0.5535279807673121
-23.684532188245697 -16.650733963526495 -0.5919574631366216
-23.650826803281497 -16.58467346594481 -0.5917551315295899
-23.640887259712255 -16.481649898435073 -0.589983729545672
-23.66089235891668 -16.40091814855613 -0.5876695822623363
-24.90129884685107 -22.21293449522957 -0.5526613464787147
-23.729091931627575 -16.357306760760046 -0.5845981949269792
-25.046937706916324 -22.277836127108564 -0.5497727587588845
-25.086169706277957 -22.229244805621136 -0.5501039364355413
-24.23756783904589 -15.664026973934687 -0.550128972736759
-22.331395587169446 -5.0018068967681515 -0.5577835911389399
-22.283762813379752 -4.921993285458223 -0.5510640093864363
-22.389547041186 -5.0254198158979175 -0.5618721007975478
-22.334252501515586 -4.92192150747932 -0.5535130917634243
-22.50634670650212 -5.065615110539444 -0.5695705252401493
-22.650634216024283 -5.110861233454072 -0.5787405568975301
-22.59953922620522 -5.075891419319111 -0.5744659282127145
-22.532202596781666 -4.9230619152926725 -0.5628169047686955
-22.738072508767218 -5.235662446612112 -0.589775652992689
-22.697353062952317 -5.151739903325595 -0.5832216695338843
-22.889914267597828 -5.3410576054645915 -0.6025469629504808
-22.874924807263547 -5.1525902535139 -0.5914768060932991
-22.92787102664415 -5.149541906855985 -0.5936495569395189
-23.11275583302407 -5.386366924882944 -0.6152734753462843
-23.186524066862884 -5.459994352278194 -0.6226284168045775
-23.28063444528074 -5.44060715159665 -0.6258479783716009
-23.219387176210525 -5.148784706675947 -0.6069363950983816
-23.41161557688448 -5.6101847341717175 -0.6409509137171174
-23.423000362877474 -5.498772209782711 -0.6353961861691231
-23.532774050666735 -5.5290868087772616 -0.6420052154203348
-23.39713938436919 -5.093553178705799 -0.6119025985525834
-23.55125529766042 -5.206922955514635 -0.6251373962717781
-23.941884761742983 -5.110243515444372 -0.6372847077946227
-24.93660094758683 -4.0135285159439 -0.6217907133229852
-24.83534709398355 -2.944127824936679 -0.558323051291248
-28.16778680176887 -10.369510071214808 -0.6077770174343489
-28.14488022473325 -10.32898103158754 -0.6054176493757795
-30.97154326109548 -9.230473317681383 -0.5562572320721828
-31.01387151724133 -9.124899311388415 -0.5505244241173586
-7.508131801416546 -50.87905267218544 -0.4771936828986445
-7.628247350635316 -50.94754487225475 -0.4863375729859077
-7.768667406443145 -50.92585503987904 -0.4978499430249539
-1.83646665506806 -12.13333256792421 -0.5148910042268107
-1.8876313168654146 -12.068189515355222 -0.514414637632679
-1.8758176877797315 -11.993424422019954 -0.5127159630157665
-1.938422678296103 -11.955586156744374 -0.5131430616014179
-2.0604473394607385 -11.928009151292793 -0.5145548836911513
-2.0001633241185477 -11.768377360859862 -0.5108010012790446
-2.0977814251468025 -11.885822220694836 -0.5144794225237378
-2.115250089943695 -11.842166237142896 -0.5138513739947637
-1.982008612430521 -11.00072496437961 -0.4996335605594143
-2.2059701889294256 -11.763539540798778 -0.5140869665869475
-2.2003516587438625 -11.687659928041647 -0.5130429577258737
-2.192928137080889 -11.586016954280538 -0.5114681919320354
-2.1824699378516943 -11.508297466330646 -0.5103361055189336
-2.2404952791312276 -11.447168548068635 -0.5103857328593207
-2.294863037598592 -11.385527741974913 -0.5103778144595642
-2.2872941428588742 -11.285189059855732 -0.508905027364376
-2.3766673230777986 -11.258895127674169 -0.5104583012721648
-2.3397062917542257 -10.997357692313408 -0.5061133841003924
-2.3816435834381693 -10.908007708572862 -0.5057618920379484
-2.077955670146281 -8.963615258931434 -0.47964849237864116
-2.533648869197304 -11.001808944836146 -0.509992318264295
-2.142226796091162 -8.909584007463181 -0.4803412305706655
-2.1266527047688513 -8.819468576661043 -0.4793864108294101
-1.7859515587662944 -6.867123486725342 -0.45890663950832106
-2.4827094180210434 -6.445125605622602 -0.47167754117452
-3.0302498325393934 -6.727299812031882 -0.4850720229542741
-3.1432196125709932 -6.70776401714714 -0.4874100252028955
-3.174416396377568 -6.634902700215424 -0.4877353284294277
-3.139076237917239 -6.549478036560048 -0.48675317393582274
-3.0781415204338973 -6.383185892412712 -0.4847609009573698
-3.241404283161856 -6.553640925716996 -0.48891043497096953
-3.1490845543500843 -6.366609941321208 -0.4861532447883659
-3.4482146423415827 -6.44085288278829 -0.4931362285903373
-3.518582836886143 -6.425916847162242 -0.49479749423109726
-3.5689943656968115 -6.211691815536666 -0.4952598945483344
-3.791331687661719 -6.733273602901702 -0.5020003758712452
-3.655596219998726 -6.3955606661946 -0.49779834748504326
-3.646376044695881 -6.32811059416515 -0.49726120357717657
-3.6217743830566977 -6.1852896637425765 -0.4962715954832656
-5.3728215939920965 -5.972219389180445 -0.5373811965538451
-9.843931721143992 -14.745332530026138 -0.4955055275729059
-9.895056464692837 -14.704069668015388 -0.4971162920357862
-10.104508882430455 -14.786803382628387 -0.5099745212741367
-10.218929461557991 -14.84421894465903 -0.5172336998179415
-10.561536831012695 -15.114420659591573 -0.5418739377804284
-10.608635665705915 -14.85722745721288 -0.537544858498763
-10.57216288219284 -14.821502582770277 -0.5347495389579744
-10.739463595475648 -14.961168373563703 -0.5469424001944738
-10.70066325099055 -14.891323449384378 -0.5430852726534372
-10.557214568212451 -12.547477896153083 -0.4790537555242113
-10.647535787133162 -12.534334703056576 -0.4834077472556616
-10.681299603679744 -12.516697129192295 -0.48480881173533286
-10.881099200164133 -12.583359415500821 -0.49656991232609665
-10.804687759890333 -12.336764742706421 -0.487144291420058
-10.931706635504503 -12.564676482865469 -0.49883053450554815
-10.933840206362932 -12.505633971167576 -0.49759985790455147
-11.798184624573075 -16.362652277719224 -0.48733531412776504
-11.749406352036777 -15.332508728715643 -0.46499609248577617
-11.88086548501291 -15.533169887190965 -0.4804188246918964
-11.843132786907704 -15.418997123894005 -0.47492623465086714
-11.975273761839514 -15.646926961010317 -0.49069459049460046
-11.983682168607928 -15.534282017857791 -0.4892700521689712
-11.896177953801514 -15.46656030919061 -0.4803947395835268
-11.88195679680086 -15.370663626190401 -0.47720284538338087
-12.196213564479836 -16.218958603937033 -0.5185786494523463
-12.086571199168358 -15.635125131773458 -0.4998824307937608
-12.265814552244162 -16.204978193236723 -0.5243053552720647
-12.239976782527567 -16.10107093397519 -0.5206187410565755
-12.273074184215643 -16.039658115868914 -0.5224860699346827
-12.230100147818659 -15.759776996405169 -0.5143121048733632
-12.181821735179497 -15.703773801558501 -0.5092713903711317
-12.152272897989615 -15.64619268681177 -0.5057627820918389
-12.11593328032 -15.534013376355297 -0.500508662089931
-12.410747220753466 -16.105268390282234 -0.5349663230913656
-12.298446093482267 -16.009777040176655 -0.5241280239193532
-12.344818915946043 -15.89854288707493 -0.5263989415698405
-12.300353905647874 -15.79333136420019 -0.52088179552922
-12.248675381154985 -15.721869905274911 -0.515276583148861
-12.222824634329344 -15.557206400995103 -0.5100883346437826
-12.205016285599674 -15.541159339367153 -0.5082991745700309
-12.498863193655396 -16.137069200051023 -0.5428143830106706
-12.450260524450542 -16.0694086638806 -0.5378158697168687
-12.447530503743868 -15.930701436325029 -0.5355460841807673
-12.424964767648051 -15.872677213310212 -0.5327055795746483
-12.378800790591395 -15.750862511124621 -0.5268215034626704
-12.491087034929405 -15.78796879862843 -0.5369658404040494
-12.107416042790303 -13.651203453005477 -0.44892568369055447
-12.136907194504428 -13.639686496476335 -0.45112162858083066
-12.179603362900181 -13.59005422329069 -0.45315632821863344
-12.846728587864986 -16.333847619322896 -0.4567092894299939
-12.811465103664109 -16.164036321081774 -0.45337053514004316
-12.217313889796092 -13.532777528262963 -0.4544622018061717
-12.245184773664304 -13.458490391268306 -0.4543352809835526
-12.245350204107865 -13.366391137441221 -0.4511720644137362
-12.944325623228897 -16.326571495436077 -0.4678615075034145
-12.94807474149101 -16.265488464503505 -0.4685573856552435
-12.858565512803704 -16.078191667283896 -0.45891397399449035
-13.0732856250798 -16.446744704163883 -0.48161972446695944
-13.051067780744937 -16.350500699941513 -0.47971087921505795
-13.01522399774854 -16.29096082502231 -0.47602538368608266
-12.986354560416327 -16.167161264057256 -0.4733823002845942
-13.007180889817548 -16.08477563595629 -0.4759949360691407
-12.383473311442707 -13.003764370022974 -0.4494471443161778
-13.160323361919177 -16.4060069032036 -0.4917695539136672
-13.080575946870667 -16.33376108257048 -0.4831457396409306
-13.075688709260323 -16.23059970248476 -0.483302116696306
-13.03292353351302 -16.09043759457047 -0.47897701303562085
-12.44522407683927 -12.982949964607608 -0.45377053310863963
-12.428008859060158 -12.905948297798522 -0.44932391155712076
-12.433937145966462 -12.855680036981193 -0.44780148711380424
-14.544399651007751 -22.47648294918529 -0.4973826247414129
-13.36861483176674 -16.34842908398046 -0.5160490695230693
-13.320627968827148 -16.27125090655715 -0.5106111607989785
-13.340476527976147 -16.230716954968354 -0.5131226752990694
-13.567453135498695 -16.792482328323835 -0.536160831084949
-13.475618095543592 -16.71181376408194 -0.5266284053228717
-13.448915470086416 -16.348319560535984 -0.5253391982943388
-13.427539229455208 -16.281588247887203 -0.5229834454215927
-13.378408942999117 -16.23598585390571 -0.5172920526283171
-13.650679876706146 -16.84420811772453 -0.5447882248389855
-13.624495265853177 -16.759402798831633 -0.5427434023660613
-13.575461367745554 -16.506689469120815 -0.5391669948125597
-13.590305234379175 -16.47043598122436 -0.5410543196138002
-13.527444608716749 -16.36863308227322 -0.5343245249116403
-12.842288801100022 -12.69964781799292 -0.4746380026938479
-13.656155680918086 -16.68539492920764 -0.5468911238438483
-13.6293985627937 -16.520362619412108 -0.5451569906080438
-13.652507324572454 -16.421613543585128 -0.48461019968340313
-13.607024639733917 -16.375001892001368 -0.5051394411591201
-12.905221069943288 -12.682809515193382 -0.478938501530012
-12.939442766634041 -12.646238595773063 -0.4800987058086009
-13.828574098684234 -16.572034146806995 -0.4725677982056388
-13.791600958206176 -16.481148555109304 -0.47034871798604105
-13.740852117007245 -16.44498933419608 -0.4643403623364158
-12.955467354771523 -12.59611952991771 -0.47914637993856096
-12.948227067339838 -12.486652654442691 -0.47369320747261434
-12.952499098217787 -12.407311040551104 -0.4704384727503876
-12.916030868355918 -12.3350757499324 -0.4642965676132255
-13.920845159128202 -16.663788003069577 -0.48184442514895615
-13.891700539833106 -16.58259395662604 -0.48076917885165926
-13.861181147455909 -16.48353566085106 -0.4798744870870208
-14.011309304146405 -16.649803529493305 -0.4943418783531182
-13.998132135585406 -16.57959705455737 -0.4951520699494558
-14.139055437032027 -16.709012924878355 -0.5086277855194539
-14.104892673799538 -16.638666362415442 -0.5070054603720378
-14.082225159425931 -16.60085655028772 -0.505513025533247
-14.254541343691578 -16.679198715382174 -0.524546397598007
-14.22464263147618 -16.65034413234391 -0.5219536346919902
-14.21067016587073 -16.562098131562372 -0.5237512155012505
-14.329780589414767 -16.76473298031754 -0.5301540507541018
-14.326229351271627 -16.706834534075 -0.532282697184033
-14.264712213191745 -16.62976574216002 -0.5279032721992025
-14.489759868837076 -16.968470829760083 -0.5213832113435877
-14.470444454618837 -16.870275393940997 -0.512381204619051
-14.434590045697355 -16.809006346865736 -0.5138608520665089
-14.39798620619696 -16.715067836561907 -0.5407451486042806
-14.63579094380294 -17.340824893539093 -0.5358877736419456
-14.671656606621262 -17.26196176570846 -0.5440184853942522
-14.59801105855035 -17.048386537173737 -0.4870946265650505
-14.570885912619438 -16.989462577136383 -0.48756970604475486
-14.55035062525628 -16.86232534148112 -0.502761045345526
-14.577689072517089 -16.77669183519808 -0.47587996980536074
-15.126413301051736 -19.4072279989132 -0.4603652787304571
-14.732712086920966 -17.102509072492907 -0.4684955990699586
-14.714588214146799 -17.03812376363763 -0.471829653827719
-14.662205978025224 -16.987136514853397 -0.4696333357491312
-14.62114203177 -16.84993287978574 -0.47574530710080387
-14.634962453688596 -16.737515183384946 -0.486696038326638
-14.575499050743295 -16.70486031828411 -0.4812619820478137
-15.205605755166143 -19.35531106204648 -0.4703726552382053
-14.895545448058344 -17.390818020949183 -0.46149408481672993
-14.886142645165668 -17.305633273452127 -0.46823482373472514
-14.812075004486655 -17.086806989279367 -0.4793586069497247
-14.79952086584613 -17.04302666831552 -0.48172274192424325
