ply
format ascii 1.0
element vertex 841
property float x
property float y
property float z
end_header
41.91580772351075 -159.01569997980798 -4.698233546626025
41.967328644713106 -158.88000447237997 -4.707109962699646
41.965807562200254 -158.7791643733468 -4.711179740609822
41.96710423363778 -158.7126628782705 -4.714070436152658
41.976282366416854 -158.61244523533077 -4.719100705773672
41.7626124340734 -159.10915768236893 -4.68428798540979
41.887453188320336 -158.57040865943603 -4.715026924620594
41.66053033490005 -159.00932558616444 -4.681082715330792
41.80993554537405 -158.49632778048033 -4.7133438401075205
41.6362520235692 -158.59591716531077 -4.697171830787139
41.707255258855035 -158.42902406315653 -4.709786022984824
41.62361270045944 -158.5986350665022 -4.696148489519935
41.63939617964115 -158.5245593385248 -4.700695343760393
41.65416476920956 -158.3927395018073 -4.708032835944611
41.73339300125601 -157.92417496654136 -4.661122669870943
41.57686770538664 -158.39807732107633 -4.702740956695015
41.64419165267392 -157.89554719525373 -4.658701185183849
41.639705552361036 -157.82518934026237 -4.6628045569758445
41.43841054936379 -158.36642669417557 -4.695258679776906
41.43979173517252 -158.24936003849547 -4.701416614666836
41.564723495601136 -157.77592332903643 -4.662486819801861
41.36164663305507 -158.38076059559512 -4.689474656709562
41.36249649877887 -158.284623979739 -4.694518713846415
41.38850310353226 -158.17803876400725 -4.701915550986854
41.49638860424538 -157.8408575118876 -4.655280374607361
41.48888482663843 -157.737479008402 -4.661528142122832
41.482181754778566 -157.668954928162 -4.66569037716159
41.35690465284506 -157.69174958027182 -4.658651195524371
41.38179645841848 -157.65366761380358 -4.662288028212328
41.336599388007585 -157.59400374436908 -4.6643376943409445
41.31416658962081 -157.50722969887534 -4.669333352482881
41.212861049898024 -157.6031821397055 -4.658440752002232
41.26427845202317 -157.4683957595251 -4.6699380254323914
41.24859426686713 -157.38554365634033 -4.6751956462668
37.52938666178618 -172.00477158659317 -4.635587895504797
40.66311959576727 -159.3971405742225 -4.724077601321259
40.70829889621574 -159.31896767757746 -4.731725372975051
41.19615126559184 -157.2858739309065 -4.680310389571872
37.465095451479186 -171.9597405773784 -4.635817483664476
40.37342338737943 -159.95927733504632 -4.678689971912743
40.597947802078345 -159.2514362854569 -4.723025136538514
40.63891844645012 -159.19460552279844 -4.729682085613182
41.13409960675732 -157.2385037483203 -4.681371731355232
41.119492020018434 -157.18170173711005 -4.685089643196094
40.3162442019138 -159.9159875289841 -4.673564054306157
40.301017798663395 -159.87064015859292 -4.672857033037764
40.51866393160802 -158.9917553622882 -4.7268623599588055
40.726432356039574 -158.23516859710168 -4.732001035381307
41.05393730505798 -157.12791065151362 -4.686690498950387
41.02976281021703 -157.03786160500454 -4.69280274009437
41.023145038508005 -156.97392417323724 -4.697627727467422
40.27560551299898 -159.81516276998812 -4.671403341362059
40.2678631209967 -159.72357670791325 -4.672793349280729
40.276726418928206 -159.62641698973218 -4.6763726358217585
40.30951038766342 -159.53291620769127 -4.682677076496955
40.368983272145925 -159.48014330000467 -4.690633029277591
40.46972165314162 -158.95277030714306 -4.723902448333842
40.475613473162916 -158.83809066478793 -4.730695295392365
40.67735412993284 -158.23357236702384 -4.728294784900546
40.95589527334812 -156.98248918255885 -4.694481148218345
40.93690036692286 -156.91745240156138 -4.699073688920613
40.40221202476481 -158.83182473708118 -4.723647491672337
40.5510813679041 -158.10511823517885 -4.7285279108178555
40.565473998573935 -158.084333952829 -4.7313354842715745
40.8388093596837 -157.06558610220088 -4.683713434592964
40.88379217333882 -156.85629840263152 -4.702211921820118
40.86865345228051 -156.79696812368724 -4.706600599961186
40.79680657461154 -156.76075100838835 -4.7072723006711
40.70958174586911 -156.71970736431103 -4.7079541702345225
40.69659681010869 -156.67870862225462 -4.711030847181038
41.04357599021671 -155.37457365861786 -4.634340862984115
41.014162534534286 -155.3180914900739 -4.638247466623458
40.60926912893356 -156.69643769649787 -4.706867740970315
40.611024178863275 -156.60966385816093 -4.714465849816639
40.96343982752467 -155.26933036772644 -4.641701519486412
40.536137999946355 -156.56681807267367 -4.716068158147841
40.503942170026946 -156.51000286149224 -4.720244786148068
40.877138812992115 -155.19936661345358 -4.64674405394748
40.8749964196977 -155.175945354301 -4.648400322909751
40.48230915497417 -156.47632249027959 -4.722673922116802
40.448626373888025 -156.4082950767731 -4.727940920316808
40.76699446124797 -155.4066537783005 -4.632488506875504
40.752862710073956 -155.2086160561542 -4.646403079538611
40.760284436152986 -155.071680802673 -4.656138965170685
40.36602201433509 -156.5554043010726 -4.712357698297565
40.387939741565454 -156.3666137033549 -4.730220595213214
40.69885260010603 -155.27535020233552 -4.641937922883931
40.68128251969744 -155.2357343022255 -4.644798077561538
40.70783626413129 -155.07351164787153 -4.65614605229167
40.71847878060747 -155.02798981953677 -4.659415204120031
40.153965644060435 -156.74054461606053 -4.6899525951877115
40.29730909656087 -156.34689014400428 -4.729812673712846
40.544728043457795 -155.1556089668567 -4.651045742896039
40.49529169183151 -155.1406898099311 -4.652320763992143
40.5299016007893 -155.01076726258623 -4.661466447319202
40.515445930011786 -154.94701611222627 -4.666199703052446
40.42237919480451 -154.88900078963087 -4.670996623893985
40.4751519574497 -154.86574110695884 -4.672349300120072
40.346771614489576 -154.85726967236758 -4.673792933788067
40.33934838084947 -154.81484660061224 -4.6770119971740804
40.25753248221595 -154.83139802569923 -4.676413096208046
40.246419631400315 -154.79349440199945 -4.679340189324317
40.13777713019862 -154.87262423042097 -4.674332305443549
40.01390775301434 -154.98240721065054 -4.66722612292578
39.992979796661096 -154.92583601986559 -4.671655716648839
40.022304713284356 -154.82132780740332 -4.679238866449344
40.07628137920448 -154.69092993742646 -4.68842214515444
40.06249888479122 -154.6379153132568 -4.692619744604361
39.98846913514217 -154.70019336011825 -4.688630857398671
39.97380213992085 -154.5911479944075 -4.69701372733448
39.1717404472191 -157.64692977625796 -4.683247438930448
39.851455830333755 -154.68952667525008 -4.690926224104462
39.8630013181749 -154.56509160448059 -4.700242169459063
39.82180262313841 -154.53673319479324 -4.70287871417109
39.79504631786021 -154.4803257921427 -4.707529920163184
39.75932179963725 -154.4846198054897 -4.707685069666944
35.53765829095371 -171.16757430993067 -4.664085698160597
39.5693955240195 -154.77803834274317 -4.687606818197421
39.61747571938586 -154.40994595128157 -4.715271289145312
39.53649084019445 -154.39224224753562 -4.7178189529360655
35.23461398898938 -171.5590662836435 -4.682449470106315
35.570524069446655 -169.90571891743528 -4.633258893599422
39.14823918092975 -155.55415075281869 -4.633454200439401
39.39435857854272 -154.5665852652503 -4.706338904008316
39.42738617257446 -154.34564571605713 -4.723098162940504
35.53583136890174 -169.89635013393266 -4.6340125419865705
39.341640774454426 -154.369533298679 -4.7225816116423855
39.661435403786804 -151.57107678372412 -4.640597107266289
35.19992021116953 -169.40057685470518 -4.633075566743659
39.56822162185336 -151.5739993286658 -4.643156825439822
35.08671305807083 -169.2752854567502 -4.6339594364724555
39.479289389585084 -151.77277102198224 -4.636723640301437
39.4692992499767 -151.65739175812868 -4.642300868577647
35.010307611838215 -169.46743523674718 -4.641019083388625
39.41975759689162 -151.67642729399412 -4.6428746890820065
39.420655118764614 -151.56867222729386 -4.647878388889975
39.40272222696671 -151.46517064112254 -4.653152450514255
39.290788632890134 -151.48373791173134 -4.655631859624339
36.06063684382917 -164.35037808037995 -4.655900850698525
36.0296167605192 -164.27196008069404 -4.652768526099064
38.020396759934236 -156.24176794133786 -4.724144869801506
38.05107770675511 -156.199033134931 -4.728661678376158
39.14626762060725 -151.58922954595332 -4.655145389652726
39.24400888022117 -151.49227248910404 -4.656688902374611
35.95898653424667 -164.25157969751595 -4.654732933740234
37.97681647336156 -156.24324995078888 -4.724581550004474
37.96399436609438 -156.21769433304937 -4.727705077088367
39.06016328332253 -151.82325392641974 -4.647016411600468
39.03218298113173 -151.70142077984275 -4.653501141736028
39.10103242338322 -151.53703773361354 -4.658935966264923
35.85082793583244 -164.27832489994387 -4.661157404029992
35.89308022029384 -164.24853884935385 -4.657518257534396
38.0930346599887 -155.14367586506074 -4.685639053719907
39.00152604945703 -151.70038815973587 -4.654419604795105
39.00149749557323 -151.57319789680375 -4.660363497115185
39.020673902450916 -151.29579356090804 -4.672578299284968
37.95082113624906 -155.2144767189085 -4.68339374894718
38.921789203132384 -151.40809091822808 -4.67045565655181
38.95476908910935 -151.25170740982816 -4.676614677034194
34.37866162157979 -169.30710459754496 -4.659942087491823
37.86898083326229 -155.27620922523855 -4.680493635418953
37.89211504131446 -155.23367782639295 -4.683316612951569
38.8099081345812 -151.41616518701443 -4.673514807217007
38.83661489857743 -151.38411929055547 -4.674130132131132
34.050261275161546 -170.19015815170178 -4.691738167342917
34.33929054217396 -169.3207378142388 -4.661787925681082
38.66804576640611 -151.49982965877868 -4.674068232423063
38.7128841662793 -151.41270137610815 -4.676648285550678
38.752545764994984 -151.35517863609937 -4.678139659996245
34.02267810309063 -170.0178938109746 -4.689081021241815
38.574950054890515 -151.44651417261963 -4.679417267378104
38.64321152274581 -151.3946948497299 -4.679687242716709
33.92174762072144 -169.9674765067127 -4.691857371206826
37.000775625464904 -157.37488202929296 -4.699370017306558
37.022184882749286 -157.31983760134293 -4.706899395090415
38.51569475745857 -151.45060865886768 -4.681088057272119
38.493335225944 -151.32338898963224 -4.687668665936605
33.82682410142037 -169.9584335504069 -4.695423322316395
36.90374762121569 -157.44223970475187 -4.6933674052259615
36.966697223530964 -157.39856146013457 -4.697190886903239
38.433830137808066 -151.32817664452583 -4.6893623988337385
33.74060435652523 -169.9246783979329 -4.698140085955529
36.82140392409082 -157.48600883522784 -4.690694542176124
36.80968924862294 -157.46783876381596 -4.694054362037903
38.29286798598552 -151.28133554155653 -4.696027192342929
38.38236263813213 -151.2759069800784 -4.693378255020949
33.644520781882235 -169.86494406849891 -4.700729062932208
36.7319768646981 -157.43192466494395 -4.703582263373155
38.12524118095092 -151.58105314868314 -4.687419357704053
38.263875647386556 -151.16656059796082 -4.702255506818157
33.64471427252438 -169.638021629201 -4.69598816622315
33.6217815286595 -169.48571827116837 -4.6937537949613235
33.66597534630139 -169.4696290858773 -4.691538767045841
36.680321459795046 -157.34959533707095 -4.718849513875679
36.67707730622504 -157.34035669690851 -4.635520534467659
38.26548687176528 -150.81618254589412 -4.718460894423572
33.482157604218905 -169.65980569311702 -4.703131242221161
33.41644646788516 -169.62559878988262 -4.705218322962152
33.39495380397352 -169.5812495376582 -4.7051640257086085
37.962829390638284 -151.0680476376518 -4.716540260835202
37.90790996166837 -151.01288996851227 -4.720848363799244
37.854122040654616 -150.94411081986797 -4.725836996183021
37.62688720176278 -151.2187341363285 -4.720431652446556
37.37757072115905 -151.68981669663845 -4.706732079020475
37.512020892171144 -151.1609386927773 -4.726906888097815
37.35464570644117 -151.53726228075408 -4.714648588498673
37.48249091520185 -151.16769019934802 -4.727621128872409
35.21265080472328 -157.10795643869196 -4.647808426401021
35.149297796284735 -157.12528670348186 -4.650455275013311
35.19858640531625 -157.042046604921 -4.653472161695697
35.03919335172077 -157.0993151555387 -4.659186622325639
34.90183061302784 -157.23399315768955 -4.658429170066343
34.90785264258882 -157.1712203113603 -4.662439560158088
34.91187968825111 -157.1134715729596 -4.666251994981088
34.815041962592844 -157.20243935999747 -4.666278867226508
31.888593249757587 -166.06011499131014 -4.723664433347507
31.89224494932861 -165.9879322141126 -4.722741906623487
31.86981448748691 -165.94834996490286 -4.723731551084487
31.83016365200696 -165.9305429766119 -4.725960430398796
31.77171043169497 -165.91076475846657 -4.7293454171691955
32.495989710082995 -162.55106904203072 -4.66860997514556
32.53459535761862 -162.4504569651054 -4.666238111291164
32.50797536093857 -162.34881811994433 -4.668694925222709
32.41979380279477 -162.30448047078303 -4.675443179276241
32.314408051627666 -162.32004356476727 -4.683163264599582
32.81342475028665 -157.1986912516002 -4.633298380215441
32.77218498860856 -157.2539303570088 -4.6328857017173135
32.79090748281139 -157.1460735396766 -4.636416038515464
32.09661449561323 -142.35243491825088 -4.697261005476366
31.978076131964308 -142.39462975147285 -4.699964341236214
24.01620490387827 -171.51157082732198 -4.646084908530154
23.39338212920855 -173.38379020287616 -4.635628873366183
23.84148066431185 -171.7536116092894 -4.648397150582551
23.289317450173833 -173.34280071030798 -4.6404756092170025
23.760724289399107 -171.4925532746488 -4.656717902702161
23.80226653942006 -171.37630382326344 -4.657389922275194
23.632970507220243 -171.44393722159307 -4.662865210538178
23.809796977261286 -171.0549092517657 -4.663403807304735
23.53200319416821 -171.45268607292874 -4.666896392625348
23.352602843007485 -171.52634159748862 -4.672671512832467
23.35917791656179 -171.27785809770393 -4.677411584566156
23.28402334486093 -171.18168894258739 -4.682415917432373
23.58162710970438 -169.65399304503785 -4.701275861858542
23.100574743373706 -171.25168877129525 -4.688452432682249
23.171148319882164 -170.87241545293915 -4.693190724212339
22.741758847381018 -171.71484983210317 -4.693913362400071
22.73649300380579 -171.30193275791626 -4.702515641320589
22.843152327352563 -170.81197802719652 -4.707988480938141
27.11371396498155 -152.75801394602163 -4.6381774162638525
27.139905754853476 -152.6739352014491 -4.639641004434142
22.829189715043125 -170.05778429029604 -4.724276885862953
27.04897619085611 -152.8169516831325 -4.637841064438082
27.082998607293433 -152.78850420861028 -4.638028003521096
27.14789158982641 -152.57714834764022 -4.64155691251185
27.126170083081746 -152.51130507992593 -4.6433428366306435
26.955293102120994 -152.8304781227161 -4.638930200261759
27.081565128429602 -152.42608975700065 -4.645748303503851
26.795062645323384 -152.7965617340279 -4.641998754340129
21.823710828960735 -172.12572850664284 -4.723388194138137
21.98196896098518 -171.74173496974436 -4.724744752433649
21.98913229496598 -171.64775530574855 -4.726256623041408
22.007756842348613 -171.54854197623757 -4.727616095376999
21.753868235844138 -172.27421897438347 -4.723380296677124
21.46503081791166 -172.9647988308695 -4.721333215361724
14.49471018940158 -192.10701931259797 -4.657641725061178
14.29711679208014 -192.15416467106638 -4.664019117515682
12.74497102720687 -191.48031374176486 -4.730930623225548
45.56244324845295 -172.0955807171391 -4.621178709745063
45.678124012632594 -171.81356005171463 -4.618306897886913
45.718745293176944 -170.9428835500675 -4.607515091800953
45.844220464220584 -170.4832744656715 -4.603721419204405
45.688540496324016 -170.82245071960983 -4.605330577390944
45.98709582362658 -169.70536803692605 -4.59717689330167
45.33060938218371 -171.57812120147548 -4.611087705044921
45.78733856045368 -170.11367632118487 -4.598577422030975
45.56728680866384 -170.509129966411 -4.599718210916409
46.02085314523164 -167.64764337988566 -4.581000025450263
45.227357401977386 -170.37455023608976 -4.5932813040536375
45.32623618013484 -170.2760589339385 -4.593644167337482
45.560301670685625 -169.12554254374726 -4.5842077624249855
45.62173420689098 -169.09859036110203 -4.585102425133434
45.865834659126946 -167.8966099041963 -4.579584304697275
45.88569606608301 -167.85785209977558 -4.579515574779842
45.94342673012238 -167.4698756235533 -4.578328311164882
44.56853104587079 -172.73934587572933 -4.621365068727249
45.13107691992426 -170.3244649652701 -4.591559533102565
45.73507871791516 -167.88645179987975 -4.576880388256786
45.82403496908421 -167.68892879066433 -4.577277052462146
45.84825240691221 -167.60024458284303 -4.577077951705021
45.919164254090944 -167.5032715161833 -4.5782079210823845
45.93171151014177 -167.4074775732448 -4.577933699918245
44.925979634804015 -170.82924583388086 -4.595723553454606
45.21264767087877 -169.90787665007664 -4.5872605159231155
45.1693827692913 -169.78388859278363 -4.585365519346045
45.181582473181614 -169.73063394733902 -4.584694954071979
45.33147743106133 -169.2897223916496 -4.582221845445086
45.31701558910786 -169.1438800619071 -4.580435425068124
45.56777378711899 -168.23665202017074 -4.576089030690122
45.61103078418457 -168.04903088801967 -4.575424254106527
45.616141743877726 -167.9680923875421 -4.575007784509551
45.66677473356655 -167.85748316137355 -4.575170247960945
45.845751007165944 -167.2809939965547 -4.575196956180535
45.84376668263037 -167.2283387611953 -4.575081508146064
44.61801350163728 -171.69924255067792 -4.605132285449178
44.87582015252014 -170.83744978556754 -4.595000041764378
45.06821675335199 -169.79765022846988 -4.584053204039348
45.238312240629575 -169.3816559751444 -4.581533094738704
45.231788320307864 -169.23808788507492 -4.579837016971595
45.28115993432249 -169.10213030856644 -4.579191320210333
45.30401046838299 -169.00132089126973 -4.578735858753361
45.51406408212209 -168.24179424288363 -4.575331558448782
45.53068511645195 -168.02788675851738 -4.573912565246281
44.57754889926714 -171.50037819413927 -4.6017780523308405
45.408091145442675 -168.1916103359951 -4.572712615940562
45.46409145578549 -168.07475082376004 -4.5730031484691835
45.41059949512902 -167.96431620829875 -4.570888623988481
44.511497453451526 -171.3055222806654 -4.597885484523591
44.638499184173845 -170.65381766849038 -4.589603996418368
45.08887990122442 -169.13631594038097 -4.5766603537669
45.66733364966392 -166.38614623901643 -4.567459584060258
45.68626428896266 -166.32935918613668 -4.5676198620093365
45.69265921540337 -166.21713861800322 -4.567409527109478
45.72815946722575 -166.15261568652443 -4.568209894006485
45.722437228902834 -166.01278217731047 -4.567758310715698
45.765732201706115 -165.90924884520385 -4.568614398585577
45.753887682786804 -165.8330509173217 -4.568112246772329
45.756712116595 -165.72500928796396 -4.568014269640185
45.82989793728563 -165.62261745417942 -4.569798024200223
45.85954189580531 -165.57538340620508 -4.570428422596156
44.22598592766165 -171.65930302588674 -4.601035732311436
44.69784856316581 -169.81956196553907 -4.578957680918077
45.65809242091835 -165.96539625942512 -4.565914132984851
45.68456100628626 -165.89527982960146 -4.566422974013126
45.755294771692924 -165.46160991161693 -4.567908469767362
45.75243613416207 -165.3955208325937 -4.567738724453537
43.64151515083696 -173.61355402028616 -4.631611753574793
43.723120596207636 -173.12648333254447 -4.622828546833254
44.33927652535617 -170.77670809284487 -4.588310175736982
44.61802700983744 -169.78424383480518 -4.5776456574883495
45.52804901992114 -165.9561842458536 -4.562745208411989
45.59869067345766 -165.52845642123705 -4.563985773501953
43.55877970490165 -173.62116305905948 -4.6315697626236805
44.04664377796131 -171.44709560735149 -4.59582547928533
44.08410999129738 -171.32720017012713 -4.594203038826731
44.12828373456408 -171.08639911270734 -4.590875229370632
44.22436720877409 -170.68202335107526 -4.58545907034072
45.774609862034936 -164.45826748491623 -4.569794304411854
45.774634389719736 -164.37909848874102 -4.570067269907495
43.45759157487736 -173.59166596326548 -4.630541064125316
43.873501364642834 -171.71272616448974 -4.598854038588443
43.91944248892196 -171.6982943435647 -4.599189920112052
43.95840347073752 -171.57475997680908 -4.597427955756398
43.953483140301074 -171.4251284840264 -4.5948022790754735
44.054076537139856 -171.14219679859983 -4.591086952102802
44.14613406800416 -170.64673617799227 -4.584349661318065
44.63427932299178 -168.821373077766 -4.565927515853904
45.665944684585014 -164.51337593959326 -4.56678074480497
45.72818011754511 -164.47189498949348 -4.568630336351088
45.73990034062985 -164.36119343316213 -4.569333453104801
45.73923737824168 -164.26538323291467 -4.56960114559542
45.71855834973193 -164.16086607770083 -4.5695508671797604
45.76510408068195 -164.0923829935039 -4.571112595661335
43.347833214598616 -173.6685312866919 -4.631792349118939
43.799709240930845 -171.72752642637147 -4.59868041407257
44.56116097354151 -168.82826067929224 -4.564793175863463
45.62831561447372 -164.45390730989254 -4.5657616639804735
45.70875410766238 -164.1558124580699 -4.569135247614848
45.724798007305345 -163.95892502629465 -4.5706261422428405
45.759572080840904 -163.88381812712964 -4.572112832095264
45.678779483435505 -163.80754556082817 -4.570050810311235
45.65965523176486 -163.72844974362724 -4.570078256823506
45.70780412438441 -163.66188716261888 -4.571881116326746
45.73551742748336 -163.56518586176261 -4.573333193609017
45.711025256664705 -163.45050911925787 -4.573442055406009
45.754931914486285 -163.36410124970305 -4.575407841280925
45.86045899571784 -162.85411042823367 -4.583245466951741
45.868093896675674 -162.80636881739974 -4.584043370002136
43.070722672580445 -173.68879477383584 -4.631272783610344
43.11473819770677 -173.66129819131754 -4.631071578074016
44.01829609990354 -169.89791934647133 -4.571627896445552
45.64705226290515 -163.57873618674003 -4.570563260190214
45.66732552502275 -163.43040580754246 -4.5722915058108855
45.716737504405025 -163.29536908138385 -4.574886582036856
45.71502920718944 -163.2082436861539 -4.575479908684701
45.728050823676675 -163.12904629347037 -4.576591810722975
45.74192311751283 -163.03031832400055 -4.577850900736086
45.747465238501924 -162.89779250305634 -4.5793969453402115
45.816787445469956 -162.88915780838906 -4.581468351089099
45.81789453488417 -162.73851513482094 -4.583135639416898
45.823682724408165 -162.65662785173555 -4.584184037828858
45.80952589243559 -162.568283139832 -4.584760381730345
43.13073781356725 -173.05809853969964 -4.619227210522497
43.433060806270234 -171.89108655517842 -4.5990220673128155
43.56157629801638 -171.58212242535438 -4.594523531626215
43.97680404963958 -169.91135925685109 -4.571565788467657
45.60014976739832 -163.21144432295782 -4.571916900169777
45.68803034701011 -162.92523029288955 -4.577226910452841
45.73761398919017 -162.49584595264815 -4.583418638940989
45.73740539783037 -162.46417940501738 -4.5836548091557
45.79677428736851 -162.30434769456502 -4.587573479052426
45.85040147015487 -162.10884263684895 -4.591819509396532
45.867827100272486 -162.0501905089465 -4.593297005746706
45.893396686518955 -161.91222102985668 -4.596108210447053
45.90332133429725 -161.83526864849475 -4.597576387517645
45.94350623079251 -161.74765089745785 -4.60029050419748
45.94494835004754 -161.65173162259214 -4.601836673882302
45.9748653676623 -161.5482974082023 -4.604566003918764
46.0322699250727 -161.4507627213355 -4.608160290625346
46.05921154955173 -161.36052699697782 -4.610609020100922
46.03849544747168 -161.26247600442562 -4.611763491356409
46.0572969376987 -161.1401397830147 -4.614692184361679
43.21553268830778 -172.30385552673218 -4.605377680269244
43.27013059650379 -171.9829242955311 -4.599773489071035
43.9390978847255 -169.27650813443333 -4.562115534974438
45.735683410031186 -162.39929030138694 -4.584477431933692
45.73049521372023 -162.33324673333996 -4.5850413744237635
45.7504758975601 -162.20866341403487 -4.587367252670759
45.788671836618406 -162.14000456189208 -4.589485515457163
45.83409497479468 -161.9461828520292 -4.593762073466106
46.03531368866381 -161.19931679015593 -4.612750071848303
45.986808542083665 -161.04880836061193 -4.614094922647965
43.1339837602859 -172.30191803200526 -4.605107229533436
43.80837651452758 -169.77128581163447 -4.567543304856853
43.90705499738323 -169.159362100428 -4.559904447492084
45.069117001518485 -164.35566676970066 -4.550731023493594
45.151233886608736 -164.25769609378202 -4.553218050523464
45.93453622089787 -160.99361371449362 -4.61337787845613
45.924285027060364 -160.91739251226005 -4.614642326739
45.9686443725072 -160.81504906746082 -4.618245518924466
45.94314077390757 -160.75067650382243 -4.618661236806276
43.85580368155354 -168.82090665426654 -4.554706862211514
45.62339564240654 -161.92220986442786 -4.587190533613217
45.932552955723686 -160.70401470621488 -4.619366652659942
45.94498213160919 -160.62855307813805 -4.621438496326732
45.92270267615365 -160.48940070673675 -4.62376347297633
45.944729180439175 -160.44522855390665 -4.625443332035296
43.77874496879293 -168.84748938909271 -4.554193177460666
44.2082907239919 -167.00976177448075 -4.540467733473833
44.90296465634596 -164.15206841136694 -4.5468649348754155
45.8597891237898 -160.55913886324535 -4.620025063593913
45.862686357610535 -160.52967734476124 -4.620903352508491
44.12230428962368 -166.9704700121065 -4.538363629837651
44.812030799923846 -164.24047484343123 -4.544182953108336
44.832641169678595 -164.16386647971206 -4.544835839900636
42.48417932013292 -173.48052386027229 -4.626675575066076
44.0044527747443 -167.19890927733354 -4.538508611963252
43.99272159873957 -167.1336625808394 -4.537501202575108
43.99851941499097 -167.03815106318007 -4.536830367620849
44.06052106062953 -166.98108430749906 -4.537412355747073
44.55792603064126 -164.12403090588404 -4.537416103828133
44.465304565222645 -164.1034939535497 -4.535115402337846
42.05234921150534 -173.04117557436467 -4.617517873656401
41.94446821567195 -172.9518245694347 -4.615848456602868
41.82476116477347 -172.97736987168952 -4.616539874568815
41.69520259331176 -173.19298368440997 -4.621108081965434
41.733680537883004 -173.08262692915767 -4.618833524281323
42.97273120195527 -159.44272863386792 -4.550764980207719
43.011575851910784 -159.40101967927973 -4.553241431496859
42.95318806679993 -159.34328543409435 -4.553000974986057
42.88359690494006 -159.30700487432222 -4.551687725530295
43.33183957868306 -157.29251807688334 -4.54060404674882
43.36277016159442 -157.1697973700242 -4.546885261510255
42.77098566483318 -159.28574381742254 -4.54857464503043
42.77778638139618 -159.2105267941195 -4.551129477749377
42.77878989471593 -159.1200864891661 -4.5539964701272435
42.80368520519259 -159.03829624926047 -4.557401829053892
42.80285480367476 -158.89148915452836 -4.562256496409869
42.83080685109228 -158.80597439071923 -4.566077780753161
42.84283285956016 -158.73394145593105 -4.568949355062078
42.890905694289174 -158.52233739594644 -4.578102231119035
43.26776672126519 -157.24426371009918 -4.542004170162951
43.25985782001634 -157.1612412769657 -4.545842896126174
42.703634165921656 -159.20490795646631 -4.54875842700593
42.710567863056895 -159.0784857573618 -4.553023991027688
42.73900102492769 -158.9974041055224 -4.556607829579679
42.78008369670744 -158.94321046365974 -4.559799673415502
42.837977048354404 -158.68521365226596 -4.5705047033995765
42.855609626929855 -158.6118776155791 -4.573696075130633
42.851985446418084 -158.49388973418894 -4.577826856034065
42.85173244467269 -158.3977636628559 -4.581375258545068
42.91018434713591 -158.29994524174302 -4.586957238709889
42.894657743000195 -158.2105861479106 -4.589873348836003
42.8975990831755 -158.124694906657 -4.593327276797297
42.872393892734884 -158.07914651910187 -4.5943036044906655
43.06222151611437 -157.12351877212467 -4.545114500221956
42.74943336090227 -158.08098828397567 -4.590253690953588
42.74217888605338 -157.93704276706086 -4.595898709785613
42.75654990829062 -157.88934539989 -4.598310151859727
42.94665209516408 -157.22071059722015 -4.53879781404493
42.98328139892074 -157.10931465054426 -4.544750854172344
42.66563926518893 -158.03908650190303 -4.589284559518044
42.710586969376 -157.8341053860856 -4.599114959799143
42.69986647934778 -157.7807861160516 -4.601047406906848
42.848334772347265 -157.28587179867128 -4.534387072295034
42.87587067309873 -157.13345583820802 -4.542241012300457
42.89085102049943 -157.10332381229216 -4.543870130706489
42.57019190127805 -158.03059811077665 -4.586619168953642
42.618226293281744 -157.75557336910535 -4.599532718173008
42.734557225568736 -157.15069484493566 -4.539587137089855
42.557521513495594 -157.72469333144866 -4.5989286240556275
42.69646476430238 -157.11418414149983 -4.54092978680316
42.65595753728113 -157.04857390455345 -4.543744456324999
42.59839517146669 -157.0063672871342 -4.5452466817192
42.515713033401624 -156.9654002728053 -4.54639327603906
42.48422219688486 -156.9020244862423 -4.5493614886366975
42.15789704658884 -158.09708161009092 -4.570757547961102
42.398365403629 -156.87654051657893 -4.549781563195204
42.31029871626978 -156.83110792313425 -4.551259633696259
42.339786208617454 -156.72118572054538 -4.557565786686271
41.87157215195552 -158.13319293030943 -4.560276380870128
42.25061091232634 -156.71461527070835 -4.5570177164514645
42.279742943800755 -156.6263901793124 -4.562196825782834
42.178660910546 -156.61551168443924 -4.561841169928611
42.08546257061106 -156.63752011472965 -4.559704799663017
42.084301222092705 -156.5561638813125 -4.564348663676787
41.99266816009371 -156.50803533582268 -4.566324981329232
41.964726742480735 -156.46645556453268 -4.568491495384789
41.89458236681407 -156.43039148166602 -4.570044882089741
41.75843203241638 -156.45350278595137 -4.567683437819145
41.80324644317769 -156.39912222928353 -4.571173808099989
41.823951486565306 -156.3045092630602 -4.577009368064019
41.81944573864065 -156.21721918347774 -4.582183345763375
41.74336861468964 -156.3823952908546 -4.5717780743883
41.75858058716896 -156.26257504446576 -4.579110339495796
41.765243472935445 -156.18275782297556 -4.583974063984672
41.77553546888287 -156.0998915093449 -4.5890785207612605
41.699660334637464 -156.06326147853343 -4.590941134015745
41.723728624004494 -156.01164835188564 -4.594210863563336
41.602603581871485 -156.0169523462758 -4.593305429653788
41.618127142748286 -155.94454957302378 -4.597940266613871
41.603274010641485 -155.87887703385042 -4.602055064734074
41.53133934347808 -155.8750157190952 -4.601981393759493
41.542613180047994 -155.82510755008084 -4.6052174584788785
40.39995854319214 -159.9487906085382 -4.5657324521260785
41.47739912560739 -155.7760608149921 -4.608133463110872
41.450388366128685 -155.71979474894925 -4.611720322409074
40.34341396060154 -159.91650208099784 -4.562500891590686
40.29891800837125 -159.8800530471689 -4.560227393125875
40.37962357331403 -159.5284117193506 -4.575094093843205
41.36693022532778 -155.68823916299138 -4.6135303459597115
40.27340093050793 -159.8242667482276 -4.559742553171329
40.262852188067484 -159.72717818065547 -4.561411144073777
40.28560241098817 -159.63001337882372 -4.565615991820317
40.32862162410938 -159.5634567307485 -4.570516900300262
41.22610655655507 -155.84735261962726 -4.602850759382308
41.28027475770236 -155.71594123329112 -4.611593302776416
41.27733529886862 -155.62197279112215 -4.617758263039576
41.2536699809607 -155.5746908230903 -4.620827015819767
37.58811897277087 -170.00857336283244 -4.58611192939682
41.08628249700477 -155.9524493566431 -4.595579132603057
41.20108728955571 -155.52765462017382 -4.6239604656091595
37.535409695599874 -170.01179310583433 -4.587240749179176
41.12584288318248 -155.47750571643763 -4.627319862735181
41.07607303467913 -155.4427876834635 -4.629701096635961
41.019608631620116 -155.53209861501438 -4.623570633315569
41.06257849083033 -155.42762811517187 -4.630665389030624
36.987357217193455 -171.27986842608624 -4.629310032011089
37.04675931586771 -171.19245411525654 -4.6259354278980265
37.334916181471634 -169.8008856180408 -4.586129587192955
37.2260249916044 -169.35070394652428 -4.577360789913967
37.27522669594257 -169.33503501633245 -4.576013138013473
37.10865548117318 -169.53017711604784 -4.584246687991079
37.193395343821265 -169.38698512225056 -4.579012502073946
41.212754683666745 -152.9049942481515 -4.534563382831276
41.149425952584 -152.77359864763272 -4.542127712945152
41.01996331766549 -152.89170500173435 -4.540386968225528
40.96499288384835 -152.87895577291889 -4.542473428127387
40.92672458379292 -152.80887666577928 -4.546705007672066
40.88690214804874 -152.7400953577947 -4.550892545926075
40.85331565269826 -152.68924751549727 -4.554129597251763
36.820286378029586 -168.5783404938262 -4.567696731099114
40.80235826046063 -152.62082885124897 -4.558674667792154
40.81938910505512 -152.54853084665254 -4.561394957725065
40.796600656118066 -152.47177506142637 -4.565516941841146
36.726415608280895 -168.61469675131428 -4.570726085296155
36.77413427122415 -168.57365528545625 -4.5686331696737
40.75851007829746 -152.45595634316055 -4.567367074077858
36.65482666432067 -168.5325795125047 -4.5705193632739345
40.49244533348387 -152.8707296480831 -4.5561070057515565
40.50226337063276 -152.76091784437 -4.560864785124794
36.46845501153863 -168.7839396280855 -4.581220626563929
36.5699807676377 -168.4270695882146 -4.570075731941008
40.42774996348492 -152.7938814280378 -4.561398232171468
40.48304271065446 -152.67844965396756 -4.56516594250326
36.52790706802198 -168.363210430867 -4.56963827167439
36.48184093099029 -168.1995370059229 -4.566870945747227
40.34228736537375 -152.85293505165788 -4.561262285820416
40.3425326499969 -152.78687293374475 -4.564160411594311
40.35957211924012 -152.6238341891785 -4.571172144667586
36.438212594971596 -168.18308944819265 -4.567575046874931
40.24370227107143 -152.62377942702688 -4.574476633258307
40.345613586843236 -152.52463785522556 -4.57603802886824
36.37747552714271 -168.02041397675953 -4.565263603219373
39.999267375200894 -153.1190773883082 -4.559054931420088
35.75610221229881 -170.12380390441356 -4.632917779441205
36.25475069715729 -167.96733471364547 -4.5673220980545475
36.31191132899666 -167.95102133127355 -4.565373766099836
39.96021537806427 -153.08629028330483 -4.561639717229826
35.760144666228605 -169.81981281018744 -4.625502509432639
35.70235631454149 -169.72100059515918 -4.624867216044823
36.11677766692074 -168.14905930278945 -4.575522710236777
36.16675282316743 -168.1075845631246 -4.573086981333031
36.210235502786496 -167.97965041274713 -4.5688821106388895
39.7277426864385 -153.51172402230577 -4.549030860922996
39.776046483844894 -153.3044835397166 -4.557068836015583
40.03438611628494 -152.36535477661252 -4.5926030122865935
40.03365171039569 -152.29204130089465 -4.59589239877417
35.667653486018104 -169.72612045132635 -4.626096644729514
36.061992247256455 -168.12019110476996 -4.5763987865707545
39.12016147043734 -155.61154784604832 -4.629350973388645
39.96791960913954 -152.27308261822955 -4.598779654758818
39.452069581590635 -153.94847828708836 -4.537049482116975
35.67377057755313 -168.5943670533452 -4.599164938812052
39.52041364889353 -153.34762166654764 -4.562657211087809
39.5505930188314 -153.13353225077816 -4.571682689750251
39.51217426176624 -153.09964450140208 -4.574345634869051
39.602299559371744 -152.70099283432882 -4.590024206844193
39.829236012725985 -151.88894705999232 -4.620723639089814
35.51287311050062 -168.79619083170246 -4.608923358072942
35.596479523541376 -168.6821258281705 -4.603671524351258
39.4785145275443 -153.12367824321694 -4.574346795836694
39.744875981831626 -151.86880700497105 -4.624191167042661
35.25752260663462 -169.45659222385964 -4.632493418318844
35.34334344843241 -169.17982044936969 -4.623356490109821
35.42840125098622 -168.9028288311361 -4.6141048792016015
35.46799017393076 -168.8632998358725 -4.611987152080801
39.63226314737502 -151.94547105205413 -4.624064541686284
39.64486455596092 -151.84534463734775 -4.628390043248552
35.227326626501636 -169.4344713348976 -4.63303414947442
39.505975808078915 -151.97492261305922 -4.62656500492048
39.48828847926632 -151.93818494420708 -4.628843949750776
35.173648652850666 -169.02187692287856 -4.625279290755017
35.25299321742642 -168.88004003413175 -4.619332486303687
36.9995855796167 -157.37450688707028 -4.59389895949348
37.01013212433682 -157.31474448917714 -4.540219572257009
36.908042839945686 -157.44632531227796 -4.571474509502361
36.96857873988321 -157.39727454809912 -4.56188193324275
36.84998608424093 -157.49720260433776 -4.609184335797733
36.80972863042648 -157.46471161638257 -4.577001700163174
36.72353042952373 -157.4079205604124 -4.581888462955595
36.67477233086954 -157.33593934054724 -4.5517979034669995
35.151627757220936 -157.1186382815759 -4.537169572234154
35.18764017231953 -157.05522409030957 -4.538540583628854
35.05208491597461 -157.11003360419386 -4.541586943782314
34.90127996000526 -157.2323155109803 -4.542379878663853
34.95085683452653 -157.16668722359648 -4.543221999035682
34.93928246806851 -157.03651181988405 -4.549442577388024
34.83106881010964 -157.23730378900208 -4.545066387662135
34.20587015114433 -156.6815151057248 -4.595240348694757
34.1470392349663 -156.70437082395836 -4.596695471347401
33.99234557655179 -156.7389963442233 -4.601682110427541
34.00369243305475 -156.64643426809036 -4.6051980903151515
33.915764162348076 -156.7800149659787 -4.603141595582202
38.695982265353585 -137.13706071702182 -4.55088600121305
38.40123370056969 -138.17026686692716 -4.549287765774999
38.50338601246208 -137.71764499347307 -4.550860177672776
38.2528275398481 -138.15604045619313 -4.5546120235092316
37.82841134024207 -139.62295790643103 -4.552057784252777
38.17555918534059 -138.19622859669508 -4.556687240342872
36.67364229398582 -142.81306561464186 -4.553920663178197
37.96299256147057 -137.93881939384246 -4.567158730123612
38.069881100321794 -137.16250043975631 -4.5723749754786835
36.6175209052378 -142.82268769092605 -4.5557554833319776
36.55716472256501 -142.736608439395 -4.5586447744574405
37.7390218796676 -137.8514407026584 -4.575723508082829
37.82411559165579 -137.56982084765062 -4.576221373063805
32.80559189087073 -157.4745506546897 -4.622591263300378
32.844607441135935 -157.40021601969792 -4.623831313267844
37.67144560753415 -137.63361313009176 -4.580699162628285
32.77373841228278 -157.32260516419183 -4.63004579303006
37.59708162920188 -137.59993286530525 -4.583493548873128
37.448191694480975 -137.60532784330044 -4.588495272590156
37.52432273707807 -137.55052349823356 -4.586682087497985
37.138898160517336 -138.4270693262199 -4.58937815885097
37.37573658910194 -137.16042458115146 -4.596253080082352
37.2955930054385 -137.099722809739 -4.599527122141635
33.349487055585556 -152.63399900411946 -4.530492687924812
37.21852599686357 -137.0273091313967 -4.603097318012505
33.274008513474406 -152.58155316374297 -4.532978007320234
33.2144718739548 -152.56054877164217 -4.534630591419785
36.94814281163985 -137.28297018038458 -4.609126448122417
37.06125075590264 -136.79729497946485 -4.611054189535095
31.236551073065996 -159.9629193742997 -4.6050927889423106
31.243158141733662 -159.90705745054044 -4.606627001042217
36.76970317409243 -137.81817693581294 -4.608924208047542
36.8377601222771 -137.31514695322795 -4.61237751639814
31.190837675854734 -159.99093954846344 -4.6063312017364595
31.162259801884176 -159.87978763462965 -4.611198472796635
36.68380155034729 -137.339729711451 -4.6172060299028885
36.60338465413667 -137.25147779914928 -4.621022201712698
29.791459132995072 -163.59007215802947 -4.570712705863499
29.840288855369344 -163.53277005751272 -4.569997904809897
29.905376367810256 -163.45240227349052 -4.569044711346706
29.931306374404254 -163.39164626643225 -4.5693339224014515
29.899720217450877 -163.25111466652706 -4.574089889844958
29.750910404095045 -163.6456779328701 -4.5712215426343095
29.805087774879915 -163.18672438049836 -4.579823592183875
29.668729941502882 -163.16003057568645 -4.58647248037466
32.998663481591336 -148.10635448609628 -4.600125533804139
32.04660962529033 -151.62697869003406 -4.574222780181369
32.97342664291845 -148.16638637640546 -4.600042359511031
31.929185178235418 -151.68950348870027 -4.575778249584849
31.908649584753846 -151.56349654991456 -4.578140526835316
24.03996101878985 -173.9066009325654 -4.600648364275227
22.098440798783876 -176.4736043680322 -4.630573888058204
17.012491553524153 -191.6888809002603 -4.575554545370178
24.51324412110059 -157.97571907087413 -4.535792958558802
24.503579553798907 -157.88555201630638 -4.538609413784721
24.352025946376664 -158.19908477511038 -4.530771523897461
24.497212728821786 -157.81808557576636 -4.540746349281585
24.61888058329425 -157.1677882817267 -4.558411216847557
24.64419749926815 -156.99452628002442 -4.563170682540003
24.70541276708302 -156.89618020538947 -4.565272414831727
24.6934279674888 -156.80493732319576 -4.56800602525341
24.77655282870909 -156.75694492782173 -4.568370403463126
24.20588990120075 -158.31920359563213 -4.5288168197777585
24.25364681714505 -158.23208036543895 -4.530947538286247
24.395047278141135 -157.7576036096132 -4.543606266284795
24.52142546731567 -157.0804772021255 -4.562083674585651
24.297842734000696 -157.47015672893622 -4.55321647097797
24.346926483125202 -157.38760496348345 -4.555087113759369
24.085603013161723 -158.25935484672 -4.531889389596666
24.272254285168557 -157.2848744454178 -4.55894019818057
24.328865230865063 -157.22799283800268 -4.56000333151462
24.34923219871666 -157.1600394317096 -4.561785034268017
24.13218282188214 -157.39591319756562 -4.557355444916894
24.051984091195507 -157.5207228796142 -4.554488767373283
23.95496486182833 -157.4584626284854 -4.557511866851669
23.36612483959272 -158.01407404652406 -4.547405951573132
23.498535641184937 -157.57472928771244 -4.559191544530159
23.371663087737332 -157.50595369459896 -4.562561981616516
23.185606064829194 -157.89444004752463 -4.5530409705406925
19.726047612365264 -158.14769132486407 -4.583577320154582
17.258910390493725 -159.09863088253624 -4.580862508427109
16.345721668525677 -158.78829028279097 -4.600828776677611
16.151055767063706 -158.84822053891497 -4.600901769082499
15.991543252094587 -158.18731886007632 -4.623708722920821
15.938634106635963 -158.25630516595155 -4.62197369853039
44.44059951918964 -164.47366919750567 -4.533958380296509
44.347577021974004 -164.3783609299622 -4.531725368907399
44.3790479897793 -164.22115751346496 -4.532501285108008
44.39745923680363 -164.14764455732242 -4.533161801489802
44.31294210096218 -164.30299499178983 -4.530784198636873
44.348516773818844 -164.25650248175785 -4.531748218857442
43.62895420857305 -164.8215246392021 -4.514578107866069
43.46318448490963 -165.07272490852452 -4.511956355120882
43.548229004044785 -164.82981105362094 -4.512843066193821
43.434887960808865 -164.9931558962813 -4.511021840563503
43.439233883469626 -164.92240975823546 -4.510696764254784
43.47038558384709 -164.85778746975467 -4.5111526034791956
42.61100077024976 -157.428226261116 -4.524324685924339
43.28378620147643 -154.06101309901038 -4.433142093514045
43.23742874500696 -154.0460843041548 -4.434772699439817
43.22573631669649 -153.99824582850894 -4.4369653240026015
43.1322668024421 -154.0272673615558 -4.437969713595494
43.0207846824453 -154.03686199465017 -4.440170967876315
43.03441622216038 -153.9454221555088 -4.4435905074802005
42.04840489283757 -157.40021840342476 -4.518398809558331
42.9134353887012 -153.98484457991688 -4.444770595167881
42.77468438898026 -154.08348646740473 -4.444002098208299
42.854095495361676 -153.96487096891917 -4.446997548207692
42.85325788728161 -153.85909973428448 -4.4515128762210585
42.76929319573757 -153.85079010320763 -4.453880319940681
42.56891963315913 -154.36181694704928 -4.437199468379732
42.64894122915432 -153.9182186019858 -4.453858560189891
42.65850657589339 -153.8079510614658 -4.458269053336244
42.64377965105977 -153.72135107956518 -4.462301707194887
42.52653612744555 -153.78744110984823 -4.462373998687147
42.5301164663011 -153.74202252612517 -4.464115371466821
42.47245845539449 -153.76537970080642 -4.464619152075487
42.2750553773541 -153.9254914960049 -4.462549418412698
42.41598390762381 -153.62190097012981 -4.47201519123477
42.247211992179295 -153.8967691813357 -4.464403687855566
42.2472688902277 -153.75489589767662 -4.470516488297584
42.26636366710412 -153.62794820023637 -4.47553864658266
42.31516601702783 -153.56964122797757 -4.476734813511902
42.21014178305375 -153.52372216972552 -4.481414448662761
42.132207500326174 -153.6175000475322 -4.479211934877641
42.14658035364679 -153.5130483270829 -4.483355911072425
41.80394865814142 -154.3617898336031 -4.4554682756791
41.91720997151745 -153.7544690057014 -4.4787657240610805
41.9920257605669 -153.6196463064185 -4.482624688978374
41.97724471150069 -153.5526165553171 -4.485968678193209
40.34168492538086 -159.92040345165609 -4.4490158229604075
40.294898669928536 -159.87270098797202 -4.448562987288483
40.38010770128325 -159.57688359981387 -4.459273962890827
41.88991274071762 -153.53429640660548 -4.489004686247225
41.94259727259194 -153.46639399880073 -4.490522421634898
41.946780955583705 -153.37379966776538 -4.494547623978067
40.27719515654192 -159.81744513027277 -4.449337316887983
40.274072673259624 -159.7257188336754 -4.451592585976542
40.30978260655524 -159.63345168496673 -4.455292623253163
41.771483296806025 -153.46706316835215 -4.494849646964285
41.832361225937454 -153.45396250086054 -4.493915724386279
41.76827224471609 -153.42731513345424 -4.49676954721998
41.41870849875774 -153.85775237303645 -4.4868401904546
41.51042262857625 -153.38037294453397 -4.505422462845612
41.561599056114616 -153.21170471158123 -4.5115135188720386
41.611411133835524 -153.1876748989987 -4.511367977835392
41.21545228383852 -154.0535349816902 -4.483511081611274
41.31502373575874 -153.81243943627663 -4.491558440460217
41.29395840663501 -153.7364392899794 -4.495497925654913
41.382116016716175 -153.4281709604058 -4.506777640468451
41.14241422975938 -154.1549967352531 -4.481044345678759
41.33414500073083 -153.4055665967603 -4.508974746990621
41.32956817442015 -153.31851852461907 -4.513015784756578
41.140330816608724 -153.5602618249016 -4.507231121229531
41.18168042958972 -153.35609005335928 -4.515286860489219
41.27109210670033 -153.31376010101664 -4.514784291191232
41.14913589825232 -153.45397989468793 -4.511712727763637
41.15526778832702 -153.25155558031776 -4.520588939714085
41.03713026943559 -153.29650515062934 -4.521831896495426
41.07276100229512 -153.08685021225193 -4.530138726311436
40.94117853134423 -153.40430873620295 -4.519520366753215
40.946499843236126 -153.24905557166852 -4.526419786335593
40.92400643964024 -153.23580788230964 -4.527528859014854
36.063492542945696 -164.42016453945493 -4.489597889621159
36.03664823145949 -164.31800750796168 -4.488176904774353
35.928571411484725 -164.2779127719367 -4.491107766637757
35.98081572710266 -164.27124574564147 -4.489091272897989
35.854562978023424 -164.30142876608485 -4.494351810657985
36.99520497712385 -157.37213782573508 -4.4549431474530214
37.00771440315089 -157.30341497343218 -4.457701037694462
36.90733239845187 -157.44693434947948 -4.454523441635572
36.96947454780433 -157.3988292936626 -4.454590287394438
36.83895986036975 -157.4943809782197 -4.45472561288062
36.807094865206665 -157.46288128822522 -4.457324042954886
36.72810028562473 -157.411861380062 -4.46251712425182
36.67807524696796 -157.33953929105434 -4.467673960291627
40.33824228699328 -142.30380787099637 -4.43060261228767
40.121644589258594 -142.82558439644575 -4.432466443217641
40.27900156081059 -142.2848654271974 -4.432921304660231
40.008099838014346 -142.78758183775048 -4.43715099552015
39.94057686206079 -142.82894378055101 -4.439045955408025
39.914294712606264 -142.63609567718964 -4.442444904404415
39.85343097175005 -142.6445076532968 -4.444478468636938
39.83502005853236 -142.3803995965015 -4.448423003393325
39.73594208267849 -141.7971275489116 -4.458865198054163
40.02250807565878 -140.74793536604574 -4.460765297179422
39.624184790842996 -141.9215923573754 -4.461553640890805
39.66242169712731 -140.94669465085477 -4.4717488766522315
