ply
format ascii 1.0
element vertex 826
property float x
property float y
property float z
end_header
108.11298239429782 -181.26380149318132 0.22225464255559593
108.57932432314804 -179.6628540919421 0.29316798312298187
108.56218482189314 -179.58150168739277 0.28715014736784805
108.52963875519575 -179.50279379083335 0.2809020751169592
108.02658855020998 -181.3274115736026 0.29207570586583087
108.00729198158574 -181.1124347385606 0.26979254975220646
108.41375455127945 -179.65899860072486 0.28798695439443445
108.48849887357974 -179.57657578938802 0.2847384676644255
107.8999574211704 -181.38434738500496 0.19841457720264172
107.99726433112254 -181.11303944388527 0.2692301061493466
107.98126578152774 -180.97137789716714 0.25431363287542436
108.12080790833225 -180.5546232961437 0.22080920816139968
108.10946004785433 -180.42337626146855 0.2070310060215364
108.36686253130179 -179.52037128599463 0.27710908829691566
108.40931605855708 -179.48524016712878 0.27608489609570164
107.67997426899953 -181.5741407241685 0.2010439445717179
107.86750147570467 -180.922163465527 0.24200758763442878
107.87891068994554 -180.8776555320101 0.2384359704705675
108.00325237798104 -180.65538133333405 0.2244031269288695
108.14603331173483 -179.85942449909155 0.2917155751166904
108.21438182337326 -179.8563989405813 0.29421272853798736
108.23020803764483 -179.75805720991121 0.28822687597140095
107.78896103675577 -180.99849982549304 0.24376010723940167
107.80680768841674 -180.84696001830272 0.23053766770141076
107.88455250436496 -180.52421300632017 0.20425570693658146
107.89926146579873 -180.51233758926125 0.20399074724117083
107.97927188740665 -180.3818723206084 0.1958234358791855
108.03829774820613 -179.9610752015251 0.29381763572541386
108.05907953128559 -179.9251974804807 0.2923669900762299
107.64510578717973 -181.04572121387434 0.23708032208906588
107.65486250274807 -180.95703504822848 0.22962363282874046
107.75269201233706 -180.85359301249915 0.2273060250408945
107.72473525686037 -180.6924539055164 0.20984118832705714
107.8076887629821 -180.57339554718502 0.2041169615936483
107.90212667771678 -179.9352117398036 0.28574610895531705
107.9577764303716 -179.82560341490944 0.2811979664968638
107.46852148590699 -181.18336342669483 0.23416741177549122
107.5783658317964 -180.9132633918609 0.21936540049994926
107.6200511669823 -180.8152657234655 0.21361661369920465
107.62532265358062 -180.66262060971823 0.1996630964870701
107.65681318595747 -180.64874138085796 0.20071708034374527
107.80958239010815 -180.10624732098444 0.29215767360590605
107.84177802145715 -179.91455358581712 0.28138980008553227
107.86017936177103 -179.8370443841032 0.27728733540937806
106.90974485887834 -182.9616062322436 0.2653997244492159
107.40414805452333 -181.22889778495093 0.2320308005712593
107.37397352997067 -181.16135842297618 0.22332218032787002
107.42318976818001 -181.06240049295172 0.2192909176234752
107.4602882729139 -180.95344555039446 0.2129993584572636
107.56244892000153 -180.7391146963934 0.20193478786870941
107.54863333887226 -180.73374607514694 0.2003540339916062
107.66399637911955 -180.25876572800215 0.2937424382376023
107.680417082075 -180.17721126292864 0.2895206160801732
107.79080907522963 -179.80084054446579 0.27139470687968403
107.74779255995445 -179.72731245654816 0.264444629903453
106.48195401524852 -184.29464521461628 0.21289519243690552
106.46257304935163 -184.24602612077845 0.21400323743873156
106.5514350828183 -184.1353309087869 0.23553225596885302
106.64306872168969 -183.86039774182865 0.19350465438838288
107.2734394611569 -181.48113054101375 0.23961101485844657
107.33464861221157 -181.21875723508353 0.224394849434936
107.3211766501224 -181.17196693266186 0.21912649985250976
107.31117928736764 -181.0607074205864 0.2086589118274877
107.40063226132833 -180.87231513277862 0.20042449522463954
107.56361276310706 -180.36123583922978 0.2940150218313805
107.55159967775644 -180.28537605023476 0.2885495251286314
107.61368168772859 -179.94123631730935 0.2707734697667613
106.37235428254976 -184.32615875377775 0.2517253311557752
106.41941010963554 -184.2263684471659 0.20922336228375368
107.26077413375435 -181.01079071011898 0.19949486642721098
107.39230638858466 -180.47231240900894 0.28939367739304667
107.46955499927043 -179.9912807057195 0.2652780979197721
107.56677469878127 -179.87786777124242 0.2640192859342743
106.31401790088879 -184.3411402053711 0.27231909964745543
106.67388239930895 -182.84074494145673 0.22417666287478194
107.23958881678166 -180.75019349373977 0.29413147161982445
107.23047395113264 -180.591444430919 0.2845438859982348
107.24028492552505 -180.52344274196625 0.2813814993662169
107.37028127254459 -180.34392479158547 0.2802356122441426
107.32590427270578 -180.1559585079848 0.26597232330584675
107.493764781767 -179.78308084061987 0.2537843030135425
107.10963666957434 -180.62100901180796 0.27678993150436954
107.20850687005523 -180.51376485983542 0.2784461156652477
107.2416852770358 -180.4030373972777 0.2745636846250225
107.25655962067805 -180.0116901722065 0.25258186787256093
106.63093583966788 -182.1880106732704 0.19966094835679632
107.01606861906718 -180.66775927355016 0.2716761115341284
107.07838613054577 -180.47401962808678 0.26619305861040254
107.19084678421538 -180.07424216226778 0.2517141503648101
107.28782235620389 -179.67368268972558 0.23423122299314436
106.48260313987717 -182.29043110745621 0.2759074836467167
106.58116239657974 -182.06661886264064 0.28410123583524804
106.92366680322478 -180.741163449007 0.26766714722616053
106.94928861772902 -180.64762906038064 0.2650285194336811
107.01686112276657 -180.49380783590414 0.26241603457330115
107.00137821283234 -180.19250459122688 0.24451897131727238
107.08861364304617 -180.01322718912434 0.24086435829278463
107.10256784514604 -179.99103492692237 0.24056556120344824
107.12502916133369 -179.8728423687715 0.23525652622919258
106.13123897536816 -183.16379904428263 0.22201853824233816
106.22623002755897 -183.05369807245813 0.23841179988847536
106.3207307242206 -182.46504928343373 0.2563610584462568
106.48950200586786 -181.9273794162815 0.26991312589847427
106.86289578881231 -180.6860498736161 0.2596031309262305
106.8830061777071 -180.56835132318668 0.2552960059345539
106.09445482720245 -183.08942428760596 0.21861784582581884
106.14222987773535 -183.00519571976415 0.2273984262874018
106.86158049659743 -180.28254751721113 0.23836644068183835
106.8597592996224 -180.15555965744565 0.23133854583353403
106.05990249973931 -182.98998049674697 0.21589463085203797
106.57803416239246 -180.61907488898234 0.23061000214577215
106.7593989353943 -180.02341716646757 0.21607231719485545
106.10192310549134 -182.32019992500165 0.2267042250956354
106.5809676096014 -180.5024817079405 0.22529732425381208
106.70277083763754 -179.94733998575958 0.20740504911886343
105.97595047142863 -182.35371415489615 0.2100209843067427
106.04830565001879 -182.12864104890542 0.21833780036691228
106.37695938289131 -180.8734060072998 0.22224488758567917
106.38821758087047 -180.58176058100136 0.2108793940808803
106.47671771810144 -180.49280880013936 0.21519850530746928
106.55016009454633 -180.22900638345536 0.209108471750885
103.99159581721248 -189.67582294979672 0.2757828151821731
105.90163648889387 -182.17582484303318 0.19951005740342007
106.46704580967717 -180.133889063241 0.1970204164225359
105.14254310996837 -184.81937919510864 0.23807728624497115
106.00787141199292 -181.41777768772826 0.20028662796144064
104.78043333036148 -184.25997023324382 0.2459924892328871
104.79058790696665 -184.2450615324799 0.24773125451326145
105.31170350426724 -182.0481854115402 0.25518912322019555
105.33394622594965 -181.89563934625312 0.25955616454972485
104.62384377335725 -184.33632994664683 0.2292459998859107
104.69941389368364 -184.18516477020228 0.24428156722833422
104.70804046284782 -183.86383527044413 0.2637451353520021
105.22033092758178 -182.01694036439096 0.24620913308134643
105.22462682391593 -181.94303328105707 0.24780381060510995
105.28786437078692 -181.8698959148367 0.25523629760585836
105.27473159127642 -181.70337172224495 0.25572478563405554
105.36256433295235 -181.52801102115964 0.2658079952354513
105.37785511869338 -181.48767530601754 0.267513139905459
105.54410467612844 -180.99043503725468 0.2835441681494081
105.63907467247694 -180.58547741803417 0.2894321314339804
105.63995895048228 -180.48497893955974 0.28859334469052467
105.86457955025482 -179.5037459506128 0.2924321208682505
106.08731833425306 -178.86469695665724 0.2947955410592884
105.10006630396516 -181.9978988018197 0.23409835953971023
105.16888197472537 -181.85128188416007 0.24334460916082085
105.24364312975722 -181.7009746172742 0.2526794413302238
105.2567978990746 -181.64322442444052 0.254519660561825
105.25747616615892 -181.555742414408 0.25528922079269545
105.4425613827695 -180.8299365406282 0.2738509051511445
105.42657464842 -180.7940593720849 0.27223032644931305
105.64243994213766 -179.97380007006532 0.28293662688025684
105.76640202981724 -179.7027603414184 0.28850524468116256
105.84723340206455 -179.17090231534897 0.2848853025908634
105.86492250636095 -179.11904160085425 0.2850612032388994
105.94322319947885 -178.81917386717552 0.2841844354222184
105.03100806291827 -182.01562628440047 0.22662418439373772
105.0972220375801 -181.69732994638275 0.2379888582492734
105.18077997403891 -181.48497973142912 0.24828558187231814
105.16763334797501 -181.4503604276979 0.24726120579567404
105.43089626541199 -180.60566751416172 0.2716483783992596
105.41315585911951 -180.56661566574385 0.2698086803043973
105.58342685211016 -179.91787576842577 0.2774605457532775
105.604751139876 -179.6757730407609 0.2757130127990672
105.66253321040584 -179.5266416641871 0.27781191360646607
105.7590691393381 -179.2433171325415 0.27991968554059743
105.78549499805706 -179.1434590215049 0.2799185416760998
105.74693796214538 -179.1182507435633 0.2767353231087499
105.85117626476716 -178.91894132384277 0.2800779961126544
104.96924089319067 -181.65755673339464 0.22549173087429772
105.24110368268744 -180.84441449752927 0.2556183320409753
105.27669649836861 -180.70106312452003 0.2584306374976656
105.26270901543062 -180.6007078456085 0.25675105769728873
105.27500033897002 -180.53341585716086 0.25751168899719135
105.32893960501582 -180.4615199022632 0.2618159038295429
105.50391650221353 -179.72206228697206 0.2685116422503411
105.5338966394258 -179.65707684730359 0.26994927600777946
105.66654836369588 -179.07649808447675 0.2701491015878734
105.08216950048079 -180.87229017706625 0.24096549265255407
105.13018328244391 -180.7997626144033 0.24538630578881912
105.11604869666753 -180.68757738107928 0.2438609073206266
105.23726628989552 -180.59894920958848 0.25451892850287694
105.23185872705558 -180.4585725646966 0.25331002031809213
105.34202928652962 -179.87507726288564 0.25748131667753843
105.46846231701134 -179.5850999747517 0.2637717685011223
105.44868869707983 -179.45326502163834 0.2602533425541813
105.58931284380225 -179.1232239185828 0.26535813576388617
105.69056515825821 -178.60332027648906 0.2624095058309659
104.8297613562606 -181.71760527488397 0.2105061836682139
104.96621565415819 -181.0771918623608 0.22965535307350876
104.96974629674264 -180.9478938617784 0.23035208793413134
105.05292934412833 -180.6110940610498 0.2379726943037377
105.26930180387767 -179.88560298780354 0.25158847255812045
105.30531037112183 -179.76201688315382 0.25312338635985454
105.32499630848422 -179.7428271925113 0.254512581188474
103.5013755366607 -186.1930344066825 0.21829063135033455
104.6925701753137 -181.67887721825036 0.1969876116188038
104.89416576273256 -181.0247715329446 0.22292804260608856
104.89319092439686 -180.9312004553719 0.22311433871903358
104.90454879356712 -180.70799206502764 0.2244823189159706
105.18388965491076 -179.8574274884579 0.24423827149473443
103.31367517059937 -186.46437569180083 0.19399440457834863
103.40652180255974 -186.3507660673081 0.2047910221651237
103.43738038484418 -186.2084529654164 0.21474070113743962
103.43145815074429 -186.14873142633908 0.2181285543222615
103.47991515803534 -186.01912105945974 0.22797933677140858
103.45554089985662 -185.93296526244868 0.2321689608419685
103.50554378453751 -185.7880713330228 0.24294405160763863
103.59458027359192 -185.57084963780363 0.2595624441244742
104.80865727529087 -181.03464960971098 0.2146577395800279
104.87399659067896 -180.63798633061037 0.22161854916762683
105.1047941334485 -179.81188000286318 0.23715404780243046
105.28005141727832 -179.16303019734596 0.24280151844254616
103.2614537669941 -186.46713442189804 0.1917210866682041
103.30134353909861 -186.17342106455158 0.2112856240075812
103.39164282004134 -186.11117083891017 0.21875429118974737
103.42577784686098 -185.87126323578437 0.23464001548828065
103.45192264103844 -185.7767520871055 0.24138049639653347
103.48518798434044 -185.68101534234455 0.2484663401315085
103.46063545795626 -185.5369283704058 0.2559588289468184
104.71260829322958 -180.987608457299 0.205647599718804
105.07322355661627 -179.53227084737924 0.23146846237614793
103.33431757264002 -185.7792622123983 0.23633773402109876
103.41760307639252 -185.45119371965887 0.2592196544285357
104.61810271322796 -180.70291657448846 0.19759844923775877
104.63133100232636 -180.57737397148745 0.1990348316492917
103.31519268224133 -185.5448858193423 0.2494160327413445
103.3395370807297 -185.47563389810534 0.2544880430007911
103.72224779976348 -183.678405208848 0.19745222149566452
103.80464597826608 -183.6458856787921 0.20560564392433642
104.59387358124307 -180.6621089383372 0.19534206165759868
104.79589627301094 -179.77267152911804 0.21068424081336232
101.78463226371515 -191.0728780148814 0.18916282295730646
102.01266118551005 -190.22499195386436 0.22732407087869327
103.10732491435331 -185.9645632352862 0.2158243138031192
103.22956020786205 -185.43693142988596 0.25214642610573845
104.62721734912417 -179.98600264314877 0.19737054865052342
104.72994671234328 -179.5922579733949 0.2035332464524751
104.80624095956729 -179.28278361272376 0.20673625739119736
104.86676593385485 -179.129462325115 0.2098662375224495
104.82651255003522 -179.0462015740941 0.20550364877663824
101.85576695395882 -190.218377475328 0.22565099551080273
103.15692596124968 -185.2107329005778 0.26220754847702993
103.16128121624654 -185.1285672053539 0.2671105483328988
104.793271156176 -179.073687417222 0.2031822201432037
101.59395121858317 -190.77444986835997 0.19913510093913356
101.75185884210859 -190.42953618864138 0.21549941954479856
101.76893961335433 -190.23248985865467 0.22397617233295655
101.80318301004955 -190.11364265130922 0.22939205067414242
101.81958018964181 -190.0116180981922 0.2339401833054291
101.7927475366578 -189.94760261825647 0.23627086020666768
101.8794910945524 -189.6222703437352 0.25109339207440007
102.09246659913856 -188.870720622281 0.2857461642615362
103.01941968221121 -185.44752981901087 0.24270630371181284
103.02554308961561 -185.3611257111328 0.2479842353194417
103.02402065524328 -185.32964414506435 0.24973131803734844
101.5070137994814 -190.61597968450047 0.20473405286453308
101.73582695920962 -190.08739323382966 0.2296876296154058
101.6875103494663 -189.99782759392718 0.2329433356052658
101.75333349304088 -189.89729875279147 0.23793258466046846
101.78319473194618 -189.80868473815266 0.2420684194679207
101.68493491488161 -189.68361227615978 0.24623798045157216
102.7153810339476 -185.8560975357751 0.20597692411881746
102.77958691267811 -185.49548906249242 0.22980120596798945
102.90669181192074 -185.20151181442452 0.2521505356154754
102.91090773874534 -185.06366353335986 0.26021941735261966
101.54114156050103 -189.69870117708965 0.2439550828552719
102.61008071395226 -185.8693845233054 0.20076586721878992
102.75853888620223 -185.36954155410456 0.23621592077205208
102.71125905003599 -185.1840697857821 0.2449028678463796
102.83495516977861 -184.89078371580604 0.2667852692609559
102.84811698942809 -184.83656800565424 0.27039686395235163
101.49200208750497 -189.65574100615564 0.245198452467392
101.66845336443556 -188.96728801636712 0.27685832253184195
102.64807831489068 -185.1771259413339 0.24260164233323483
101.3353389903493 -190.04391820693004 0.22684617592911485
101.40343361574968 -189.64720564092588 0.2445893492163787
101.43448882220137 -189.58051417297662 0.24775720926925757
101.59736632559026 -189.01920531336305 0.2738664009926714
102.49112898010371 -185.53315792637594 0.21546837084284903
101.31714394558178 -189.59028260577426 0.24604248573240917
101.31091516037266 -189.3104621303 0.25807900040375503
101.33942348408057 -189.09320894316838 0.26778901526579096
102.51061023687298 -184.28750855488926 0.28687916811561676
102.12370803973538 -185.16617776988045 0.22100628747047454
102.05389116424458 -185.14505769675262 0.21925164607608588
101.8774099290783 -185.2554465013672 0.20547440632853886
100.60013915174174 -189.52010303297627 0.2411849849094316
102.90585148608713 -180.30650991391215 0.27015300254890334
102.84444095939827 -180.24183870028514 0.2676002121584441
102.92880888148959 -179.75157130975228 0.28641330924764574
102.4295408066442 -180.72294172894271 0.22363373342209117
102.77088840621562 -179.38883801273315 0.28455530771019244
102.208304943505 -180.77999715120148 0.20573133495393411
90.06754176331765 -225.51669520086438 0.256149727955733
90.05715934680963 -225.16138160818474 0.2586037551276702
101.89996171300973 -179.89400625458774 0.21126365626162236
101.78256849758411 -178.9149074112443 0.22933520629081278
101.83869412700179 -178.77440658569182 0.23663032104830553
101.60901374382 -179.39338545800086 0.20501717679289896
101.67522390860553 -178.91175600703272 0.22212328321097516
101.72502122488264 -178.65217621059762 0.23182433847837844
101.52549075924352 -179.06282428375312 0.20810204487988962
101.68387223531134 -178.7706020083109 0.22619682070001193
101.4481226563401 -179.22447502033162 0.19844833966756975
101.4942741576141 -178.96863894717615 0.20840414805123045
101.59642736060708 -178.36342447728802 0.23007594766080608
101.39246069337511 -178.9377910370144 0.20213293504124893
101.52749627651136 -178.42847945673313 0.22387723300943715
101.58370351425349 -178.2748441636721 0.23125783501370245
88.57305521735302 -228.04157438950818 0.23534528353640077
101.31455781734539 -178.77378756232557 0.2011089163348737
101.47249286744831 -178.30857833743343 0.22300155635242497
101.42991128863596 -178.19616669037094 0.22275713189486193
101.86786581700127 -175.6281638555271 0.2970050083330562
101.64494956595095 -176.0410681050777 0.2775061618958672
99.25997446683064 -182.4457995767212 0.24881504446353458
98.7600806835611 -183.00347312937737 0.19784786905557722
98.86584560373957 -182.70285161002172 0.21856084319933716
87.21911010247473 -223.81893127271152 0.2634652554695166
100.75049262744385 -171.63930319955716 0.28444515436237194
87.1204739788645 -223.66809384083834 0.2644066896322964
100.52672670097763 -171.9343779964094 0.2689078974731921
86.69086740423957 -223.80286139660373 0.2634485699454929
86.41520739434895 -223.97968870745368 0.26241549088382476
85.36062511810547 -223.88215129308372 0.26439173681259875
85.15202781796087 -223.91774989531098 0.26415145188539557
76.38629506204069 -185.53562592995883 0.2387184091083015
76.20387906321571 -185.77312832339203 0.22451485156876097
76.19306398932537 -185.65998860603622 0.23019523889901647
76.56313938084915 -161.90165198451092 0.3008287661754301
76.34612187487497 -162.24576720053068 0.2771445855555843
76.36822439921907 -162.09739541250673 0.28432499906284014
76.43736201951859 -161.9803017615235 0.29273333980522553
76.21040768607065 -162.32022068706075 0.2680190438504447
113.97538196320646 -178.1390525382021 0.33256494907702533
114.38692928032933 -176.67778136532942 0.30129793603608257
113.80416329162875 -178.28558326624113 0.3401650533069088
114.09869091508794 -177.13358777544198 0.3165466307913639
114.18125387760674 -177.07971768631404 0.3133081053353035
114.22752528505303 -176.92672773439978 0.309767363701288
113.28536905793567 -179.90747873345924 0.37090198063883645
113.39376948986414 -179.4951846308082 0.3648764525787792
113.41736584191774 -179.3970267488822 0.3634435393703183
113.45485538205742 -179.36239596829526 0.361702653838214
113.48487602095494 -179.17611828081715 0.35945395795426693
113.48890784391854 -179.10564859297588 0.3588222583796634
113.5271575844414 -179.0176469353011 0.35669706410327406
113.5510054554767 -178.9437606662405 0.3552052912593415
113.59946488437907 -178.72224213495156 0.3516418060993683
113.68566980619211 -178.57768639384255 0.34717141863567635
113.74852466919405 -178.30758949470427 0.34228703620655426
113.81602245323789 -178.15530046203313 0.33834505636075873
113.91053100033237 -177.63469819313102 0.3291920914064799
113.9118686401433 -177.63309825906347 0.32906163318485604
113.97144621357423 -177.43004830831387 0.3246045098042106
114.04413337160999 -177.29556465405113 0.3204480347587523
113.10173278798577 -180.29502686957656 0.3794266779008288
113.16274562162795 -180.13028803537537 0.3765841261128607
113.15733483041812 -180.08301680369513 0.37679141894623513
113.23670683382788 -179.9073100458086 0.3729471444720046
113.2862891200741 -179.68028258481922 0.37010852713256936
113.30257308893756 -179.62215229117407 0.36915869165827453
113.3556281003972 -179.37792835681418 0.3657599249084084
113.38421741701616 -179.3050203130825 0.36415604113259503
113.44122148709528 -179.18556483962934 0.3611550059024756
113.4219497981859 -179.04093590117373 0.36088892803584843
113.48024072746415 -178.91586350821953 0.3576953581092122
113.51732658044071 -178.84304829461584 0.3556482146329211
113.61454144647378 -178.24443574533385 0.3462817506676175
113.66603661192485 -178.06621432505895 0.3424860052545467
113.68886732078225 -177.97889248933274 0.3406468915284115
113.86643306669488 -177.60008540829898 0.3301084297616091
112.89161628145656 -180.63589539726465 0.3886821431541873
112.9445572383577 -180.53797679269724 0.3864059758234841
112.98803626984534 -180.44628781009726 0.3845238390960774
113.03454740271914 -180.38568568952684 0.3824055468850497
113.06653584960395 -180.2601869128395 0.3809690601803567
113.10525507580971 -180.12658234765095 0.3790711575878188
113.06715655859817 -180.02593753275102 0.3805085751016295
113.19366085860399 -179.80618480088995 0.3744658201287166
113.35089691082258 -178.84423466179922 0.3617876293719803
113.6046038438932 -178.19702171126733 0.34611037497418595
113.7958815534848 -177.13906854511708 0.32577536553339537
112.74914956413639 -180.85342796172654 0.39485274219878985
112.79279703178729 -180.77879260252297 0.39297591204739585
112.81166389874866 -180.71921326293844 0.3922588489858489
112.95906607878504 -180.09342257772516 0.385217000806345
112.96748040175744 -180.0605146688359 0.38480340785855477
113.02786323378382 -179.98076454625794 0.38195216520327285
113.28362318690867 -178.77905324487062 0.36352178113898415
113.74765054500764 -177.10577206922972 0.32670966317448724
111.96755002283167 -183.4659764455543 0.3840167099708957
111.96910778445672 -183.4102922681233 0.38643783054756514
112.0317723983126 -183.2462388715039 0.38948093498669756
112.02553308712352 -183.20115796549308 0.3916712544918032
112.09781335001723 -183.10076431574174 0.3910225065482095
113.16192643218847 -179.07815990173947 0.3707453553966935
113.20170685547517 -178.7816428567921 0.3663669558275208
111.75334761695548 -183.83094268610932 0.3791351194830927
111.77486209700176 -183.74574196816693 0.38240046631382635
111.8347515062113 -183.65500473941572 0.38330860793942134
111.86749938902778 -183.55530000430744 0.3861533463371071
111.9048439140676 -183.51192266208432 0.3858490579159327
111.90610139711191 -183.41023214107958 0.39043273995148914
111.95694158750189 -183.2881004880977 0.3924515756232574
112.00126165613754 -183.19895741282284 0.3932675178281346
113.49110982508473 -177.35223705393994 0.33787292890900444
111.59744837188937 -184.09270683349774 0.3734499045720901
111.6199306963771 -184.01138344380763 0.3770968981547829
111.65371115944572 -183.9155731102211 0.380667557086879
111.72803344326613 -183.82350592349377 0.38116319911732144
111.75553628070313 -183.7392918612016 0.38399316809760725
111.77376762488024 -183.2890918594864 0.2942938695694757
111.82234333296879 -183.12353117721878 0.2948885432760919
111.84296868901649 -183.07339375764346 0.29435571993947146
111.87494565930795 -182.94830320443518 0.2944925163876649
113.34261087435891 -177.4365221349155 0.34342376262658414
109.9252320324832 -190.21096803333245 0.3681494295164396
110.72540239594792 -186.96572386226902 0.379976175546263
111.31550336393546 -184.6894440787567 0.34716732778418397
111.39588462200658 -184.45275901964888 0.36106004542165976
111.42736994547215 -184.37325269744272 0.3650074232951015
111.4675392598289 -184.27940071539135 0.3691958649375871
111.49642741970312 -184.18414985240804 0.37388463791501647
111.53616060518242 -184.1095580141841 0.37626768918510567
111.56997034747833 -183.74740068355325 0.29432671523022497
111.58457511012043 -183.6837840531944 0.29613484144831614
111.62595439089652 -183.62325336907597 0.2950091239472179
111.64718731965584 -183.47826446824226 0.29940424256418746
111.67210414837191 -183.41059217860644 0.29969059589166125
111.73167166694961 -183.3289199894239 0.2969589228194801
111.78589287943937 -183.19319223227615 0.2963008460464542
111.79815687946254 -183.12896734496337 0.29706122276564517
111.79154584738697 -183.0484937000281 0.2999313693651681
111.84452353123923 -182.9156582797863 0.2981163438883121
111.84690272934913 -182.86780846802117 0.2989136412827026
111.94514735477298 -182.42574147616992 0.2960509175603572
111.93917475147853 -182.25131060241418 0.2974635175196694
113.2897918778443 -177.39322940127707 0.34419327187520854
113.32887205051593 -176.97060865318971 0.3357599352894179
113.3434012162673 -176.87060069476567 0.33354320550142574
113.37296501617736 -176.7749526144004 0.3311188141805466
110.59361547941431 -187.04712520493436 0.37213046528423477
110.66243746352744 -186.84470795620413 0.38762877353871494
111.00519084998606 -185.52814587826902 0.3833039939208494
111.23376489551421 -184.73336569693822 0.3482737901861243
111.29184496079773 -184.64873445210634 0.3519232611589407
111.30783319120638 -184.5479769381611 0.35907786112836165
111.3368483744326 -184.4680189382522 0.36353187695478884
111.36611248394674 -184.36782170415142 0.36921307299408335
111.39763728211841 -184.02616960329547 0.29494150403706954
111.43425204971658 -183.9516028850917 0.2960522376192303
111.48257595242099 -183.8697177308604 0.296176614092432
111.49697651287934 -183.7878725473539 0.2993630960316359
111.56946801467798 -183.6677096462773 0.29844678172501515
111.5407908428349 -183.569892812572 0.30588688291435023
111.58803962934077 -183.52028039044365 0.30343480451815763
111.626672358987 -183.403279145082 0.30442925704206925
111.69118512079075 -183.15271631145782 0.30667341897003286
111.71520258403737 -183.02544190917914 0.30780711509030906
111.72966488984015 -182.86891183716017 0.30988502278461166
111.73047892587695 -182.799460520568 0.31104351600739827
111.76251251821922 -182.7392305845606 0.30905039024466113
111.90043724034912 -182.23525101461317 0.3008408877871186
111.94881812246163 -182.16204005306145 0.2966944027182076
111.96744733186911 -182.03762937139084 0.29482281517597175
110.47442223389685 -187.12490677824582 0.3646481660667046
110.57250567548368 -187.03639612435808 0.37255880334927843
110.57509809556618 -186.95353715082928 0.3785255717744932
110.83246376698625 -185.78023459718295 0.3630881194177011
110.89807455832691 -185.58877634817838 0.3796229665131941
110.92881989295527 -185.50409855034366 0.38671818917072626
110.98097742859368 -185.1543942713873 0.32302626825546116
111.01523978855901 -185.0845955598951 0.32831069665388746
111.03536878990055 -185.01740242572745 0.3337979033231752
111.12474052022498 -184.78328944068699 0.3502773847064391
111.15902634576135 -184.7477028844355 0.35140285026022006
111.69403450409644 -182.75311415038993 0.3151811651103631
111.69008710037852 -182.69968891155173 0.31628350113727843
113.1208455588325 -177.0532040277009 0.3424154525590183
110.40582746664559 -187.23505490234467 0.3556066194862275
110.45134782292234 -187.16529396496642 0.3613777556566571
110.46378997756916 -187.01216336278605 0.3725674911968119
110.47526300480189 -186.94306989503102 0.37770097446629647
110.6025041078746 -186.462405313718 0.29967452579093257
110.61082474861993 -186.32885783845785 0.31282267717984225
110.64581383276152 -186.2198557680237 0.3232509111831465
110.66462618849823 -186.15049303987584 0.32984203088390607
110.69069847738047 -185.9982229646811 0.34426359393982475
110.69217040115225 -185.96011058173798 0.3478788761238125
110.73986720390522 -185.85186883231452 0.3575831319446452
110.79757096321585 -185.8026732920956 0.3614701645919873
110.81275016660496 -185.65711220996786 0.3747022468775096
110.85691693637455 -185.31980594941592 0.31168236229710033
110.87093574152819 -185.26802036422433 0.31655496853963805
110.9193351349065 -185.1666282865451 0.3248048928679364
110.97568825984281 -185.09728222175238 0.32907594822364655
110.97389961966593 -184.97134108648737 0.34149655504040943
110.99934394835871 -184.86090081009067 0.3504129570191076
111.03409484017473 -184.81373854435276 0.35273573126798635
111.1220568447546 -184.3690673025685 0.29645915950508595
111.15460046400342 -184.35394588155998 0.2945824467423058
113.00452409801136 -177.1058933031871 0.3462059644682672
113.04406438750071 -176.96620281193276 0.34261573576027426
113.07843391009811 -176.75152467426983 0.3375345235103665
113.29189579083558 -176.1089263368557 0.3198930007550828
113.30808528840528 -176.02079435438972 0.31764317543146653
109.37837284588082 -190.6837903255129 0.3380614827421597
110.22092364940141 -187.56678890166535 0.32848272134164047
110.23910406852876 -187.51893617860094 0.33226743949690196
110.21323160468093 -187.37163915792047 0.34246771469910575
110.27621452486243 -187.1775272272097 0.35757285391349203
110.29152365857142 -187.10531538548784 0.36303669207550726
110.4544758982775 -186.48352096455332 0.2983114129668667
110.52515495106763 -186.41565657934825 0.3047619913044772
110.55795290734191 -186.35435358629906 0.3106603418798655
110.57585742706245 -186.26109435170312 0.3197524097773032
110.6137804282595 -186.01255921873312 0.3436522764558752
110.6525150687014 -185.9347792692727 0.35071433403238567
110.69421073248714 -185.51076434894492 0.2976720362789377
110.73233461875994 -185.45394872032045 0.3025031293802888
110.7942551326553 -185.32567475701728 0.31394031814898116
110.84760627178218 -185.21090815166366 0.32372178409833796
110.84627330166671 -185.13696308099478 0.3315104233372413
110.88785435234595 -184.8621687516362 0.35646629812491937
110.97874021958772 -184.5422879070598 0.2947565823063091
111.01348973422382 -184.52077165779042 0.2935233483061047
112.95885105373263 -177.0234198244171 0.3456582945974568
112.93652741846492 -176.87063476540524 0.3430775578080504
113.02390749494076 -176.78361747782665 0.3394635263185537
113.09888956891098 -176.54818041854654 0.3330534221734218
113.10934159555295 -176.17771024760316 0.325101701243667
110.03925106436643 -187.68322495090806 0.3167553316739472
110.06119368089996 -187.6404792117385 0.3202657476102999
110.09988231887255 -187.56391626948368 0.32652873777272723
110.17897486932178 -187.32544968182805 0.34521487676810836
110.19762650013647 -187.28486042198773 0.3484738293902012
110.23080154880839 -187.18476548561017 0.3562817854165452
110.17136248761918 -187.08462197653475 0.36248560672521085
110.30018475247758 -186.9041327184097 0.37765868504319494
110.39897136544924 -186.54044330858594 0.2927854227209561
110.41051413045633 -186.52731348542207 0.29407094738720263
110.64719006307045 -185.5121959486726 0.29945007010651614
110.67057523479205 -185.31635359270823 0.32054805862297325
110.83498201638386 -184.83157987326112 0.36223468576096796
111.06569644081996 -183.6437465822784 0.34935472779458426
112.84064512999015 -176.9199429398192 0.34616249386291836
113.12040147473675 -176.0963348340117 0.3230672827576279
113.09798667213582 -176.00999019895204 0.32170861685562685
113.06515892374658 -175.9409942972204 0.3207553221053379
109.86921372842205 -188.00324565793764 0.29387151072499723
109.91466174507585 -187.90676162695505 0.3003364480982397
109.93304966846624 -187.8169666739251 0.30504781354062754
109.96128858118725 -187.7052337686492 0.31370771107379336
109.976991584976 -187.64171534368347 0.3186238198411261
110.04491110185356 -187.3088715600064 0.34403391464518707
110.14636207516249 -187.11984306206955 0.3595153326674061
110.14982581159693 -187.08226296477588 0.3622891566376042
110.30385715129535 -186.5434827594296 0.2927316636378452
110.9925571256812 -183.74540807438296 0.351550384473493
112.84732622505472 -176.74474096659134 0.3424453249386752
113.06901866654351 -175.80615998634542 0.3177346214845026
113.05192830891357 -175.63776137843 0.31426656363751104
113.11490342162047 -175.5195725800898 0.3103912191088338
113.18725001656041 -175.16661818141208 0.3010454209129479
108.88712812463588 -191.2653351331786 0.30551150966659296
109.32476634756053 -189.9017367891641 0.36589689775944806
109.78995584400644 -188.051371196793 0.29098495148169823
109.80829906980279 -188.03128926173335 0.29266462688408496
109.99541219605597 -187.1138097025973 0.3572927190946166
110.86141292553508 -183.75679119871737 0.36391892244000196
112.94194348896386 -175.70844397475415 0.3177862765736033
108.83488679021212 -191.192421614112 0.307095133665921
109.25720127131669 -189.62713190043232 0.37461478671263815
109.30723477831737 -189.5218107765117 0.3797346836003688
108.76995423686961 -191.09427002092463 0.3093863797367131
108.85199451018974 -190.77834189268677 0.3229538341579439
112.67323668502459 -176.02391276269063 0.3295180693134043
108.60275819959944 -191.1666701011106 0.3031422777982421
108.65464866815199 -191.12928584086546 0.3056456791267612
108.73050017844024 -190.65578020072516 0.32480163260103834
109.07587051812494 -189.6572407196427 0.36954979743102123
109.03741238153138 -189.53734983761504 0.37312067701481555
109.07437672567742 -189.31683666189576 0.3821103165366952
109.15913132795485 -189.17692539686786 0.3892190178159902
108.58045574121358 -191.04235008956206 0.30720596360713726
108.63084774428845 -190.96113090509155 0.3113000786707329
108.87381927895736 -189.80422081857816 0.3596496560778011
108.89354474775637 -189.7436363613548 0.36225790665926305
108.93708997771603 -189.59810355369513 0.36865108845294603
108.9494352233731 -189.5636796772908 0.3702518692419785
109.08884454224412 -189.24377396311746 0.3852220242289051
108.50380166488516 -191.10259588608244 0.30341936809497044
108.98632775221176 -189.12375906539492 0.387350869615112
108.55924155159461 -190.36926506580406 0.3318308002913891
108.707544815372 -189.55259253448867 0.3654092201370697
108.68730468838443 -189.55851482959892 0.3646834775244343
109.35659321152363 -185.58559601966877 0.35773167381171533
112.03787108408521 -175.4083864484693 0.32209053251783426
109.15704330333689 -186.15573453997268 0.3311059257896698
111.74797257439434 -176.0611446188476 0.3420866949091411
108.70638788042311 -187.14778814975298 0.3363629331658591
111.5546171739673 -176.24996268059112 0.3487783258099711
109.04507077021613 -185.7266092228353 0.3051295380195111
111.21278006802234 -177.3587778556934 0.38165497975142737
111.19786865318936 -177.33147262085075 0.38099072749698626
111.35136257188564 -176.6370394422097 0.3608781102782076
111.48492112605307 -176.35618480433902 0.3522650441082696
110.86695037304493 -177.75486159974622 0.39502569332842846
108.66485869886532 -186.00923157056596 0.33871695965279874
110.81403356938634 -177.6655092404649 0.39284990502989714
110.81676653683921 -177.55227047268033 0.3896215228698833
110.84820666772468 -177.38777527010953 0.3848619620532028
110.74919493132845 -177.57813032234478 0.3906847621512568
107.59533517508913 -189.38635648483236 0.3484945024782889
107.4814732516876 -189.25975491773005 0.35095282364941693
109.65147294958399 -179.533532376924 0.29638274650235696
109.56124204456327 -179.7425513295335 0.3102437545276159
108.63854621958853 -181.6049750630238 0.349383426209306
108.6510547735496 -181.4883167686154 0.3377139117903224
108.68880666412151 -181.36825633502815 0.3262688184197585
108.3875798903764 -181.74323276932674 0.35416294739769216
108.42782109991381 -181.6348392944868 0.3449519049736886
108.4528417423088 -181.5322452292151 0.3355455893970158
108.83943023512248 -179.9810572624322 0.32072072452715045
108.93106694968176 -179.88965820560873 0.31612381706406717
108.39108992505675 -181.52235284562235 0.33189225310979237
108.40907823546146 -181.44385171405622 0.32469671209552897
108.755562701468 -179.97369351153753 0.31852497667636703
108.76089749983693 -179.8851219100288 0.31263877811452534
108.22882992983841 -181.4793408573333 0.31940584041496006
108.27951944106992 -181.23750069503174 0.2977329581033611
108.30291418830406 -181.16499400303644 0.38521899906014634
108.60769507171787 -180.19299609983688 0.3298812462615338
108.64265338227143 -180.0646224346136 0.32209728815187355
108.6808453433924 -179.95055172475372 0.31528766018004534
108.7488743032691 -179.74728635265393 0.30304796224250174
108.72222725344827 -179.66921172894553 0.29715248544245976
109.16487849502096 -177.93261909183587 0.39322023402611994
109.2200839508021 -177.76773560122402 0.388726767773502
108.15393006166774 -181.44687122846545 0.3118539150389644
108.22189191172193 -181.2679274795428 0.2978358267952253
108.28666324565539 -181.1795907568337 0.3855001328645358
108.40516270199906 -180.44804244332542 0.3409963028975694
108.41861654349458 -180.33078127946158 0.33354058509443285
108.53343376460731 -180.21558910994136 0.3293434189943147
108.47656841086231 -180.09272323032167 0.31930967395277365
108.5576110420926 -179.85520512881223 0.30562081006152736
108.62349970653531 -179.7396225395377 0.29951599663483847
109.13345562846582 -177.6586106328921 0.38376562617963356
108.14110930063661 -181.31316067588278 0.2978341940014958
108.4352409487981 -180.05745528499932 0.31564413398602353
108.48374700535535 -179.99440652554347 0.3128991413250096
108.48700440262039 -179.8163559624938 0.3009116029418163
108.98574495176508 -177.83993993034164 0.38703830087632307
109.04489985685709 -177.72494475920146 0.38435082129294385
109.0668507451251 -177.71028329900852 0.3843092641891839
107.94397737083577 -181.33646879190653 0.37799953425274985
108.28075227187257 -180.0776092191195 0.3116131019940724
108.78261783824517 -178.265277139814 0.39682731758456835
108.88028847885946 -177.89725973588537 0.3868271869985572
108.9330069816025 -177.88961598546197 0.38766576905247596
108.96867127195141 -177.508930065207 0.37583380885958184
108.1664641959566 -180.18500013862183 0.31426601890041295
108.21418204736572 -180.11413263820174 0.3114377414992117
107.89176161682335 -180.84699891647884 0.34406574934244455
108.03308819935229 -180.4794636152187 0.32770945474109997
108.05006641544165 -180.2478263581057 0.3133020756185114
108.07538248737028 -180.10048308794876 0.3047270968605027
108.08913388126429 -180.0254083624192 0.3003566913897613
108.68711453008399 -177.88483580759575 0.38217390153775094
107.87116892483266 -180.6460609998124 0.33013648333204704
107.87182659104444 -180.50991762864575 0.32142989791540383
107.86657043340705 -180.44136166099142 0.3167711132247992
108.00114555845971 -180.25807938758325 0.31169122705578833
107.85601594065001 -180.3494293255196 0.3102649612192923
107.50940453833817 -181.2442546263115 0.34265064608322293
107.65109121080582 -180.51092974682106 0.30869828644144587
107.75032388508858 -180.2861692766019 0.3004447088601245
107.78584418033914 -180.27255584664965 0.30152437543845123
107.49064505442963 -181.00556286335024 0.3276328876783968
107.57820287741181 -180.6712709251679 0.3138943459839588
107.59144174380161 -180.59289472454753 0.30997828614254963
106.52069165437527 -184.04336644540837 0.3160206365697552
107.46680337517249 -180.62719634091303 0.3037219928699497
107.96686718502983 -178.74675835142062 0.38883294387717937
107.56591200576769 -179.40475159954974 0.3928822911406652
107.58501523402381 -179.12674815221743 0.3853098307774967
107.23503007073833 -179.71828756572754 0.3854026226067711
107.38596543584946 -179.38596050662827 0.3837649512593324
106.94820256448273 -180.74386133388177 0.3934719394955007
106.92240831144898 -180.67342729728023 0.39018901701881387
107.31137411060305 -179.01520435882193 0.36921604903968475
106.22632491891596 -183.0414596573607 0.33035550316971996
106.8775201228795 -180.5553842548551 0.3846383838688521
106.90952110231748 -180.35507770230907 0.38233658296465955
106.98791325808811 -179.93588504916602 0.37712363531518595
107.11445290672197 -179.63302720272065 0.3764793679234827
107.10870534541641 -179.41556484021973 0.3702477563024721
106.10022914223647 -183.06583154839478 0.31580054337601005
106.10459024453456 -183.01820538419184 0.3177850843878479
107.10964931658314 -179.19683621222754 0.36419939666797063
106.7308291669264 -180.15149229328037 0.36599805399159757
106.94088341516306 -179.24812099691377 0.3564278288100418
107.09560350609313 -178.85591658567577 0.353850685224246
106.82359142415125 -179.27584833340214 0.3504281370945906
106.84538346685952 -179.19353080182827 0.34956589188602416
107.042153830184 -178.80828721658352 0.3497327371828684
107.15099172515932 -178.10134298258666 0.33454645733546456
106.74592651635332 -179.30900073518643 0.3467624038360889
106.79314937441139 -179.24664649361688 0.34787068183743614
106.98336684548596 -178.3148768457918 0.3325623168502435
107.11155836013891 -178.11222217803865 0.3329955526468834
106.62723046158558 -179.60225219387706 0.3466869082971769
106.66418057862718 -179.2929003298503 0.34144573917673937
106.505809193454 -179.470983018202 0.33581015783191104
106.8599069471733 -178.32352822998155 0.3264641076109499
106.2146219211241 -180.24806305741404 0.33134378753309296
106.22141197790123 -180.0146952820434 0.3277281221761923
106.50960639175374 -178.90673811040796 0.3223750952093146
106.72205039834567 -178.17451368014247 0.31499454771539737
106.76917399283033 -178.11802936469832 0.315965244076445
106.15527314394089 -180.04708735517127 0.3234815448839853
106.5318620788448 -178.6269689744627 0.31660642519939225
106.04983358609378 -180.15084162345246 0.3172728692783925
106.22545060400313 -178.9615155168647 0.3059943824124777
106.29611175119297 -178.5297611127197 0.3000098326641897
106.37492260879284 -178.33436354418657 0.29981370707531774
105.21395163640634 -182.0291587510955 0.38267888325918614
105.13169949311956 -181.93301834732537 0.3798030880197246
105.09443414612907 -181.88989153656243 0.37844722008307274
105.14243765218396 -181.6059405718718 0.3901145032985549
104.77511166950612 -182.27183863288528 0.3423805973374524
104.80836309753575 -181.70643600217386 0.3636381389383779
104.79671039991881 -181.60344990124557 0.3658905768797862
104.77010411996696 -181.58846298229543 0.3644296072252425
104.55002655200389 -181.7314581643404 0.34433306903621386
104.84663538626616 -180.5809615525102 0.39497441616618234
104.35686337702963 -182.24728655895672 0.3121482530930297
104.37954814176894 -181.74752612878856 0.33148862014690267
104.13188768805647 -181.7272234628544 0.3141724109346
102.36347307685607 -188.18810089446032 0.31841299537575124
102.3585566136609 -188.1424332492864 0.32034246198849053
102.7839127986278 -186.7007551158269 0.3891703996367581
104.0808446541573 -181.68485470185496 0.31182375869820395
102.27660830155858 -188.15024509366415 0.31910993440727786
102.28893410360533 -188.093714834388 0.32174656721971695
104.01731407524018 -181.63632748912184 0.3088724622939455
102.24868422324025 -187.97533028723925 0.32655131878207483
102.236002262328 -187.90609766225091 0.3294792299619037
103.9296099605439 -181.65616716282898 0.3017605447552768
101.97083196726173 -188.60196040683888 0.2960986043279313
102.15042026244149 -187.86430276695378 0.3304526492260433
102.06228743193573 -187.80739027723615 0.33210600925569583
102.07520276861904 -187.75344081173242 0.33462832554337985
101.89193029356613 -188.3093283735151 0.30808741776672766
101.989423827324 -187.8835801292623 0.3279288531117185
102.00763683990395 -187.74762997235604 0.3341896423507527
102.00396589262641 -187.50126267964546 0.34522733230903546
101.87508818328745 -187.7788006643051 0.33148010040686304
101.67775381835274 -187.84536447978627 0.32653706018008927
103.87145496240304 -179.20054386449783 0.3599709196161231
103.88314803922815 -179.11604830384627 0.36222456577307877
101.5387461055058 -187.8924667668199 0.32299511555547616
103.54907517426173 -180.0633324945556 0.32068528947999775
103.78887937735976 -179.26612378100577 0.3535349280275417
103.87431791237563 -179.00974270308774 0.3635953432313654
103.84550812380034 -178.91391170288543 0.3634552131853962
103.89125827539496 -178.80873154481841 0.36808277839296033
101.42192566380005 -187.92593905970554 0.3203674246386821
101.43181627514423 -187.8867161609276 0.32219178650919233
101.51852117758328 -187.54551611786897 0.3385245233618667
103.62450872772999 -179.4135977139263 0.34008984410732185
103.63199113736746 -179.3896316712289 0.3411234020154302
103.80080087602424 -178.81746097479729 0.36240329530396326
101.37737115040387 -187.88390156855274 0.32182010877874034
101.24373073551206 -187.85602042891907 0.3217532984612144
101.25991351317117 -187.71497153305842 0.3282798510186974
101.32707588613908 -187.5805827469673 0.33508277833390976
101.14708289907362 -187.70668020886038 0.3275668026766771
101.06413426615988 -187.87029627746264 0.3193487239160499
100.674746114883 -187.88140993784103 0.3150610002310465
100.69254710151466 -187.8372413069181 0.31728863868438695
100.63729737388084 -187.82988252604324 0.31705646096483386
100.57129908065586 -187.8277106250033 0.3165685772289505
93.6273877883336 -213.0911033889215 0.34840649002448865
103.39419368521894 -175.42579724540929 0.38459270942412327
93.60871448512043 -212.87668429060224 0.3501898089336073
103.38169171349345 -175.27532759909604 0.3854877571008309
103.35657135184961 -175.16844967485275 0.38515609024420366
103.47681191354219 -174.67070740508603 0.3961554103057956
93.51705448101215 -212.79282927076525 0.35057528706648244
102.8959150073231 -176.6808294335291 0.3416798835149031
103.26349563998114 -175.153523029906 0.3804257127983798
103.45479261479036 -174.55666584207367 0.39618646427209675
93.41058077078829 -212.74143084158098 0.3511028212580933
103.03750943529101 -175.6340421813026 0.3631303224756344
103.11950628344805 -175.51002215750395 0.36900618468523416
103.12091555784977 -175.38759119045721 0.37034084399438805
103.32138300471988 -174.838484898757 0.38660938800484135
103.31142109408998 -174.53533412089976 0.38899845428797525
103.00312044185742 -175.46342635084847 0.36323094445194015
103.0780989963092 -175.06306316824993 0.3716756757657756
103.35013831236121 -174.06074060562057 0.3953508696666489
93.2657930357323 -212.78237157469323 0.35056800742103217
102.52082221723114 -176.71145273396277 0.3193040151530718
103.05913659686325 -174.47595271495328 0.376692267235474
102.32578890524226 -176.73786518619232 0.3071735335000845
102.68592769255426 -175.44199743383413 0.34597339491034607
102.94466234912362 -174.36064777784958 0.3717745936830965
103.14284824448825 -173.35208577406027 0.39115071716839134
103.07336555650141 -173.39394311487044 0.3873581189269383
103.05950323334284 -173.28324071665168 0.38749771375138636
102.22484459083105 -175.72045038655116 0.3164031163364264
102.19446569850494 -173.992519516417 0.3360672157807366
102.55259921558464 -172.52300850203997 0.36884727881342233
102.28998641777983 -173.0391062328359 0.35094799632101725
101.75321458632243 -173.56151450954022 0.3169529648236397
101.96001840670783 -172.83226578911203 0.3358687219817382
89.16069900822373 -217.89871106939194 0.3110500056981306
89.02577153952775 -217.85802467179735 0.31135364379583846
87.07428739437506 -223.42455567578503 0.26662991423842936
86.6771749581289 -223.18246120280406 0.26858004034460303
86.56777810060188 -223.05690664103216 0.2699847916240513
86.51585258854416 -222.82990059665906 0.2716996402337364
