ply
format ascii 1.0
element vertex 837
property float x
property float y
property float z
end_header
84.6764667873559 -156.5203792569588 -1.1860626889748895
84.64332255045663 -156.49611851700593 -1.1831309586297285
84.69542812411382 -156.37372423575562 -1.1829164569259278
84.6869268293392 -156.29474610435147 -1.1801490772506495
84.81877600694935 -155.93743203871227 -1.1808080219420674
84.81142745124963 -155.90597122168663 -1.1797429831990658
84.83011876242597 -155.75599078885207 -1.178509850505373
84.86725432019615 -155.69595228961558 -1.180102410664844
84.92855679401401 -155.47046241624017 -1.1816850301389799
84.91844861437339 -155.41997705821802 -1.1805408765678378
84.94717567605863 -155.22288068469805 -1.1812862625515734
83.12306097114794 -161.95749264748025 -1.1929791856850642
84.3219036279763 -157.31412232917629 -1.195645160235909
84.5114918082373 -156.78858686768186 -1.1845812161044247
84.4602848335032 -156.7346909102867 -1.1791702264160113
84.56315450583388 -156.5249821755575 -1.1787039295245898
84.66590196232872 -156.07744669830726 -1.1733829230230035
84.7284889441878 -155.95478225520694 -1.1750827230831502
84.69629006882502 -155.86433308202615 -1.1712008152005648
84.77424513790538 -155.75685981191464 -1.1746982700194102
84.77596407179428 -155.65799747451524 -1.1734529232710873
84.75942596499326 -155.58957782518073 -1.1714772956201618
84.80157242304594 -155.31697871232558 -1.1719710470129603
84.8662102994384 -155.3117692023263 -1.176243919032176
84.99065286478988 -154.9259177003386 -1.1838427516766243
84.20865952590673 -157.36893280794436 -1.1914034413124772
84.43157374156817 -156.54495561211846 -1.1705958450629117
84.77439895682267 -155.26020958321115 -1.1698063349438916
84.03751825481292 -157.64220083745366 -1.1962022919114106
84.07183991270915 -157.35565124601825 -1.1821732937834057
84.370212657814 -156.20221584017946 -1.1564354114631974
83.95649301010423 -157.61140750979507 -1.1895110493756709
83.95070475833103 -157.5144380673116 -1.183523163081304
83.98375540323804 -157.42165729332766 -1.1803301191501245
84.03223426668326 -157.37162954751244 -1.180592588716618
84.08171263116314 -156.89221454605536 -1.1606940769056604
84.32712572244017 -156.1618057731522 -1.152519974161991
84.36952351253626 -156.09028442178214 -1.1536820601538547
84.64611562928442 -154.77734771317984 -1.1616684274885807
84.7427504955257 -154.42925146791075 -1.1711995558801387
84.83215194189367 -154.23857544896353 -1.1796022348502349
84.83282839390561 -154.16212570081865 -1.1809171594083738
84.85911877611923 -154.03366844587183 -1.1849418126549447
83.46289666370478 -159.0947505529136 -1.2000171210972335
83.46942805550725 -158.90856470852182 -1.1858563777813975
83.9507969006536 -157.21497172465948 -1.167351741805813
84.18896725252195 -156.13504648029817 -1.142510635167711
84.5476458233418 -154.81558333058777 -1.154935065722562
84.60959010919889 -154.72430945367427 -1.1595799780416698
84.75507728700018 -154.2170580222553 -1.1751032435948272
84.76065888840358 -154.118069326099 -1.1771730557477371
84.78192817298833 -153.90443440045502 -1.182887296564458
83.38288348578615 -159.1295887351726 -1.2001874144538065
83.32758027323814 -159.03837567705037 -1.1912122559703677
83.36154048502479 -158.853586217176 -1.1779347908729
84.33774061750785 -155.22793333579642 -1.1404131165484306
84.63447935683025 -154.1874892528473 -1.1679738891297424
83.294916986391 -158.89694756465494 -1.1790412165509818
83.32809738792957 -158.8519941410085 -1.1767396655274929
84.55422004631568 -154.02304831698734 -1.1662680289783265
84.5919445941073 -153.90378978989418 -1.1712293323516703
83.25253747821813 -158.687071285512 -1.1615644669125653
83.41600464201575 -158.22535878496083 -1.2009400381856663
83.49103220138313 -157.59681451039626 -1.161044310351557
83.7095841666216 -156.74314506267152 -1.1302790608076114
84.4388168210653 -153.9986486255938 -1.1596718196847609
84.52485644673902 -153.94802455935314 -1.1661426453067734
84.52981183516064 -153.88342645931073 -1.1679368347797054
84.54527856316811 -153.76863596732522 -1.1718224141595832
84.64303851684703 -153.42880676402564 -1.1874328073501577
84.68065684778408 -153.1912404821315 -1.1975099563567742
83.33006285850776 -158.09253389392336 -1.1863411021862598
84.10702974974686 -155.07577636709019 -1.124911306365989
84.43643205120588 -153.8949466860459 -1.1620336651368088
84.4239495791636 -153.84603651038427 -1.1624932463053135
84.42821380046453 -153.59719127037496 -1.1697429942635937
84.45871524981469 -153.47518514125755 -1.1752859596276024
84.5878464637193 -153.16345232981337 -1.193353580365258
83.2520001355784 -157.85404292822528 -1.1647186342875806
84.26636074629918 -153.93512842885337 -1.150698310744319
84.40063699876401 -153.38141528057747 -1.1751222236570902
83.19094661895872 -157.86019726179265 -1.1617870497279306
83.65240127147582 -156.08354647897667 -1.1051263239654223
84.32195934599409 -153.50131231869685 -1.1665951492663749
84.06935579830746 -153.82716772779557 -1.1418699953703326
84.28046786337546 -153.28879385637183 -1.1716304670795763
84.3412303408812 -152.90853176518203 -1.1900010959653133
82.77260589661796 -158.48725040514518 -1.1919593519480585
82.81341207519823 -158.3070862204273 -1.1477308047857684
83.95948825653686 -153.96856703759505 -1.131374278400231
84.0407111732417 -153.77770136105525 -1.1415930293848076
84.24597204147753 -153.0085958672032 -1.180800116408596
84.26746657005465 -152.8068645142041 -1.1906296961215501
82.69274327990429 -158.3428315914398 -1.175588358561831
83.85063695191832 -154.14185092645857 -1.1204473388033822
83.8734503016412 -153.885526958293 -1.12858493378489
83.93307641882954 -153.84139882087524 -1.133423280855185
83.83071148195421 -153.66894136711173 -1.13292072267933
83.88866290843113 -153.1581159479983 -1.155643187966819
83.88502091878064 -153.00671880098255 -1.162038911961546
82.9045477244042 -156.43576051276838 -1.2005029329157009
82.92869663922845 -156.3305439408633 -1.1987278331061526
83.68610316707233 -153.5073093101646 -1.1306627554594737
83.03118603888224 -155.69203333080657 -1.1934067441402714
83.0285939371368 -155.67203573233934 -1.1928963818148517
83.6430341759611 -152.9957372819959 -1.1503833522252205
83.7515892666996 -152.83131404132286 -1.1636537202561708
83.7938931613836 -152.74236484582883 -1.1700718122375742
83.02381019702375 -155.3275361257642 -1.1910304841308865
83.52346200074128 -153.1755032936553 -1.1359958183505567
83.65795132799941 -152.78515983185147 -1.161442695613895
83.64761370906034 -152.68767110088086 -1.1659885312048086
82.6139944515891 -156.48864276910635 -1.1736910476424227
82.68378177682524 -156.27155585039435 -1.1716735111624281
82.90443725466535 -155.28859929994385 -1.1790563561944996
82.9164417195317 -155.02680214401667 -1.1828671989082618
83.33249773637102 -153.7307107990893 -1.1027830167602926
83.49380037339142 -153.13017867243968 -1.136605536606726
83.49295670590482 -153.07443363505857 -1.1391822090799464
83.53837176458458 -152.9534245382685 -1.147262023721654
83.56459794266893 -152.7445491525433 -1.1591377851173856
83.59571668334206 -152.64247005399363 -1.1659410722317745
83.58078912693003 -152.57536532243245 -1.1689215720010329
83.6362094307641 -152.4444573899316 -1.178587879393572
83.64901034636036 -152.27567953902295 -1.1886882879820502
83.69664982176909 -152.19571912870958 -1.1953153347332675
82.47266847263558 -156.31532544951736 -1.1519628087184481
82.71919693431387 -155.37749915172893 -1.1598876712071078
83.25020305935388 -153.4355835778099 -1.110346347104417
83.57523303616617 -152.41532188013355 -1.1775317924785984
83.58862082951183 -152.38021951929738 -1.180121919048108
82.44954538749823 -156.25278132220043 -1.1471704592349872
82.68026594625984 -155.11979040035797 -1.1579752196072988
82.78964190092336 -154.8499266200352 -1.1737586396656363
83.43681587914459 -152.3004246181166 -1.1783222267786728
82.617527902799 -155.26484786606704 -1.150131803887259
83.40429765806687 -152.27633364658595 -1.1784386863749476
82.18134956784145 -156.2600162510565 -1.1202736872564765
82.27031390196264 -155.92820294780898 -1.1191321360681488
82.53199303447717 -155.21640536206436 -1.1419479104361034
82.73884127678548 -154.31697042568683 -1.1867032058059397
82.79715397532635 -154.24289018572065 -1.1952624075867169
82.75419895048 -154.15485322131278 -1.19547760441294
83.1383442452615 -152.5882307118836 -1.1489565740244987
83.26007254785915 -152.28422482411546 -1.172163248813892
83.26943987973553 -152.18801385640032 -1.178500709857094
82.14749521652573 -156.24394987947812 -1.1162461538927244
82.19296393305036 -156.11951171309875 -1.1164391751768314
82.18508965789893 -156.02721082966534 -1.1128522406852654
82.24490706488064 -155.916351874587 -1.1162307489594139
82.26604015999371 -155.87393381812407 -1.1175224730016524
82.6584059694881 -154.25772743091474 -1.1820486239019208
82.67256398635445 -154.2061864619408 -1.1857686790378712
83.19977122226786 -152.14658371775332 -1.1784688163152617
83.16385211146894 -152.08788502157915 -1.1809071403188651
82.095099330803 -156.0990291623674 -1.105764754815748
82.16432632501571 -155.8821826742073 -1.1072585578283318
82.15750338348217 -155.6154350434774 -1.1029561205629592
82.52011707863583 -154.21734646059102 -1.1717000527262407
82.5799587048699 -154.21878271968228 -1.1769239283492157
82.56214244542781 -153.9716999745913 -1.1884474532887725
83.07965485908653 -152.3286046199412 -1.1623726550559057
83.1181965089556 -152.0324791716978 -1.1829017762035376
82.07607949605082 -155.62823967845674 -1.1995454375305266
82.20513101109671 -155.06356024723902 -1.1117136461741572
82.294667794017 -154.67367804557844 -1.1314038673442728
82.42689564127288 -154.34422477522017 -1.1572775543682237
83.03784985280939 -151.9951139806302 -1.182582455267589
83.01711228160033 -151.91512196803356 -1.1873174440381726
82.01144020530496 -155.42785795793262 -1.1910193085294611
82.16056207486287 -155.05709815037864 -1.107471652878545
82.16245224167614 -155.02366561537366 -1.108364958768664
82.25981766036614 -154.40429674115325 -1.1394718175914709
82.32681636926519 -154.22373240510657 -1.1544428974133958
82.28601511188081 -154.1736129136116 -1.1536022396487438
82.6328105770025 -152.8681346738097 -1.1115317299242395
82.85989318592074 -151.88877963639706 -1.1840982268494704
81.97028051129041 -154.93648716481306 -1.19742090387196
81.988377757266 -154.6782413717141 -1.1027676359439949
82.20339175886018 -154.03405566192546 -1.154825962982953
82.18683935171903 -153.86759878497446 -1.1641817046509637
82.45568521454132 -152.91536990844952 -1.1016112741951531
82.64930415663831 -152.43143762740814 -1.139942347751508
82.6151384360827 -152.34470127978207 -1.1446257066024628
81.87078653171696 -154.71773666232684 -1.195014385187413
82.08839323134661 -154.11353953705532 -1.1404657746868843
82.18223623381945 -153.61460868855198 -1.1817235722026584
82.24282239645555 -153.56268979434765 -1.1900697564943015
82.48040750611615 -152.35982966940526 -1.1391561208702108
82.58424710746661 -152.12492714289397 -1.158915907286434
82.58182792558259 -151.97067001638837 -1.1699251606366798
81.67165928172011 -155.18952352428624 -1.14947449324039
81.7491080373319 -154.89664309417054 -1.1706171749302596
81.7637908760634 -154.786440826936 -1.1779226008936452
81.76328040501437 -154.67948020324647 -1.1838127475299618
82.41820789635555 -152.37452239501167 -1.1361567445134149
82.52496691861585 -152.0861504777447 -1.1599178201661253
82.56049528279496 -151.96756687893728 -1.1695287356437158
81.72551724121983 -154.7700957873033 -1.1739851982741745
81.71224049778695 -154.54788987391407 -1.1859179459178593
81.82901294695331 -154.3100915008184 -1.1071320600467143
81.9514268857619 -153.56879597332914 -1.1686387342626472
82.03614654243492 -153.37843277853287 -1.189947064690301
81.65624464364997 -154.4848465535008 -1.1836979311959857
82.89616863707835 -149.52076422001187 -1.1165154393800898
81.29255193029054 -155.3511252592355 -1.1739393524276076
81.50025874463154 -154.8054710588418 -1.1440541411212328
81.67125427274567 -153.92985624702857 -1.1205195062400737
82.208512889688 -151.91541061813416 -1.1644064549030804
82.31504299828705 -151.69472274959156 -1.183985707782682
81.21274758276033 -155.34083444764357 -1.160771600583813
81.51666846513567 -154.2307347590325 -1.1884856333584808
81.57896194398258 -153.93497474729028 -1.1134620318469843
81.48186277678597 -153.9776487804976 -1.1031996988589647
81.55553985405238 -153.80961304855236 -1.121799996535284
81.89385256796649 -152.30992348014047 -1.1265886594318384
82.01629093002805 -152.02338570181587 -1.15169591091513
81.98466304006888 -151.96691078946833 -1.1555189490119846
82.77185765295484 -148.9315618324647 -1.1515626897295184
81.86358866221673 -152.195327731682 -1.1348996277810641
81.88314375347228 -151.97888184286975 -1.1525812261817594
81.94669308476969 -151.83301691082312 -1.165566910267096
82.69657680839445 -149.01605983338047 -1.1474889149343868
81.7095640727596 -152.13664698671286 -1.1366274894507138
81.83990515625862 -151.86524145699224 -1.161082034160283
82.52379324249021 -149.05499235891884 -1.1473562183021637
81.3730055614399 -153.13393730482986 -1.1737932570149485
81.55295377293226 -152.33124460505164 -1.1179923359143644
81.5953611144918 -152.19073612624888 -1.1302519209961988
82.27279204228611 -149.71427901325174 -1.1115909097014514
82.39616861415945 -149.1364894984147 -1.144229821779669
82.41391635495813 -148.9806670743708 -1.1532974071668494
80.79380581089791 -154.86313197466285 -1.1939115288249238
81.24957440400432 -153.3410079717057 -1.1466999386478962
81.28155233932699 -153.14972433429188 -1.1678297566810123
81.33634083261225 -153.05336250245045 -1.1803914263966235
81.4614336486421 -152.33435549406485 -1.1162303312346458
81.62971157562188 -151.72786500483488 -1.169673414105903
82.23483052179063 -149.29131071861755 -1.1372722506522563
82.31564934667557 -149.24161953287754 -1.1390839423934749
81.1450617366982 -153.17838720752246 -1.1586971229070995
81.22820039200705 -153.05173973559977 -1.175764968603244
81.39179348979947 -152.31926491655247 -1.1164664212535695
81.5385149213921 -151.64995702391485 -1.1754726177513204
82.1332482443092 -149.38682629794855 -1.1330435031523791
82.12450589035397 -149.28578631537576 -1.1392864393945095
81.32293777039455 -152.0481430062218 -1.1388400741489224
82.07157759571058 -149.34282654676522 -1.1366649890547877
82.04838080061357 -149.27090617983006 -1.1414184500702451
80.62947841672352 -154.29180481454443 -1.1727052515068765
81.1354890122548 -152.39359418707042 -1.107053144704643
81.25997551259509 -151.9836707713074 -1.1439685002323436
81.91873838654625 -149.61781609834364 -1.1224326554607391
81.94894113074216 -149.3731563322968 -1.1368487520099402
80.83993519525407 -153.13519416535408 -1.1518329249427357
80.85415478865986 -152.98671511015468 -1.169324207532222
81.20618138565293 -152.00692641991083 -1.1415403650715124
81.66631012597595 -149.89931007011864 -1.1095075238507683
81.73216863810616 -149.80593012433516 -1.114086340143001
81.74070804070733 -149.6681650984741 -1.122396628251288
80.78875657860983 -153.05968398379957 -1.1589315005944825
80.82908212523095 -152.84444383204783 -1.1852371670298143
81.64964919042397 -149.79553162040574 -1.1161974732170077
81.656172178471 -149.69323156675986 -1.122395197304218
81.77493708962297 -149.3445810318465 -1.141748169989777
81.82889561738678 -148.9420461226327 -1.1657339302301637
79.27804201870464 -158.60893995275546 -1.1147545801928476
80.73673017259854 -152.8880250420304 -1.177749797289178
80.73280338786843 -152.77058535705626 -1.1917453364585788
81.56337913794269 -149.70601401453834 -1.1233818312149026
81.66308423644098 -149.22464436633936 -1.1514356135759143
81.71923939980923 -148.8986818568236 -1.170720840337167
79.22467654849926 -158.1623749506985 -1.1509585363267205
79.25612782546223 -158.09709759385382 -1.1401397395796145
79.28601487945663 -157.9707751937829 -1.1203003385280454
80.17872684685723 -154.6435891121763 -1.1304298227569083
80.19441260892557 -154.58852567763807 -1.1422433049760314
80.60507410385195 -153.00861272551853 -1.1602974307185139
80.64437965054347 -152.7041463788945 -1.1981252484475906
80.8473218642178 -151.950313648035 -1.1458914990215538
81.49991336448912 -149.579216757936 -1.1325931391858703
81.65136058202485 -148.970305100363 -1.1676684264149644
81.70826016700785 -148.58925358267177 -1.190497015189373
79.1313326949822 -158.05109456887757 -1.1375348758918056
79.20307147639447 -157.9481927978511 -1.1195214733232686
80.19216458544557 -153.9914951522734 -1.1832330346278728
80.54798364626976 -152.9233884282945 -1.1695365232523112
80.53431520824368 -152.8307019502093 -1.1807344226207777
80.77425100786019 -151.74123891870565 -1.1657943880894799
80.81303667398647 -151.60426026763565 -1.1785220166483614
81.62164470577984 -148.71212066813513 -1.1846729058662777
81.59295800056738 -148.67347977948035 -1.1877918203626552
81.61956497736615 -148.5157766771638 -1.197214550752612
78.99969151833879 -158.40964196880302 -1.1969720707007285
78.98414763104027 -158.32591547815124 -1.1850879967213144
79.03220230933928 -158.2108603994525 -1.1656184842067614
79.04515305443282 -158.0996694611404 -1.148346930128576
79.09535735395579 -158.0142540352278 -1.1334155623748208
79.1098404515623 -157.89439129115846 -1.191518795269862
79.09840225668769 -157.8492292431441 -1.1835482348638031
80.24457918597572 -153.66896884705935 -1.1584362813672526
80.33312948587279 -153.1224897950341 -1.1416063670827576
80.43216559723034 -152.77380409775733 -1.1865031905111258
80.71425005396412 -151.76649515845241 -1.1637901940368116
80.72036102722998 -151.6661764275048 -1.1732965865151925
81.32386436569807 -149.22110544324337 -1.159254777686915
81.49861050663013 -148.78469574824598 -1.182933259069242
81.49498408502218 -148.62761140403273 -1.19306492866325
78.93298901967589 -158.14210710384748 -1.1598809238866716
78.98113116141528 -158.11274563719013 -1.1531772022507691
81.19429918555633 -149.38236666434773 -1.1521083311072546
81.24797957349712 -149.29485377138377 -1.1563902185072243
81.22687435451164 -149.2061516527404 -1.1626143967659897
78.86092301176924 -158.0493862807459 -1.1496738191437514
78.9117005472375 -157.75952630171156 -1.103513989548948
78.95793568200358 -157.652664953416 -1.153361905050737
81.04365044714544 -149.47324046696394 -1.1501293154003747
81.14902583359478 -149.25178119429725 -1.1616723280869088
81.20425323042578 -149.19684299259893 -1.1637867239370336
78.41649772803268 -159.4459235891662 -1.1187309343607643
78.82001501736319 -157.93246087218242 -1.1343936864070086
78.79436219387055 -157.80286055532363 -1.1165009845467107
78.8058751995076 -157.78605511668042 -1.1133206776266389
78.87257260184072 -157.6695869233251 -1.1612574548261627
81.0099204836118 -149.42141446121587 -1.1543848890277217
81.01344248957022 -149.32672237501984 -1.1604367570286256
78.62404293061789 -158.20422509313363 -1.18679958318923
78.61074295781816 -158.05444315814657 -1.165482787048801
78.63713997630856 -158.0270970437139 -1.1596855859935349
78.70570459169049 -157.91903014129997 -1.1392218101092102
78.70249919055655 -157.7966344921237 -1.176805443851943
78.77432465297461 -157.69525492841393 -1.101664497866801
80.9422852127211 -149.28489732402687 -1.1651316505580451
80.93636835772932 -149.24653239121068 -1.1677932387663972
78.48521490513171 -158.26439906283602 -1.1360988538627668
78.53548338515988 -158.08590103341155 -1.1753249119347697
78.65784284532617 -157.75564872327735 -1.1916529118462158
78.62898116057661 -157.72178739584055 -1.1877091518759058
80.85231551038311 -149.1908025495157 -1.173878700563468
78.33785850901856 -158.45275289563114 -1.1439360734599149
78.45160944795734 -158.01285645423206 -1.1707620742270777
78.46697485545205 -158.00283473472535 -1.1681406723135475
80.81800302478919 -149.13032915431913 -1.1788643291724965
80.75735935715447 -149.06588240510942 -1.1849652720661774
78.22269131596616 -158.57803395561183 -1.1655925096738724
78.2294803717963 -158.43654075099982 -1.1494614940073613
78.44687098454777 -157.69819515575233 -1.1990904491656451
78.43493598191507 -157.6879290071776 -1.1983756013537397
79.33182788271984 -154.24556435471007 -1.1672163080605398
79.35538301647844 -154.15968110592908 -1.1878782616035142
80.7219463652991 -149.00710179956087 -1.1899481391222566
80.6924918011978 -148.97467780435727 -1.1930341172997836
79.3018346134295 -154.14848857472882 -1.1309522892294106
80.5764140044767 -149.2144850263323 -1.180896434847484
80.59056775371245 -149.0376712309385 -1.192156760462722
77.17027156265041 -161.63861766156163 -1.1413328708800414
79.51996777129244 -152.75132778317203 -1.1977705779137768
77.190466166719 -161.50859820776415 -1.134720835983932
77.18325117229425 -161.46411201937516 -1.1331346821722903
80.13036349052624 -149.83912470319456 -1.1546650360774098
77.09416038125474 -161.2170054745318 -1.126748269943633
78.25116008466765 -156.687952739553 -1.100278618073036
78.28776495037252 -156.5546966969543 -1.1564073008400946
80.10454032864466 -149.86309779664285 -1.1539584652923773
78.14429886018634 -156.70937637759752 -1.1399623055557155
78.156950241909 -156.6612250254232 -1.161275235024952
78.23491182969038 -156.52900360762266 -1.1297922927083655
78.22904510996437 -156.4820755589053 -1.1364752544302261
78.12288591568175 -156.718159350594 -1.1541829868945572
78.09531570241138 -156.6008253733813 -1.1637481564548484
78.13769704570612 -156.51275573568947 -1.1682400748025505
78.14415093775338 -156.4459779338665 -1.1633241077928371
78.04755709733264 -156.48339861321278 -1.1604792284086527
78.05841255466521 -156.45605994416414 -1.148310528988724
78.06165373254328 -156.28251630426595 -1.1228147179334989
78.08580772379021 -156.20016620972402 -1.1170762426469822
78.10527724403715 -156.14038565923792 -1.1268450017227136
76.486928309537 -161.91923524934543 -1.1868357606757614
76.57285434038528 -161.80591787158986 -1.1777123143987986
76.62492179417086 -161.47878374490736 -1.1611378098269847
76.62378603863588 -161.42821294517915 -1.1590331720395248
77.86231258026216 -156.77096901274902 -1.186447059792946
77.9362077682984 -156.5573035045375 -1.1408477938373194
77.94285636169491 -156.39733524447774 -1.145032912145931
77.99302207579797 -156.30159109432532 -1.1393409609889784
78.02159615820099 -156.1751599082162 -1.146859178133561
78.01041804917976 -156.08756968240755 -1.127263101081633
76.42412546598763 -162.0053031628335 -1.1936400205363267
76.57040236215167 -161.46688775232738 -1.1633572857892247
76.55294692193958 -161.37263096682344 -1.16022277795879
77.72964260051556 -156.8235377806891 -1.1571095444639043
77.75122547948972 -156.7263890382377 -1.153606696101745
77.77450270837372 -156.62655477238397 -1.1259308877838872
77.80222402760903 -156.55277108665095 -1.140884713189551
77.857014247885 -156.46896745318858 -1.1855989113521752
77.87975903277817 -156.354818420297 -1.145180125844544
77.88062693879058 -156.28669765876913 -1.1699709659727833
77.91747455640943 -156.14876998061862 -1.1678605026607312
77.92041587981906 -156.07427212950176 -1.1620316959035966
76.37601492730403 -161.54600983600514 -1.1765100179692842
76.48790003994557 -161.4109461365888 -1.1651249651136382
77.62525428933043 -156.87721416487972 -1.114905411595052
77.64379021621964 -156.8263424635776 -1.1229261727824595
77.70795848200339 -156.57567695809365 -1.191403511378848
77.76878319981078 -156.42314288660128 -1.1396636462340435
77.77794811746519 -156.3637485375514 -1.1516533181304545
77.8090842857818 -156.2559876631255 -1.1338617993207787
77.80896233492535 -156.15979538413163 -1.1625972294934543
77.81718372111067 -156.05081232091953 -1.1598377990121105
77.86626841410315 -155.9881366411747 -1.1000787048798126
76.24471304338502 -161.88134607822974 -1.1973786375832645
76.28914362807348 -161.6070481712417 -1.183505564449888
77.6146035550401 -156.32062627660272 -1.126371383503183
77.70283093076299 -156.187953183957 -1.1391810856201003
77.74141741173287 -156.13365837721517 -1.1393211875891351
77.74247952825088 -156.01332442446832 -1.1675301143509935
76.1573514011295 -161.6306444980671 -1.1912235789401473
77.44088304459717 -156.81388626222457 -1.1357401541827294
77.5203954329776 -156.33057153104934 -1.1455720533454035
77.60160432003184 -156.1872005336293 -1.134545509850257
77.669980344138 -156.0862438166677 -1.0991842461206882
77.64014278085929 -155.83748043292832 -1.1479894596026525
76.06394395405869 -161.7131606507516 -1.1994833720741584
76.06157414504462 -161.56362424062192 -1.193315286267538
77.43930775119595 -156.40252881164702 -1.102879058353871
77.4711747172277 -156.36434213955297 -1.157843180558351
77.53138230130376 -156.00279040936314 -1.1229537720235345
77.59393322932122 -155.8507085247743 -1.1343840368916391
77.61521177151033 -155.8119979098074 -1.1532825245618463
76.05424790324882 -161.52820462249704 -1.192216830084001
76.03490055884804 -161.4688535953565 -1.1907261821640638
76.08891062844177 -161.25100409368173 -1.178824499543633
76.06779484148912 -161.13075856466867 -1.17491738575187
77.43338829942493 -156.00213848916675 -1.1428868235834915
77.4435198849796 -155.9083135951168 -1.1675299553184948
77.46811058130855 -155.81401572660883 -1.129089947750772
75.94677415544471 -161.39247483805107 -1.1921102123585396
75.95644609035787 -161.1935536586268 -1.1833383132589466
75.97481453286505 -161.11882246041617 -1.179288010041561
77.35934037569146 -155.90960945594873 -1.154327568134554
77.38781969240287 -155.79415149756085 -1.1450772299013232
77.41207580692097 -155.7673773953139 -1.1394750135604206
77.22208388231425 -155.94803340678573 -1.1156685876886765
77.22640324739697 -155.88727908462454 -1.18086002385629
77.15120991429669 -155.94017267859087 -1.1663307415156527
77.17204639827156 -155.8822255723802 -1.1918331569719758
79.91001168356449 -145.38798983368412 -1.0984702572080507
77.09236170561482 -155.91730813164557 -1.1365684468638824
77.09979989496259 -155.8957180811648 -1.1346492983539724
76.89789255384167 -156.08923397176963 -1.1755082872200373
76.82848226192856 -156.09096523053154 -1.1872500656293283
79.45790873722879 -145.65939269316334 -1.1103884315683399
79.42148220200446 -145.6702048877057 -1.1116665490417597
79.35493148777854 -145.4885638336951 -1.120899161380922
79.28221002876647 -145.44106046100364 -1.1258467338433495
79.24603714192479 -145.380616880954 -1.1296654703312399
79.21190709960544 -145.02038873883055 -1.1431025661592946
79.0086415358801 -145.5343267834545 -1.136071075703872
79.1753066247138 -144.86425397209595 -1.150114552928061
75.19307987109337 -159.7333471160528 -1.1652801346222046
75.30223139842934 -159.3862860211506 -1.1457206638609727
78.25906901937817 -147.85654339879795 -1.0979241861731575
78.2798918291649 -147.7879645011754 -1.0989793153665968
79.06022237458434 -145.0221426163215 -1.1504007730058545
79.09834955040871 -144.85013478511388 -1.1543139848610686
75.17337601700547 -159.72510984413145 -1.1660416128038869
76.10812805642631 -155.78831632999547 -1.1927733340093547
78.20329560855572 -147.8654529174403 -1.100566294994024
75.99830836023908 -155.84606363805588 -1.0990015096684327
76.08725545841263 -155.7724696414019 -1.195198588796361
78.00553918866432 -148.06768874615702 -1.1047657367065822
75.94922846890603 -155.7126800298979 -1.1008731932076403
77.82918712756408 -148.34240447882115 -1.1056561239803973
77.88883424018873 -148.2984724481742 -1.1036986711466727
77.9465446318136 -148.22798907668954 -1.1027275765920033
77.97317922726612 -148.13099072182672 -1.1044476765330606
77.77383021551206 -148.34135727875903 -1.1087602698625108
77.6737838895805 -148.30986290793547 -1.1154755135551402
77.71344339806367 -148.3023401008749 -1.113497327091416
77.59273800551018 -148.24643996578453 -1.1221454922613312
75.54901906948005 -155.71788363513414 -1.140274927992134
77.52813508065691 -148.1985267756148 -1.127465490418017
75.41189392888212 -155.91233251470797 -1.1580674805705424
75.5388466863595 -155.50311357944346 -1.1373694426004533
75.55246441296431 -155.43849992835075 -1.1350473638014849
75.2637782069393 -155.89068783392148 -1.172078474686014
75.38591249026902 -155.34583092489422 -1.1500054730097191
77.84405922152726 -146.2319208417932 -1.1733405016098715
75.20855354837482 -155.90604437551792 -1.1778866889396393
75.38042571026371 -155.35861100462137 -1.1506755671123867
75.35180713226646 -155.3286026500544 -1.1530519153952388
75.37931848138244 -155.1882785266309 -1.1486176807367818
75.38684801462227 -155.11823237801136 -1.1471163260297543
77.76423403316194 -146.1419930349287 -1.1806325989845026
75.21752077119126 -155.53322178438913 -1.1693449292338398
75.17210906288668 -155.49611699943333 -1.1731963422459748
75.21724193123698 -155.26625537539624 -1.165393495324956
75.30879806050646 -155.20069421481324 -1.155654510106311
75.11972465611761 -155.34369359369245 -1.1759948446884159
75.17131912898721 -155.2790503808633 -1.1700070507364788
75.24933311976635 -154.9736405225379 -1.1590545958827116
77.1826580589635 -147.30460587745569 -1.1760830971775917
75.06055198967636 -155.3949595304993 -1.18254055114067
77.13356683439017 -147.35700468894777 -1.1772944627097046
74.88566821054869 -154.99138480508307 -1.194502493839135
75.57772811325891 -151.37021400623755 -1.1671487510181693
73.54160785277342 -153.03471728851414 -1.1009635820243109
73.59539203019031 -153.02511874218663 -1.0975501207888598
72.13509551097215 -153.2299782570687 -1.189350040924568
72.17042132363244 -146.621252839708 -1.1375088547440315
72.45714339074752 -140.11871285180388 -1.0993616161129702
72.49227569876602 -138.71249086396347 -1.093835820869364
72.18430700683601 -139.63296589727878 -1.1126182610695854
72.44226549145264 -138.76413926023065 -1.096369472088869
72.31530254821836 -138.61216301213165 -1.102855007639134
72.00516175267148 -139.45116177361413 -1.1214529193994232
72.23963776780306 -138.5991757406688 -1.1065554701047962
71.90493482127884 -139.60673816282392 -1.1273249989131326
71.92505010562846 -139.49932531403218 -1.1257083301343291
71.81977641585304 -139.57252389665265 -1.131510226268489
71.68436293139956 -139.58353238094202 -1.1387403972837669
71.54571042850608 -139.72965771388115 -1.1467955267432584
71.41393744787821 -139.5995442677564 -1.1531812130173085
71.26778842336162 -139.94397648446696 -1.1621782083486007
71.3062536766873 -139.80915479999237 -1.1598162758935813
71.08831534379773 -140.0722922791523 -1.1720731061957448
71.19470676268239 -140.0071943267792 -1.1661658501156325
71.0381761609586 -140.1093094521822 -1.175124621590745
71.08830474807439 -139.93325741536626 -1.1718717423818057
70.92797983687798 -140.10003448841792 -1.1808925312617637
70.90977689655101 -138.84790236120324 -1.1777499807974348
61.85090251513276 -151.84777312388587 -1.1897146881544571
61.888047965732554 -151.79296309559217 -1.1871553131905979
61.9094582676979 -151.70165683209478 -1.1845312638327572
61.80187499582303 -151.90136988573215 -1.192111766697788
61.86911005594189 -151.59541200300583 -1.1833073843273019
60.46708668986183 -149.1834146665116 -1.1649034945328847
60.373831004600746 -149.2986704323808 -1.170424099586276
60.4329094468344 -149.2445578580889 -1.1676723334473635
60.43422770694151 -149.09689167474014 -1.1639854177198778
57.47097743663038 -146.35806384120522 -1.180208265438943
57.426460326092624 -146.43077705440726 -1.183715009893362
51.61757795276809 -139.262224993389 -1.1648456929166413
51.56045250045801 -139.0935431322396 -1.161442572599887
51.10178528066659 -139.2135955517066 -1.1789364075611395
88.56430638474136 -168.43411263399844 -1.0443318504013772
88.67366352786044 -167.86288233775423 -1.01845352635952
88.72593056146671 -167.6647657259453 -1.0090397226490402
88.36828760074057 -168.6400922187882 -1.057990369194124
88.67782136791801 -167.68812311458768 -1.0113731427192088
88.48415812213094 -168.10251793267872 -1.0331497176187827
88.34632759120966 -168.0551913911707 -1.0349827268381246
88.4722162357152 -167.51978890682312 -1.01011518927763
88.1207083995076 -168.57585164125015 -1.0624270750054636
87.84607869961877 -169.3660135333348 -1.1026194138729628
88.05818091619469 -168.5831607656642 -1.0643819826618823
87.80852092362251 -168.41568426404913 -1.0646156262413873
87.99572404497238 -167.8500389542091 -1.0365071646453723
88.10013163336795 -167.30394417593948 -1.0117037433474965
89.15839978747158 -163.54062378517222 -1.0355754641488975
87.77668934179002 -168.46417154100152 -1.0675994051283553
87.91988373049445 -167.65993932322502 -1.0308336194022918
87.74217751029452 -167.90538361846413 -1.0457675893240328
87.96796665366409 -167.29761286751835 -1.0150519233830728
87.98391855396316 -167.23732473238206 -1.012100330226319
87.57756345662013 -168.26598325477025 -1.065059823573768
87.7562109239794 -167.70067299041568 -1.0371281037299096
87.77778761128008 -167.6429310798153 -1.0340911532600228
88.14954212696722 -162.9159003932579 -1.0187391125442091
86.8042339276986 -167.84160661150707 -1.0698520592331815
87.87073696379338 -163.2100418842368 -1.037451074964777
87.77402735636554 -163.07665400443022 -1.03206593134169
86.72773398979692 -166.76336084333644 -1.027912773758036
87.62417383642779 -163.23156476900294 -1.042263755373596
87.66053560840439 -163.08386527846127 -1.034128201262234
87.80149304214599 -162.69204624217446 -1.0124384775042787
86.28632508911754 -167.9486333624321 -1.089497824868471
86.5586963956966 -167.10230589123816 -1.0465057744714985
87.57201944452777 -163.05809585064205 -1.034224178105181
86.47970914936079 -166.85234112693965 -1.0385529338355948
86.48521765530822 -166.73549054868926 -1.033653489565456
86.36032490602705 -166.93099174666858 -1.0452197063713942
85.99452995043633 -167.6421896620908 -1.0854002070490631
86.18380437889914 -166.95647811847377 -1.0514205510146424
87.2533246344598 -162.83378898853604 -1.0275643293400383
85.92201772143417 -167.6124986723322 -1.0864061039550827
86.99499049396563 -162.28083332282566 -1.0034785894293003
86.52595902243881 -162.38962420730869 -1.0160492123550713
86.41459913944557 -162.40444951092152 -1.0186242816892603
86.46986739376744 -162.29305161947144 -1.012008669210777
87.74578353759183 -156.40659874780067 -1.0863383394530626
87.48792101392844 -156.65422540777533 -1.0837674387251277
87.17665781502781 -157.31551223545767 -1.0928116213904477
87.1030173145868 -157.37555278967733 -1.092521096401697
87.09996642145623 -157.3011006046212 -1.0900254654225716
87.13187300951243 -157.24961412038982 -1.0893030541433986
87.55345264114162 -155.5647974251343 -1.064897225271914
87.64141275408497 -155.1724377294988 -1.0630905249930098
86.87238617432733 -157.83255798501517 -1.1017868999107803
86.86271208254753 -157.78605540799396 -1.099756994814017
87.15662859188294 -156.5920176578698 -1.0716032057976483
86.76749928072755 -157.7183075736406 -1.094376636740871
86.89044002341292 -157.49076489863276 -1.089832152445125
87.04756321257365 -156.63731814288064 -1.0692199986573432
87.15623220209889 -156.2232305160504 -1.0631511726003413
87.32281399233626 -155.8588742266859 -1.0618362848171057
87.38765371757863 -155.65681970669695 -1.0607175427248359
87.46414593528638 -155.1113897402236 -1.0568055035054347
87.51880502084423 -155.0474687260188 -1.058019081890036
86.72776652563591 -157.59391406858117 -1.0885878412247039
86.9122088264095 -157.01244102996012 -1.0751849213460454
86.94934715152631 -156.72484660817898 -1.068290909126192
87.02073415386621 -156.66297674994024 -1.0689427021487201
86.9563102932606 -156.54552568822072 -1.063931069811807
87.05787240766371 -156.3867950758769 -1.0634926294345883
87.11497403720155 -156.2634024304541 -1.0626833567053573
87.12136180760483 -155.97045301234985 -1.0571308991577189
87.306960706589 -155.39944519548064 -1.0547383056742705
87.43322824203346 -155.011971403373 -1.0549310616563177
87.08590826272705 -155.94088019680808 -1.055508399982501
87.12475483981315 -155.7310861817817 -1.0532744095729856
87.13186277665184 -155.46461581607656 -1.0498269858876652
87.50479819324305 -154.34502349631651 -1.0541365848063071
87.51037579494383 -154.14535419864984 -1.0542724279536304
86.65724745116303 -157.08215210282026 -1.0692012119064598
86.64224753876914 -157.01145170677273 -1.0665865327858373
86.7063287252071 -156.73707667707322 -1.0607932632644586
86.86240576828702 -156.4001837414594 -1.0575223595182826
86.84807283600028 -156.28966504936005 -1.0545963885858831
87.01015020668616 -155.8158717405322 -1.050873786428271
87.04079490980543 -155.44083413767422 -1.0464990314773073
87.23257593446266 -154.9736056734163 -1.0481659424084
87.3098627847976 -154.52669577728884 -1.0484343861484438
87.39985214763233 -154.1227396386136 -1.0508329597916914
86.6417060434237 -156.9437032812481 -1.0645291873436813
86.63847762147115 -156.8757624989798 -1.06250056210443
86.63348400245383 -156.78170201278633 -1.0597180124051941
86.88918700946708 -155.774007077706 -1.0462121737940593
86.96435974046219 -155.6915622708049 -1.0474663842688305
86.96075774772481 -155.6090623156158 -1.046090089522369
87.11224964662763 -154.95707206049627 -1.0442338519532217
87.28044047635602 -154.2945691499373 -1.0471303070426343
87.29769521012582 -154.06841834503035 -1.0477884949793792
86.6110877424059 -156.43337074477412 -1.050144810975572
86.87974657414726 -155.28361867668355 -1.0394820955310997
87.0645334157131 -154.53652967702075 -1.0406369059353575
87.1941464809418 -154.13471953588606 -1.0445216171839582
86.23913735883283 -157.4541587363799 -1.0686327533655637
86.24091775494698 -157.42839840921877 -1.0678265952902228
86.77014803338956 -155.35828984986648 -1.0367619640236292
86.82796318559996 -155.25945976215604 -1.037615666513296
86.8319026236135 -155.20453738686936 -1.0372080773278758
86.92135455161953 -154.7970370138831 -1.0371069131215618
87.02115005844216 -154.4861034110435 -1.0392002956725972
86.17800688618601 -157.36184458460892 -1.063549358155456
86.20428117819678 -157.23765626828842 -1.0600400953787223
86.43930817884348 -156.47049202556335 -1.0454696054239725
86.37987693789917 -156.43962128075853 -1.0427474730251285
86.69166463472094 -155.3497502085593 -1.0340740017516734
86.7852049501112 -154.90993148145742 -1.033344091612158
86.84418498537872 -154.8478557415761 -1.0348732092470423
86.98665946572183 -154.090986973212 -1.0381439947903237
87.14956482391551 -153.78745269178262 -1.0442421049033965
87.21795095965358 -153.31140583740364 -1.0495606081028124
86.01303494889035 -157.6581812644242 -1.0694727244844526
86.14245782016108 -157.25058619852092 -1.0586234927682203
86.62931338361787 -155.37968577551467 -1.0324402899511003
86.69871236602239 -154.91955559321147 -1.0306926313270075
86.89599202086654 -154.33750623619378 -1.0350766654187686
87.05373376507617 -153.6347378025074 -1.0422597788311911
87.05529687222798 -153.4224499164198 -1.0438579847067104
87.14040915511292 -153.30432380796975 -1.0474541127189336
86.82286354527781 -153.98350924160488 -1.03352025865345
86.9660028476872 -153.32932790685706 -1.0421379292164261
85.73906627605257 -157.6595816540479 -1.0614888344260431
85.8467101407228 -157.4117506017916 -1.055180679082944
86.17648959078278 -156.12312267366812 -1.0291891693522106
86.70102416325194 -154.0685555509531 -1.0295210546354396
86.69885322276664 -154.0412741008404 -1.0294828990558282
86.95148934148037 -153.30346540253097 -1.0420410783483505
85.71437051283043 -157.62917987407937 -1.0595003607495206
85.74783452546662 -157.6128391973055 -1.0599003307275956
86.52320811916186 -154.48819034398457 -1.0235681011083149
86.81015633627689 -153.2886423734812 -1.0381630569454732
86.8442464397121 -153.23247267527168 -1.0397099012563689
86.11264698302413 -155.56922942788975 -1.0178924803162763
86.11433169993578 -155.53244943435763 -1.017438246013818
86.72323883518558 -153.16825136137456 -1.037018552143127
85.59067803955578 -157.1844908712961 -1.0393544524932752
85.65414727334513 -157.1742891800863 -1.0409048085348143
86.17857226136789 -154.83005735897362 -1.0135206321349444
86.6731994739421 -152.85309755717606 -1.0399994824313077
86.10772945365407 -154.8143797534917 -1.0112557019765447
86.46512536083922 -153.31537912492735 -1.0280466692719281
85.08783333156879 -158.1782871969711 -1.0661342987919686
85.15026476464453 -158.15423675197786 -1.06659651178217
85.6753665641348 -155.98696974150477 -1.010263991965444
86.45235675451825 -153.17554358480916 -1.0294195654800389
86.44085934503457 -153.10578202024735 -1.0300353306355101
86.47373681412796 -153.01963090101322 -1.032166348350571
86.49203362059858 -152.8948635248935 -1.034456678573275
84.98477297488843 -158.25652037329905 -1.0672489231613327
85.0272264693678 -158.2137189532744 -1.0662544570516754
86.42055988253436 -152.98114419506575 -1.0312294954166425
86.37543058052704 -152.8805165347572 -1.031641132837202
86.40215268736414 -152.79503985215695 -1.0337094157192979
84.70980924917902 -158.96755957758103 -1.0998526262287698
84.90670910240266 -158.34231395418882 -1.0696615577180708
84.92014141001336 -158.28861543274238 -1.0672353802298535
86.33380923065026 -152.8974147176615 -1.0302078716301304
84.64438888013832 -158.9045171121853 -1.0947401162815409
84.61528492979213 -158.86249820730023 -1.0915762225500005
84.80330807125466 -158.42851348115025 -1.0715686690592874
84.80958457596812 -158.3640225108045 -1.0683231300740785
85.83872468136146 -154.14069092276912 -1.0030203401302622
85.87025427357595 -153.9831302467763 -1.004827629462506
86.24572232622613 -152.7276967972803 -1.0308481399745217
86.27728927615205 -152.669942626359 -1.032677982738769
84.5970094039077 -158.80179415434742 -1.087626026051161
84.55896599813565 -158.7083559388429 -1.0813411349241506
84.64206515319695 -158.41255643587968 -1.066773487256871
85.7802885156147 -154.20485468366732 -1.0009798326120918
85.78965496255175 -154.06748671318448 -1.001954791720764
85.83245973506826 -153.89167094156318 -1.00434167262816
86.08928326646296 -152.82441563331392 -1.0250464840521851
84.522555231194 -158.59216916850784 -1.07389318221113
84.5538015881325 -158.49971696910973 -1.0694322420995803
84.59196436425727 -158.44795327395724 -1.067490040786225
85.78092711591061 -153.5201547847924 -1.0064952518892927
86.0155543670696 -152.74023113435194 -1.0246943995781324
85.88816142364493 -152.75409341822544 -1.0212466295612617
85.9320857022405 -152.6625303543396 -1.0241607230779812
85.97874934652444 -152.49417753015348 -1.0287555806610384
84.80266188238075 -156.8086011228335 -1.002480885699775
85.83776357383762 -152.70609668268673 -1.0208975543411043
85.83820591614348 -152.62050638365218 -1.0226621022524387
85.93776898454972 -152.42396076150607 -1.0292324870562546
85.92548223246887 -152.33942921039284 -1.0308389219933574
84.27926385163671 -158.11107016368027 -1.0418996089771673
85.81408576899103 -152.54398872723883 -1.0236661642648177
85.82649402733298 -152.38943861805754 -1.027430995799678
85.74244304067335 -152.31405389239018 -1.0272153176949563
85.41111646674482 -153.14020689506265 -1.0020355219512047
85.64468804816073 -152.24796365746167 -1.026606790473574
85.56319874812067 -152.17289598237278 -1.0267696333093548
85.55528282203609 -152.05842800571602 -1.0296334159959695
85.58028754806618 -151.95113868077829 -1.0330422273760829
85.44711905241667 -152.35529998994608 -1.0195764490953814
85.44734269077397 -152.09159113656565 -1.0264139490598916
85.43903570839821 -152.06565861893492 -1.0269980047326626
85.29997274870803 -152.23583079847612 -1.0194083963933405
85.29056506588337 -151.944474383992 -1.0273793710456969
85.32892389916526 -151.6755501371596 -1.0362643100502824
85.47678777451033 -151.3810014974229 -1.0483520140074545
85.32247702830202 -151.64785359223254 -1.0370611125081806
85.11537575822487 -151.9075381558675 -1.0251456648155037
85.03603401036472 -151.89943015561593 -1.0239042903413313
84.79327398905822 -152.39165583900862 -1.0045975575791237
84.86088539824526 -151.59488314067045 -1.0308235740491702
84.77790519747187 -151.64075124965154 -1.0278801020496051
84.53244722822181 -152.00825172113804 -1.0113693424679828
83.52132587646466 -155.8136561915655 -1.0907943184426996
83.511326545374 -155.79784662273806 -1.0898964897028809
83.48579394165358 -155.58358732308722 -1.0853737694378067
83.54215832749266 -155.39326151797007 -1.0877439396263802
83.6378381885784 -155.27262561773654 -1.0937010808505472
84.48285516184211 -151.84332673239254 -1.0160833841803267
84.53699763764102 -151.5318740235485 -1.0279759201769638
84.67304856809085 -151.3130399761866 -1.0379802515499648
84.66635822271215 -151.18810751074975 -1.0425869837454622
84.64197465873858 -151.12633069485912 -1.0446484752750513
84.69085353688061 -151.0173411024761 -1.049484217461001
83.4838214034201 -155.4602806632165 -1.084209737629474
83.46117153186272 -155.3085756148596 -1.0820021623519478
83.55282549057543 -155.21984131050345 -1.0879671863387848
83.6588097962537 -154.66008066159753 -1.0986908929958767
84.36067532250374 -151.84672564727612 -1.0140183242985397
84.47404475024845 -151.76128832007754 -1.0188283127167024
84.4642369692115 -151.649750183602 -1.0226268292913419
84.55993412697919 -151.32443240632807 -1.0359896309682868
84.52236082763514 -151.26045814290762 -1.0378949223584444
84.58390267116182 -151.05867366193706 -1.0465503695751992
84.60753358024137 -151.0217265809977 -1.0483039179387539
83.47354537709414 -154.9157562739043 -1.0839153431077193
83.32710483957234 -155.2639216326247 -1.0729765561269835
83.38973413009305 -154.86999048453234 -1.0788950275710985
83.38181590909086 -154.8403441865106 -1.0786580582013297
82.7768063711537 -156.79651032525766 -1.072541065795953
83.28495499516416 -154.84651663286675 -1.072363340361788
83.45088377841932 -154.36689262207588 -1.0907761906806892
84.35352988444292 -150.66148915128065 -1.060522535076458
82.73429903094325 -156.730816799064 -1.0667148726797357
83.16546378993446 -154.84382741316227 -1.0646851979910283
83.91725959262452 -152.04696771892446 -1.0000545305020347
84.27787541232664 -150.7885853350639 -1.0543881140873672
83.06073927125976 -154.54170473326033 -1.0629892146879762
84.13153445638096 -150.51877600231512 -1.0651197053395207
84.17066998846087 -150.44022146160304 -1.0689645657544644
82.8958377535791 -154.81023358893478 -1.0478245480664168
83.80484036249354 -151.16678535437285 -1.0338954836071361
83.86875151469069 -151.03832351924828 -1.0400354519879154
83.53176259839377 -151.9018439696003 -1.000421969522331
83.73238524382337 -151.2072637705792 -1.031499374158681
83.91895303869553 -150.56364413705003 -1.0617786520547488
83.45571549974784 -151.83070112848335 -1.0024471557098638
83.69623723780373 -151.06229647748467 -1.037641701131539
83.83916282542329 -150.50226566510318 -1.0642286001512675
83.8683370029737 -150.27809192495877 -1.0749932036269783
82.85080969674016 -153.8101550646532 -1.0734463898580695
83.77273952510355 -150.46498673011914 -1.065681706824964
83.7064581427671 -150.35022819747886 -1.0709898786702177
83.79013039001639 -150.21173289077038 -1.0779554444350115
82.22425563512105 -155.91874148917717 -1.0049588812127301
83.32307679722211 -151.5245866107963 -1.0142752010384646
83.5836183636372 -150.64481764981335 -1.0563616573000896
83.62928271621604 -150.3275331923321 -1.071876945811466
82.10761816215579 -155.79646138573773 -1.0998760245791175
82.57567738870856 -154.2211483395842 -1.0428547218372493
83.29401832042504 -151.4780943756435 -1.0161169773871355
83.24734496835461 -151.35804703880248 -1.021254361308758
83.34075272585774 -151.28942460687912 -1.0249533737134209
83.32968636071092 -151.17308317565045 -1.0302485336988947
83.3508155527591 -151.04957757726413 -1.0361344478298224
83.5694215610222 -150.36109359365568 -1.0701104607514236
83.58358463218482 -150.28501831467844 -1.0738948515190767
82.2649834241846 -155.06848687881947 -1.004003329461829
82.50068669914519 -154.1240342406081 -1.0421117673245128
83.11019695461782 -151.76942195354127 -1.0017763054118147
83.20201460477647 -151.3759856904647 -1.0201425780628308
83.4994681759076 -150.33015847868725 -1.0715059419652508
83.48840427118687 -150.26179323703715 -1.07492977576651
83.46823586673374 -150.12788844836018 -1.0816891972516078
83.47225293809653 -150.08063883267812 -1.0841178903493955
83.13476435321901 -151.35510692132286 -1.0207556042726544
83.41072783834791 -150.2627313606464 -1.0748289752643883
83.38117097000158 -150.1169897697213 -1.082292022986942
83.43182093733407 -150.0926196242261 -1.0835020270569458
