ply
format ascii 1.0
element vertex 840
property float x
property float y
property float z
end_header
36.74720554688508 -210.59504224821708 -4.3891744659387655
36.5676379978473 -210.79534263902332 -4.476022330957292
36.58574077071186 -210.7882560320715 -4.477026428941174
36.6817439379867 -210.55685939368541 -4.391173461246872
36.551386375422155 -210.79895295110632 -4.4755225624963515
36.56443729083983 -210.62292896306198 -4.379124646749813
36.48705073919292 -210.6086265533723 -4.377610259419809
32.44984842422096 -225.54010625582382 -4.386650306031037
32.40158775268766 -225.47719393110134 -4.390175687613082
32.36875993395045 -225.37693240260495 -4.393474567880068
32.33716255763108 -225.28332741134108 -4.397420816193515
32.30036065911019 -225.21089152385264 -4.39997167106273
32.21415181035846 -225.26299036997082 -4.401098205467994
32.07291043750412 -225.2777087517538 -4.404250523099289
32.15437473745732 -225.24563096280613 -4.402657881706778
31.99224265297284 -225.3118425686857 -4.40484264053559
36.384934590286186 -202.88402492293667 -4.479844522955527
37.440812655750726 -193.62958262802826 -4.434275531419197
37.47929823420773 -193.45078276598034 -4.428147233912077
37.33738902781669 -193.22474823675503 -4.428266092524424
37.0392721481378 -194.35443272634043 -4.465931247014094
37.25672414267809 -193.16143429182495 -4.429547616942079
37.157569352570185 -193.24549738620007 -4.435143975464572
36.90082110211775 -193.93033292990205 -4.460709478237293
37.077652409692355 -193.176087300696 -4.4365974414859854
36.785209998529 -194.00933861037814 -4.46668311759196
36.83033555794563 -193.96602889684425 -4.463781091773123
36.99984458449171 -193.15700307241457 -4.439126786965162
36.68104567386025 -193.95713226824765 -4.468942409905182
36.72650256215818 -193.94362106458323 -4.4667340089208984
33.352976357135105 -209.10329154671982 -4.471664068420946
33.37395381505431 -209.06218924521102 -4.474317383347112
33.14191677670972 -209.76536376229683 -4.4316283557997584
33.15380202143612 -209.53673963015473 -4.443457649749553
33.18043820175647 -209.41331576530843 -4.450343929760175
33.294339999686954 -209.21503054903914 -4.464270198961044
33.316260248682624 -209.1552872086367 -4.467796516692681
33.353968671024326 -209.02016961864015 -4.475162662962271
33.34786578402046 -208.95065886464485 -4.477671995125765
32.97981026623908 -209.91216347501017 -4.417322384118233
33.09083243905844 -209.78240814133895 -4.428601459766023
33.04098729425516 -209.66892290692047 -4.43211710539514
33.114819983513414 -209.5971767080464 -4.438826390381454
33.145677327723774 -209.48958760858355 -4.4452891855562084
33.14145222824296 -209.3853357627702 -4.449991891432252
33.13426817111521 -209.29042359445356 -4.453837292595602
36.49412623934555 -193.6480961115773 -4.467482058812101
36.51142656175836 -193.38176040097457 -4.461050384386696
32.94999108686851 -209.95382756556936 -4.41385345049165
32.88567577397101 -209.90250452438568 -4.413877549447384
33.02673484089011 -209.36887216957751 -4.44567708588111
32.96090246285862 -209.37195590100836 -4.442586162204063
33.01181103903937 -208.51397302535963 -4.478137871867462
33.02030815615701 -208.48517098540563 -4.4794036442380625
36.11444738759437 -193.79205152682704 -4.482729063560214
32.82093194624448 -208.87971109234053 -4.456631585345305
32.828203711984095 -208.81930052708992 -4.459190165303944
32.87609104853112 -208.65041806233418 -4.467318037262462
32.94510972295249 -208.47279712952624 -4.476442034690987
32.42605055363033 -210.19640978933793 -4.379339074608661
32.72639142675031 -208.77548229933535 -4.456154313574646
32.765084915975976 -208.71110044106226 -4.460190243568952
32.760820977384725 -208.6439907422694 -4.462369973085805
35.85661457330665 -193.16571233908024 -4.476323899080016
35.70012414945958 -193.18492484983446 -4.480944189719746
32.43772573067421 -208.08391718547375 -4.464031124974623
35.576968210167564 -192.79477183825088 -4.475894666771432
32.22877860174101 -207.62174072629082 -4.466232565825572
32.263510314870814 -207.58258203881877 -4.468729975167804
35.4278121516643 -192.7241542457722 -4.478286410949221
32.215865281712354 -207.65222867693723 -4.4650247902540805
32.23361580365271 -207.5807161755736 -4.4676054399644105
35.23387356120532 -192.57808651068424 -4.480253561779394
35.144071317869546 -192.53119582281653 -4.4814437379505305
35.07500145923723 -192.46606235933922 -4.4821328326006356
34.95894909326303 -192.4522349626708 -4.484805924512909
29.87063087324639 -214.22874050862333 -4.395035251104869
29.908995357649196 -214.1145829574791 -4.40109389252765
29.88095397609334 -214.0244439826572 -4.405695663341435
29.830439570680376 -213.92742765229352 -4.410461882156413
29.731670874299372 -213.86404235305855 -4.413391448355167
30.862337905908767 -208.30463266335903 -4.385271799971974
29.627616952261995 -213.8475749854884 -4.413742375416359
30.792698205868334 -208.25488060486867 -4.383431568269304
29.55622871736862 -213.8519330320208 -4.4133955047739155
31.32374963913308 -205.3482263477768 -4.446240525284592
31.244467379655546 -205.36036411910598 -4.4432284785371206
31.16918878001423 -205.1916007703081 -4.439391078033259
31.17003941124392 -205.10654447936017 -4.438860280335078
30.57879343025477 -207.39199267976318 -4.395604298514117
30.564396176020548 -207.33665027897922 -4.396125055247192
30.463719938717187 -207.60098024611486 -4.385505947797548
30.5026570240036 -207.27646709186882 -4.394543909719237
30.38987961533828 -205.196461117344 -4.407901611374063
31.523499523387642 -188.81721312786843 -4.477963728729814
31.577807420144236 -188.76195082101677 -4.476324248889702
31.48076081155888 -188.90477539832105 -4.4805804013626735
18.854690938490624 -234.07108484945286 -4.460319431081598
18.855633445272403 -233.88155335930904 -4.466132250505614
18.729376060287592 -233.86600235398436 -4.46844874964628
12.660948322567418 -241.59232588793495 -4.391500965963602
12.596254290612162 -241.4415275812607 -4.395888935864194
11.939525324569395 -242.04592199902677 -4.394637597112867
12.05303313184054 -241.4234625053885 -4.408802375456092
11.80462337192018 -241.98112849356374 -4.398199375259821
11.064129791572476 -242.43624124600308 -4.401639188367137
10.909264828978767 -242.38444319518197 -4.407281078477527
21.69263121269941 -191.30854819053224 -4.488251259920092
21.775873153252757 -191.279482807472 -4.489693305717024
10.805503087216735 -242.27539521911154 -4.411325298976981
8.299151392073085 -245.12009822221992 -4.389421560850273
49.07848901075719 -194.82593084559386 -4.286288734873665
47.260376302764 -201.9038979427817 -4.280735107592664
47.46589134461429 -200.88918463579802 -4.285543741990251
47.01778109873527 -202.7521635009397 -4.281234850694384
47.19934533988621 -201.87930245269118 -4.2848768248109845
47.39171693547211 -200.89530926781882 -4.289658369394962
47.114954003462444 -201.87052284452363 -4.290232791672009
47.198034639440856 -201.4420076122666 -4.292521314598087
46.84586186692454 -202.48944804496242 -4.2965929828350085
47.0187661625483 -201.80490895563128 -4.2981196567289395
48.01045463913975 -197.18180571147403 -4.315286305764204
48.072925578377834 -196.6460233836514 -4.320411011881871
46.87334442266231 -201.7519911598597 -4.30819356163903
47.00560992752119 -201.1101501687157 -4.3108167226047565
47.111067505115855 -200.97677878751412 -4.306910775534445
48.232214649473455 -195.70537559910272 -4.325325119740112
44.55364749190517 -212.33153812514988 -4.31038422643182
44.617586385529926 -211.90120343694792 -4.3135055098884125
44.6874058592565 -211.88453407286065 -4.309589203452735
46.74800701378382 -201.95580095223804 -4.312419063498387
47.12110457367378 -200.3002315452384 -4.317697213957585
48.380289712819284 -194.29581387150222 -4.340098710794743
44.50305444116108 -212.26417056773198 -4.314528225801097
44.45848827501949 -212.18776883726935 -4.318391637711828
44.51841474686949 -212.00148268289345 -4.317859433031195
44.571209636509664 -211.9455569465639 -4.315577898420453
47.85685196034561 -196.50480450079934 -4.335771029240367
48.25854306306883 -194.36073143256678 -4.3457958093051
44.441907784931715 -212.08699976210738 -4.321012206125472
44.47150989539118 -212.0311887464718 -4.320138093022511
47.30948259207305 -198.64584651301374 -4.3349743188503895
48.114753935270315 -194.76038268822907 -4.348375424820187
48.210428981750205 -194.3311018867035 -4.350213876265794
46.410189691012306 -202.28991102870822 -4.3283223447899495
46.724978643047905 -200.49328485008968 -4.340303770799258
46.80674184821392 -200.36634775294527 -4.336725244733132
46.82275491318514 -200.08704749940858 -4.34119198860439
47.39804339145671 -197.73214163833538 -4.344964397418983
45.9222501331302 -204.14811169882918 -4.326704160293929
46.73139998556508 -200.3287263469997 -4.342213787076496
47.768950887018505 -195.32754754212033 -4.361706590378941
46.54871416373429 -200.75747063663655 -4.347023953636798
46.52927423602079 -200.72085410127832 -4.348353301071221
46.590148804189525 -200.35899459979422 -4.35081686221684
46.40395439163385 -200.58419399165714 -4.359373585537379
46.546764604309566 -200.29561659479486 -4.3547338228871375
46.84750285143575 -197.88289801027773 -4.3768156815326655
42.19569548626759 -209.34230714003147 -4.352974514552219
42.110469347609985 -209.4434014703922 -4.358775072212879
42.15991142878314 -209.37124736097155 -4.355753454169285
41.88023981514875 -209.700693439311 -4.373949699120246
41.564194803161634 -209.10406214541075 -4.300185695578638
41.57896522222548 -209.06429658357845 -4.299582708722669
41.50606919303885 -208.99458236126702 -4.311198301620472
41.4737684146545 -208.92481631418664 -4.317486959894191
41.52314719641939 -208.66804750108977 -4.317833206122959
41.57838554929604 -208.62082599581012 -4.311604921810532
41.44852660435116 -208.88926533066203 -4.321827536073682
41.45145260783049 -208.802762028939 -4.323837234613315
41.47222892473268 -208.7076047006332 -4.32355577940728
41.509062235238446 -208.54271216686345 -4.322406367767944
41.51204715841144 -208.36750750158012 -4.325174386868202
41.53073976209376 -208.34234337492677 -4.323101319316278
41.37214471496368 -208.49504405618393 -4.341430440227292
41.45947115717371 -208.3949075185932 -4.331697752969131
39.51817788058171 -205.6241437228193 -4.329474690708033
39.555542876970925 -205.57727196939203 -4.319763476112952
39.40932265142642 -205.67869251163089 -4.34850414184654
39.46629580767906 -205.66105013643397 -4.33982401186814
39.32735594266714 -205.69285602581564 -4.359351001443332
39.21786080469131 -205.69386683560268 -4.332955645328093
37.70464205696864 -212.29409058950247 -4.334563664987918
39.13066491920734 -205.66321807488157 -4.332894905711832
37.67529702494433 -212.24740901704112 -4.339728274965029
37.63479218842795 -212.2224310361483 -4.342772520401942
39.07526416986794 -205.61387408204519 -4.3297414256608615
39.04309788756127 -205.548177092801 -4.339360588445559
37.6032463610339 -212.15142134021676 -4.350320317845356
37.56861790568275 -212.07071378028897 -4.358681676955751
39.01020858825309 -205.48028943087616 -4.364838553860421
38.99733914364486 -205.43398719056677 -4.360220644966808
38.990318566915064 -205.35972445757 -4.351591328144227
37.48174056029375 -212.03860542249157 -4.362899574410846
37.38258893209807 -212.0258747536174 -4.365194852628001
37.28218583372962 -212.01680925928878 -4.366897800214368
37.12919662954367 -212.15384163396507 -4.354647019712146
37.19462295947924 -212.08778704378585 -4.36064337166844
37.05996661290973 -212.15045252003605 -4.355296280878426
36.95739656082269 -210.89164905972268 -4.3602769021039745
36.969147926922076 -210.83299916081143 -4.3676646441126845
36.959009384815744 -210.78249018403034 -4.373534167828796
36.93616005936391 -210.75747364098052 -4.375949067487844
36.532974893147106 -210.6340347343088 -4.37663546591242
36.49272290444647 -210.6201827229402 -4.376472773395882
37.94638270101185 -199.99728686324613 -4.2836184781696955
37.83832058141072 -200.03580973562194 -4.289781364665455
37.89185502163388 -200.00638325894153 -4.286144332754731
37.76911566106521 -200.03177151752303 -4.291987300472698
37.65753188494343 -200.0222743312488 -4.295170259594045
37.48542993388406 -200.22508291736682 -4.312486132869891
37.54057085996714 -200.09349252907805 -4.303031977388976
37.57524025677858 -200.02870839809765 -4.2982650259013235
37.40875708782182 -200.26525667402112 -4.316950315211182
37.4985606674602 -200.09296282133081 -4.304182470296621
37.309761616957104 -200.2380227619897 -4.318173688047342
37.244398532003586 -200.16752724038335 -4.315850164680883
36.471610429987166 -203.114096608552 -4.304410667911938
36.498357199587595 -203.08257329039412 -4.302091507955062
36.29962602470243 -203.4186221777109 -4.326992041407413
36.354945392704785 -203.34613589603387 -4.322059392849118
36.40555306381659 -203.237683612109 -4.313907770498066
36.432771316924395 -203.1377731069327 -4.305951032272682
36.20095825792326 -203.49269662369773 -4.33091754644384
36.25167201278902 -203.43810797188684 -4.327636744065035
36.13167389002942 -203.50732528674595 -4.33048958539025
37.93742635298302 -191.87541686711347 -4.372317420703213
33.420663959520766 -208.79145042072093 -4.31059990649983
33.42168465886094 -208.76488726859148 -4.311855672382043
33.32787140048088 -208.9482078366893 -4.296218013873099
33.36036481699461 -208.8185533928337 -4.304703282040445
33.19581757421464 -208.8622411155443 -4.289556268342366
33.31018186704899 -208.08024531897283 -4.326277896285101
33.32784723074903 -208.0453045800823 -4.3286150355754565
33.09135527415042 -208.4181224620488 -4.298432610673075
33.13116093955672 -208.3676858038025 -4.303259840326728
33.163024760202596 -208.323787391089 -4.307228709517156
33.244753315597556 -208.10724552542803 -4.320196061977777
32.964306493146616 -208.50302971152948 -4.285225411018075
33.27490737527094 -207.06333562563216 -4.3412662123488
33.32075263543641 -206.8353137804915 -4.3454797213082665
33.32468991917688 -206.8184760920145 -4.345954394236073
33.24194745533004 -207.03895423631784 -4.338963409564901
33.23970343489657 -206.94652118542126 -4.339044998518219
33.28274990342055 -206.8819683929346 -4.342585576907106
33.31645550509627 -206.78875269732248 -4.345204072328987
32.38963372956256 -210.63844137793458 -4.353367477585991
32.40026760635867 -210.57334644819994 -4.357469978125962
32.41378551818862 -210.49591680140443 -4.362406067979634
32.409046702033166 -210.2255168881804 -4.376981120479162
33.12543269138072 -206.96956332926285 -4.330006904611537
33.18261548785822 -206.72747061120145 -4.3346534202022085
32.31780712145449 -210.49867244504887 -4.358329320021678
33.05940218857766 -206.67751492514077 -4.3251916011979255
33.091959881923295 -206.6468798475203 -4.327501237958948
32.21329311735681 -210.50377031380452 -4.353870992763088
33.01533984146896 -206.57755692165492 -4.321379507907568
33.027398474605306 -206.51124952979143 -4.321980101719941
33.062069152057425 -206.4518175328533 -4.3242262487490875
32.08287855456442 -210.50532088989135 -4.34848592856488
32.985985852217716 -206.37914587332227 -4.317806230917887
32.96468867909352 -206.3117212430791 -4.315715273583539
32.84258447082384 -206.16866924806553 -4.305117285690828
32.85638640281539 -206.1094369062036 -4.305224280110134
32.78252999761859 -206.2110935441055 -4.300904387829423
32.83567177250609 -206.15184313296265 -4.304271735292478
32.826733671261024 -206.06717951544962 -4.302555611185982
31.76592410224807 -210.59110548860164 -4.3309182132751065
31.736501430383957 -210.57586418034788 -4.330428352602481
32.759782227532526 -206.01114809055585 -4.296927124575633
32.77025092835884 -205.9820763959487 -4.297179539414893
31.635675618513925 -210.57466182801576 -4.32641197428348
31.62082934862148 -210.54071691831533 -4.327689153972114
31.645912605449745 -210.4523218192213 -4.333308826484095
31.377305242799178 -210.2034539152779 -4.334864207122129
30.505665710049954 -208.0740110910871 -4.375100904954101
30.422486181630337 -208.238731640205 -4.366923035580869
30.31033944034489 -208.29717637622167 -4.360136113934703
29.819771251576476 -209.47107254777916 -4.298234179670458
29.777468596591056 -209.44820795321718 -4.29737374090679
28.27313402874813 -201.7550854040518 -4.2875110586293355
28.283053340246045 -201.63935015854744 -4.28514515018748
28.14635555303598 -201.86701986355402 -4.285778968256211
28.225214091103844 -201.81918438864287 -4.287113561550726
28.26452700005614 -201.70084235143682 -4.285759847894839
28.100328427692048 -201.88563415057007 -4.284340625230832
24.055813673913036 -215.95935100147716 -4.283285222695455
23.982316272845523 -215.87116532815122 -4.287059575617678
23.85950009476487 -215.8416663326117 -4.287864334818168
30.643428368991042 -179.41360760044708 -4.302555424174205
30.73754988256087 -179.37177611046152 -4.299097169502823
13.964391370297353 -243.28537334552934 -4.318144618046508
13.564517073156054 -244.39392486396588 -4.29681841010011
13.66586411262029 -243.98326739909126 -4.304692023985154
27.61401182694431 -176.49057663183962 -4.299646579770999
27.50081431043654 -176.5040568761295 -4.302248576175669
27.35330891991581 -176.4260192233446 -4.302632476052737
12.92304909062144 -242.97688096860696 -4.347810110325479
12.847953676874674 -242.81790648882262 -4.354731881918023
12.711831544100836 -242.74980040570242 -4.358461264272314
12.403218422888035 -242.91178386461058 -4.361715272361429
22.154821748762128 -177.57785661906703 -4.374366291709801
22.14371072683315 -177.314353811803 -4.37040708455116
21.958347137960605 -177.45377351749065 -4.373203233529926
19.4961310025559 -173.14659589527668 -4.321715323517521
19.320745975065055 -173.11434694500173 -4.321677918163045
17.594613377741037 -178.44622105068635 -4.382815938688896
17.331359207356833 -178.71132134687386 -4.383866553244812
16.899060478381198 -171.40069015991162 -4.304492477004169
16.71425820834288 -171.37941022083524 -4.30427415879763
15.527970917033862 -171.10077997378028 -4.301131999627277
11.121680916757288 -180.85974701526226 -4.3256059827804645
49.24839110494164 -199.7768272605878 -4.18965687790766
48.3206548533254 -203.77838369018187 -4.178751177360276
48.29135964465466 -203.75092674409754 -4.180713271474063
48.42103617022217 -203.19132456218594 -4.182247719203776
49.208909478035814 -199.7481974129239 -4.193354549188204
49.32242399687744 -198.92435358765638 -4.200695222840119
48.24742223284167 -203.68902253375614 -4.184921632666002
48.22957633516783 -203.59456752621685 -4.18767357187802
48.23488900113706 -203.51015990445325 -4.188830977395969
48.27314327904188 -203.41013856719428 -4.188143404849392
48.33307341659997 -203.29645585788913 -4.186275641228941
49.15993965780673 -199.12279873233174 -4.207000541682041
49.313381686298804 -198.7369339800826 -4.203889712253474
49.45541983483282 -197.4489186813216 -4.218149372914542
48.32856950005549 -201.848215068659 -4.212706654363335
48.372789756971926 -200.92576812375722 -4.2263671057369185
49.09801568748013 -197.28158604107617 -4.243201193882231
47.732257445370905 -203.041184978384 -4.229457758665808
47.71734904349789 -202.58215712337372 -4.239055089164864
47.95565839162195 -201.61459133963902 -4.241000079282441
47.85605558857587 -201.0946425056189 -4.256695333231839
48.063327548096595 -200.30797998156737 -4.257330513543048
47.46777622683712 -201.89894934077398 -4.266948885523876
47.885595660921794 -200.2380570268754 -4.270074749594679
47.82506881106802 -200.1215166721067 -4.275427994123194
41.50606981566958 -223.04676616109992 -4.180663233219739
41.41053905894278 -222.9787168657312 -4.186538601806469
41.34067431642029 -222.8928124993729 -4.191642308117262
41.81742789622696 -220.66492575641234 -4.237246658553797
41.16484768360813 -222.66337994001003 -4.205388121102995
41.058194951462895 -222.6395961239874 -4.210259418821841
40.93314281691416 -222.66809648792284 -4.214381452148177
40.98065649943364 -222.63937818403812 -4.213195068371702
40.88579816914052 -222.6904258347624 -4.21537382686531
42.34079121753985 -209.57763118273294 -4.184016149369456
42.286717224495455 -209.49564763706525 -4.193921604417526
42.24890409719693 -209.51224322767735 -4.198132825720646
42.026255442975724 -209.73004362856994 -4.217970938839494
41.94247663296282 -209.79742850112203 -4.225621297185928
41.96381493570742 -209.76214082817867 -4.2244612590647375
42.00655729272644 -209.6397678967479 -4.224107352603623
42.03160027875871 -209.56159372897287 -4.223981810715789
41.87355128179449 -209.800656968804 -4.234055515706706
43.5890198168828 -199.92243643138798 -4.209943356610232
41.5448064076711 -209.05529914478615 -4.186100507215818
41.49743053764762 -209.00513103616012 -4.195977716464997
41.45469307999936 -208.9577688674644 -4.204898656383717
41.56591071312106 -208.62507325186724 -4.19787962333488
41.62853081116971 -208.5732834698801 -4.188852703960768
41.43895083374113 -208.9022681281321 -4.20968092043206
41.432754541257 -208.79945508199268 -4.214490518294806
41.47323295386208 -208.70313199983542 -4.21098742679592
40.713798869223744 -211.67760280275564 -4.234030686251262
40.612870568500476 -211.66279868469988 -4.2440902773631475
40.65181161852112 -211.6476123000311 -4.241989547354937
40.43399542031192 -211.95579521947948 -4.2334925238855945
40.51723194817922 -211.69261156924733 -4.2496957399661905
40.401228844649346 -211.8292543583482 -4.247359063794963
40.425748959059234 -211.75162643234768 -4.252184951794491
40.451002337029855 -211.70891783240506 -4.253857086205002
35.44506945364426 -229.83582583449794 -4.177648642161628
35.261703833899105 -230.0243922424275 -4.177370844588285
35.36273061213437 -229.8569108577528 -4.179963132002481
35.178549561981114 -230.07107029525997 -4.178912439210309
39.50516625734555 -205.6326042249154 -4.235027388353989
39.53980937351837 -205.57935359776098 -4.2224528535670585
39.414587896225896 -205.68018086567534 -4.253937456726302
39.469261134643226 -205.65665458849614 -4.243290059351491
39.329814036437206 -205.6903324904706 -4.2584715536986035
39.23754496833325 -205.69108204854172 -4.209762395205353
39.13092071049142 -205.6681545595345 -4.194026362173425
37.67864561540526 -212.26924699659793 -4.186039563482816
37.63728816755983 -212.20935626543323 -4.19450728410472
39.058705981091016 -205.62261511582153 -4.193747429727002
39.02830488103722 -205.5373675484781 -4.22864045691607
37.59032431746731 -212.14347565300142 -4.203698288122429
37.554785847657065 -212.06775430288934 -4.214020619636622
39.009809098533154 -205.5076869835654 -4.2732463429351375
38.99909393380278 -205.43215807854236 -4.262148737998475
37.47139586187965 -212.05208921576056 -4.216468443891387
37.37239020399507 -212.03726810761052 -4.218653861661852
39.86177094309724 -200.26695877326702 -4.20299370251122
39.89454269023406 -200.23463582226952 -4.198723586664232
37.27568802352025 -212.01349876210017 -4.221675696929328
37.1528734807891 -212.10076853516912 -4.2098680913943
39.636655888935415 -200.30619977375528 -4.21930867009816
37.062868880310454 -212.1415336472991 -4.20405564391807
39.52771848226438 -200.3040484753327 -4.225535836817156
39.470679149807005 -200.31727734929328 -4.229859495371788
36.981530324518076 -210.82026731700864 -4.258752369401009
36.97783143022833 -210.7695309512201 -4.2663345626896705
36.92513290015552 -210.76616109754724 -4.264598113532143
36.93166275954051 -210.75469202334392 -4.266649061499365
36.830160274378315 -210.75900757117327 -4.261318435874403
36.819587627699484 -210.73674493480726 -4.264144079997684
36.73352427994084 -210.72163560322628 -4.261946237999578
36.74326062793525 -210.70638461306044 -4.264785407586455
36.60718356203194 -210.76623472708286 -4.248714857209045
36.44885909615659 -210.90994615646107 -4.218999428903627
36.56677695009325 -210.7557654127388 -4.248003438529437
38.83566775863958 -199.63796330091952 -4.223966817555583
38.866291727139085 -199.60573175513457 -4.220839933244406
38.90006943894922 -199.51772186241135 -4.2136888162294435
38.763920359498954 -199.63741098255755 -4.227560709293317
38.66483059110728 -199.60310797538875 -4.230299485353258
38.487802159415835 -199.79784052274817 -4.249691525045773
38.5932415235323 -199.53237160091032 -4.229387561993616
38.41740941867501 -199.90408683221403 -4.259191232672345
38.30484689335522 -199.92826002807655 -4.265422370192912
38.23438146991307 -199.91615626352836 -4.267746347721646
38.191441876233355 -199.87207022865132 -4.2667669152431085
38.13726750750563 -199.8854683052535 -4.26973536563055
38.065525205243816 -199.85490835931273 -4.270854021915518
37.996211747288726 -199.8768317557862 -4.2746688898689476
38.03666846818973 -199.85203079247572 -4.271547284225377
37.53071661388383 -199.2886293957591 -4.256140672878659
34.0127696774182 -208.56561947563117 -4.211739117824719
34.070638030494194 -208.39498303805908 -4.225430144253589
34.06392006472831 -208.19520445231947 -4.2315928055139285
34.00534933138306 -208.2199588305072 -4.223949495052731
33.99488703895063 -208.0014981127162 -4.228789539811943
34.01894273092973 -207.97168446050208 -4.232387190006412
33.92133737837 -208.01651587360752 -4.219939891454439
33.95202125664238 -207.94095668493185 -4.2255278085227355
33.82805588700755 -208.04749256807747 -4.208286463012349
33.871810521811724 -207.90420330806424 -4.217057717662466
33.70474472480128 -208.353053889936 -4.184434495920407
33.675943099543225 -208.27460579531515 -4.183878168905592
33.8112821962931 -207.80107250845307 -4.212399696982434
33.15190206399708 -209.27450349708133 -4.266278878827203
33.16048043371432 -209.19233232328978 -4.271207024028002
33.16994166358599 -209.1353956729329 -4.274816386193694
33.11453657684042 -209.06682073837655 -4.27374586365121
32.78843951216068 -209.80144304612188 -4.208541121093123
32.86577717319824 -209.73519648665643 -4.218340775966334
32.8962641676601 -209.65391897306213 -4.225491249549665
33.01029693430457 -208.9489972287427 -4.27101130831794
32.75267660935904 -209.84322122618528 -4.203227748104214
32.79125026672995 -209.7163668564666 -4.2138404438881745
32.79459194930861 -209.63143418415552 -4.218969758085198
32.868062294567444 -209.06941615396238 -4.254060193260215
32.72080212989229 -209.6098753150028 -4.214588552176934
32.71464992283488 -209.48737333333995 -4.220922305275737
32.776449610100194 -209.06740174509875 -4.246989365934713
32.79553330019968 -209.0050152297639 -4.251271095042266
32.824878140552464 -208.79373288745316 -4.262799851782356
32.8467879736346 -208.76265381208265 -4.265782596961659
32.836867964848345 -208.65833502904363 -4.269157729786075
32.91992337640638 -208.56343077873416 -4.2793599061904475
32.52125771780824 -209.64328652146384 -4.197198541536001
32.77912118930851 -208.62590026314203 -4.265735084236048
32.815106902631555 -208.53496193239468 -4.271916802500869
32.58459628961375 -209.22743094194075 -4.224165662978936
32.683066208642586 -208.7237303584179 -4.25427891770266
32.49014810420516 -209.0163071923419 -4.226430099969138
32.58269068490572 -208.75624788052065 -4.24480914149843
32.25951682696044 -207.97432483501152 -4.24350736914318
32.3321572481956 -207.90408909663802 -4.251439013367494
32.32398850079383 -207.83125535193724 -4.252557930757899
32.251491386446354 -207.9745135375836 -4.24304256718561
32.37289423201978 -206.94642214602473 -4.270668832718781
32.30160923694328 -206.96605349371978 -4.264980958861244
32.42167243998986 -205.8202432707734 -4.269068466062379
32.43191271661862 -205.73066999801634 -4.268341879580508
32.26699429872688 -205.71549639380135 -4.256224555637014
32.19882255364425 -205.37136766068755 -4.244819845978979
32.22161227487761 -205.3304140268443 -4.245370513598861
32.140566984942076 -205.38360328367312 -4.24085495342341
32.16968847758386 -205.25842557887702 -4.240212800234746
32.134352333414576 -205.21529279229648 -4.236508749012421
32.05724296546866 -205.411667133939 -4.2354669825882825
29.002677041586722 -211.25416832593402 -4.181095964793554
22.367803060604167 -241.69912044079476 -4.171004732192576
28.76409491587267 -211.04673082676575 -4.18157613629051
22.198703413914338 -240.60286510389034 -4.206800721288619
22.10185033282138 -240.5276250154655 -4.21029142056495
28.145516014901247 -209.78843108635667 -4.21053961222066
21.427572670102446 -240.18529230767882 -4.235658243631625
28.21802379172413 -201.52358470055626 -4.280701510665967
28.052011656034704 -201.9043252631878 -4.2834541113690205
23.99752129527836 -216.15418342046613 -4.273769374004743
24.03904984857885 -216.06494741949834 -4.278022228664285
27.933406211340525 -175.998397362529 -4.284409339602533
28.130684537571106 -174.6692753853532 -4.254400072937901
17.602847184459556 -170.56701366419594 -4.291896483784873
17.457318908070523 -170.606791675034 -4.293033689718186
17.31293781636043 -170.65559522019112 -4.29386923106388
17.191659444868726 -170.7333839244189 -4.2953629745167765
17.025005122848142 -170.73622047798585 -4.295571781208412
16.468242778958803 -170.0643069332595 -4.28795728564901
16.0248878365692 -170.7889095971878 -4.297419527303672
16.08034773841817 -170.59275748255078 -4.295094003441464
15.53360953310477 -170.83430206030474 -4.298095355598746
15.578677635844599 -170.63326839350674 -4.295613013578761
50.53622435260199 -200.86487154021597 -4.087004539327282
50.7259822640628 -200.04833221829756 -4.089358639345911
50.81550527528735 -199.92946327654118 -4.086348508784868
50.747269922765646 -199.60429419173298 -4.096578981281082
50.2515185211197 -201.3626140120362 -4.096544367535916
50.54574852302991 -200.22594420719622 -4.0984875152063545
50.13488501735688 -201.37552316835894 -4.104427385817362
49.07260991070719 -206.15213572803452 -4.093489546162738
50.10107181547262 -201.34045066982446 -4.106657208401561
50.44894601076439 -199.7451429210493 -4.1126479661172874
50.146904109263645 -200.2510238624802 -4.123796119663474
50.53962911948102 -198.65617559250896 -4.1261731159708335
50.31760058169576 -198.7644600501104 -4.139302793702645
49.88722178207759 -200.36573662792628 -4.137896660984381
49.1653396838594 -202.6457814853842 -4.143879218345816
48.591196016519255 -203.9501699113771 -4.15784347086715
48.565994019844894 -203.91978926340826 -4.160421486795043
48.48803457071942 -203.89017667663282 -4.165760831957939
48.39089010939413 -203.84911194660754 -4.17274935682563
48.34405173920216 -203.80764922162552 -4.176288620987615
45.18659745647234 -200.4128478270043 -4.080660781901751
45.183183038879676 -200.25542456178263 -4.080009559589891
45.17282865950502 -200.21201157698815 -4.079963513502106
45.085236810743496 -200.15175675451587 -4.087147436470203
44.6815113118783 -197.6712612700818 -4.0911972083262675
44.59411359951737 -197.6943036014221 -4.098208449976084
44.49944134436213 -197.691334375133 -4.105749365668581
44.39946161674575 -197.65558029532164 -4.113078062953084
44.33003027489881 -197.56883293309488 -4.117417111889774
44.3034192727635 -197.4895539229232 -4.118655181414152
44.29070740971048 -197.42294844287568 -4.117995435519086
44.28114596482625 -197.35368785001864 -4.118348621700564
44.27335262462545 -197.2787184771316 -4.1171718182366925
41.64035753552669 -209.12249053616864 -4.167606430924048
41.597908478182575 -209.14563871599842 -4.1735064639957
41.4801220369956 -208.9955350291893 -4.082509403042048
41.55377034235916 -208.63174625899012 -4.083464731241214
41.43016491718275 -208.90682844118464 -4.096862241689879
41.42280094537074 -208.7980294555567 -4.103335907525928
41.457218595718 -208.7007201674564 -4.100424539028767
41.515059873597345 -208.64579786637455 -4.0908243872576495
40.741509112054594 -211.57410153111965 -4.089732180764668
40.587239942039446 -211.66535770192073 -4.095829732988658
40.62973629410884 -211.56985477156925 -4.102304927849357
40.43606875694744 -211.82821601553718 -4.092065270327963
40.45927050635441 -211.76470473579568 -4.097297901894463
40.5129900422747 -211.6825405040543 -4.101521116101743
40.37019998759708 -211.92693036565294 -4.086628186042833
40.38022162321654 -211.83396118680236 -4.096849344105735
39.510966304459444 -205.58781689275213 -4.127695946736174
39.552818925906834 -205.5655081350921 -4.117519539894625
39.404487619334574 -205.6833622830967 -4.160643362739826
39.45965367586719 -205.64697793462722 -4.1460222348723725
39.32363452758849 -205.6959114685152 -4.142800114260312
39.22933896676699 -205.69005513323992 -4.0919885660148285
37.695804015102695 -212.35043691109243 -4.174977071858631
39.129168000343455 -205.66241832738942 -4.099554414275819
39.06415877218409 -205.62325399646804 -4.099032177908416
39.02659918238725 -205.54764702986282 -4.098426002804835
39.00042241741567 -205.49536135264623 -4.136352431570658
38.99142700237244 -205.40911845249008 -4.1595374498285045
40.18125883272341 -199.81926870537464 -4.1566775231285735
42.33651475507219 -189.39022335810387 -4.093366115449734
40.03235584526956 -199.97325607314838 -4.175249036720178
40.0659525527817 -199.9496390728964 -4.17137383694325
41.73408330225343 -189.96621194293985 -4.140820702450828
41.64503966122191 -189.9082075637461 -4.1441473996814375
41.46635035641675 -190.22776578109557 -4.161563686363214
41.62386728657031 -189.67903863349886 -4.140841311674213
36.96835715806302 -210.85752364536626 -4.139108918491153
41.51491556924085 -189.570873607486 -4.144469143923026
36.95477297723177 -210.79290510850495 -4.150278053819617
36.92363606604435 -210.74327172589764 -4.157542532812482
39.41997969554173 -198.85022526645218 -4.147439525818873
41.29468342513132 -190.12797888995735 -4.1694903585870176
41.447076469118976 -189.57971051187343 -4.147718505979417
36.83663252785722 -210.72777585770936 -4.154801495048208
39.31695439944791 -198.91402188266224 -4.15671304663876
39.38418986568562 -198.87230253945643 -4.150364280355345
41.24394688500099 -190.05295202078852 -4.169872434678991
36.71512651964444 -210.7255492372865 -4.146853514984862
36.75190106230037 -210.71823507170726 -4.150724182623418
39.239660234568454 -198.8896331116722 -4.159400776677413
39.19539517768562 -198.84543904389892 -4.159003510075931
41.15633766430825 -189.79043345194856 -4.168575063440214
41.29270264057075 -189.33212180959387 -4.151235595835866
36.619304108962424 -210.7578438340598 -4.134134143646622
41.136749105519925 -189.49033914085942 -4.163357012030136
36.4686113106062 -210.87026072030034 -4.103021194755017
36.5237579495855 -210.81970420247416 -4.116104265021612
36.32813851317892 -203.39875164240598 -4.1451155675555205
36.36753989519607 -203.3325353371099 -4.138768340100777
36.39301891540874 -203.27987436594876 -4.133465451271461
36.24023094496514 -203.4148202664277 -4.143989157555949
36.14520522161842 -203.41819864432074 -4.140922777381669
33.636157311596776 -208.38159933813577 -4.175473042995807
33.427518803087466 -208.7140801625085 -4.137502396198996
33.53660520756037 -208.33969177586934 -4.16540516516938
33.317214611832256 -208.78342395612725 -4.121650472228315
33.40038500257708 -208.7298604328794 -4.133701502408152
33.37923932658977 -208.64350348992343 -4.135146688750396
33.427246536480105 -208.42308561489662 -4.149728638567045
33.1733392681807 -209.0704536162159 -4.090343412073814
33.20745329587398 -208.99958270341048 -4.098062747084383
33.232710863421104 -208.9109755891335 -4.1056068925996865
33.25041368907923 -208.8384244912174 -4.111266378291702
33.27698376082368 -208.57639714190225 -4.126190443003386
33.191584212020075 -208.54958813492868 -4.117472014188009
33.05482119717891 -208.84082198577434 -4.088640493016046
33.78190155059591 -205.10203159505227 -4.148989894498348
33.81005121731332 -205.06447366367217 -4.149312415627698
35.81969093386948 -195.60483002092408 -4.086962890786692
26.330775562114752 -239.91304426626766 -4.125480452328656
33.206749638422146 -207.47203352212804 -4.147711898493923
33.56428036647851 -205.69054991595775 -4.158546216164568
33.75636957928831 -205.10890249286658 -4.147238666927326
33.78245014438869 -204.99106575122914 -4.142404099757946
33.73632498810541 -204.91553056914142 -4.133490347917551
33.75137279302792 -204.82032939950489 -4.1286770052427055
33.774370942434686 -204.75586809011773 -4.126484782548144
35.650359218907525 -195.84523574293672 -4.103450232449844
26.236763412444592 -239.82602229591015 -4.13117794068658
33.04923476868143 -207.6306738937548 -4.127015775366806
33.121078837197494 -207.53654763563463 -4.136950447672299
33.142369969326055 -207.4205387962513 -4.140787596392042
33.33065611050177 -206.50067698609195 -4.158785602430492
33.34742793477082 -206.33550055097845 -4.157299380337501
33.3578880897148 -206.2907680124491 -4.157279654898485
33.45433014235091 -205.82853527117817 -4.153120972150061
33.5268926115391 -205.7202409787714 -4.1561659378148885
33.586915844724565 -205.18082837580107 -4.135639059037862
33.72611856521352 -204.80242872118407 -4.125335351015114
35.58278274260054 -195.833868034369 -4.104121254604976
26.17725340310842 -239.65956918115452 -4.136611765587398
32.89481271308232 -207.93798013982814 -4.102431179075836
33.020613811993286 -207.70146060539787 -4.122392356804474
33.02093295459746 -207.64254172128383 -4.123667012832724
33.053267731494444 -207.576315483819 -4.128590679827179
33.01101535877244 -207.33105214062132 -4.126503248264675
33.05933892776826 -207.11319415459786 -4.133180016663462
33.26698307076548 -206.44346674508424 -4.150657833719729
33.326485008732845 -206.23118572411366 -4.152350533024982
33.27150080385992 -206.17227393930764 -4.145042850423252
33.35496947509794 -205.85496654911302 -4.143824975819818
33.33067543710699 -205.79362904970876 -4.13900690716209
35.49897694413323 -195.7568643336828 -4.101337095157333
26.084576530079886 -239.5635977550542 -4.14253566566507
32.35469652388555 -210.1311546790614 -4.155257455077608
32.353261962285345 -210.09666381230306 -4.157283936257524
32.92775821769098 -207.2631625504605 -4.117628943451579
32.939789129020156 -207.20725247535518 -4.119156067262073
33.0408571578382 -207.09140884479615 -4.131287274015454
32.991298497981504 -207.06337311691047 -4.125481785355748
33.145141862591544 -206.3864850268668 -4.136441461850319
33.141272676042796 -206.32516599989188 -4.134645696692418
33.25526071996422 -206.1066522863982 -4.141574364270762
33.23658825766827 -206.03271695141666 -4.137320288018828
33.24970055490502 -205.94401669264465 -4.135974453649681
33.276648051688305 -205.8724687492056 -4.136330118096876
35.43754967097006 -195.68919793924084 -4.0982996536351965
32.20480931094436 -210.30287205340142 -4.132966705478363
32.21729921473785 -210.21461986112638 -4.13968709594589
32.320261417505975 -210.06149700423924 -4.157007255337514
32.8772004549652 -207.02373617961945 -4.112682627463246
33.13801078717901 -206.00079453894952 -4.125932038352975
33.18854520908747 -205.68744953117374 -4.120471670841972
33.19941312173093 -205.63948097002745 -4.119777882861328
38.377625266667444 -181.08247726821838 -4.094026005812038
25.970139485280228 -239.5336897192887 -4.14541672967836
32.13442260513662 -210.36505289430377 -4.123595566564447
32.15082421639522 -210.2740724979382 -4.1308269940322235
32.193416228876416 -210.12780902387522 -4.143414547608502
32.79251925387983 -207.10644285229262 -4.10269752963529
32.826436450133286 -206.96498516982052 -4.1067811063261335
33.15216833986733 -205.61832950675296 -4.114169137555304
25.818632645290492 -239.60277321777002 -4.148001336584754
38.19165125664815 -181.1690367251624 -4.103999986587223
25.678488064864233 -239.65003961918998 -4.149259646948537
32.708729280736385 -206.4073492847147 -4.0888667965509695
32.72945057487548 -206.37112100338462 -4.090566545471534
38.01013854592128 -181.48877746513404 -4.119297965306261
38.10053349210743 -181.26378373510045 -4.110924605745713
32.62046720115549 -206.52042997066832 -4.080558817951427
32.645052306878696 -206.43211526233273 -4.082218859391373
37.91724737995448 -181.38425859195902 -4.121422013591699
31.521555419508235 -209.76711214423207 -4.112879661862367
36.87898860550575 -180.7472650688322 -4.146751023123173
36.78751235804373 -180.7524428631201 -4.151157641398801
23.49100314733931 -242.65996177703056 -4.1175932984505135
30.6400751251746 -208.75785763232906 -4.088231597244921
22.811752327867644 -244.93547317617538 -4.06919495892605
23.398059148012628 -242.54566931238384 -4.122200826248857
30.491293295427617 -208.6339909591223 -4.080396400554976
30.608035174853473 -207.56023253417013 -4.1195590112360705
30.558596402697383 -207.6124831269284 -4.1145777025887424
30.59470269773808 -207.5066751152889 -4.1197984156066925
30.62015767861385 -207.42899480635376 -4.1233478961496415
30.587511636818363 -207.34575576956033 -4.122367444623025
30.55457373189884 -207.28845446135367 -4.120552745300782
30.527301260303638 -207.25885093383323 -4.119123778341487
22.927578294447635 -242.01263799436734 -4.149653613504375
30.72268149719877 -205.5153943578648 -4.139470828647013
22.92778351984612 -241.70925020971484 -4.157354580328379
22.811611461117444 -241.66013424215862 -4.162416532225743
28.754947003723537 -211.10371819678437 -4.178426269153499
21.585871245470884 -243.9923766346601 -4.124629377356103
21.453945370867512 -243.9393511248669 -4.130273815535635
21.316920142633382 -243.58622817935225 -4.143545548020362
18.97270515401003 -248.1170718185533 -4.0700689669794174
18.929575558400938 -247.85153640258986 -4.079668715152141
18.892150556913506 -247.58806727901552 -4.0868891267164
18.47802237056263 -247.4104450795319 -4.102657275090343
18.36191487396408 -247.3088292673501 -4.10714309392408
18.362237532550303 -246.97204084101062 -4.117665256052408
18.279944561505854 -246.80794344334583 -4.123130317143312
17.93922107337129 -247.12209205055723 -4.123346992043169
18.52913232947261 -218.18223913060845 -4.14594448268584
18.550887861579064 -218.08404634482645 -4.150275984733044
18.53484023116512 -218.00789345106466 -4.154046252673068
18.48938694387821 -217.94396704140593 -4.156338912095664
18.3663173613191 -217.92082506387467 -4.15696000460628
23.324459060287985 -163.40638109408667 -4.1131964375069385
50.8040675720789 -207.4434957172285 -3.975480302339481
52.24847757351384 -200.79145141086104 -3.9783001259091595
52.276143402079825 -200.65550099777593 -3.9789597937534587
51.665613341174435 -203.02266362707678 -3.975752675807454
52.159028609878135 -200.52662807774905 -3.988087932385912
48.33399460643475 -218.343036337391 -3.9795196864958995
51.571798068924366 -202.9562571736721 -3.9829829690262506
52.09008770937727 -200.50472609870363 -3.993619699932914
50.42134586670386 -207.79396413168809 -3.996394489329851
51.79449821250527 -201.43696422002594 -3.9954952563779464
48.11057946363044 -218.39355301269595 -3.990660689755847
50.54882900134474 -206.6578800770237 -3.997761568683441
47.99535250250639 -218.34289111104485 -3.9980231444430063
50.510239195616975 -206.62042411170395 -4.000403937211135
51.00044902752976 -204.19983306004067 -3.9986471748211323
51.264274414153846 -203.02492803711877 -4.0021450824452955
51.55380900071407 -201.50003167925863 -4.010533495921996
47.88742944501468 -218.33281313763027 -4.0041196326858985
50.1616868164182 -207.5998526493978 -4.014274937917919
47.8041050759253 -218.34849633499428 -4.008309632393949
47.56970939430723 -218.89091400973916 -4.008845196023029
47.680804408881365 -218.35542411147173 -4.014835306967907
47.731852760754585 -218.34150524157724 -4.012369712275278
47.510773372724074 -218.74166090617908 -4.015363056065113
47.478494111660986 -218.63253295862825 -4.019550317238477
47.54252761804082 -218.45212350173895 -4.020147364664401
47.60926631817679 -218.38348896712964 -4.018074377696408
51.26023518337991 -200.84959317935943 -4.041110065532402
51.47507064048836 -199.93899433989702 -4.042864342847875
47.4725980144205 -218.55311489701964 -4.0216496527178265
47.48979693466335 -218.50112158534856 -4.021889956824026
51.279324788098556 -200.60411799188518 -4.044274851072337
51.27536085502996 -200.2479884629695 -4.050930312747978
51.06426230324155 -201.01506273870444 -4.050178305452446
51.30547030636601 -199.92009249464013 -4.054164559076311
46.22619002732635 -223.14092742397204 -3.9710478094889976
51.09124032766185 -200.2989284946384 -4.061261167089798
51.11980138763145 -199.977786311274 -4.0658131470472485
51.194821900887774 -199.86865298452994 -4.06225638173456
50.87371781452903 -200.78080066534187 -4.066696447959226
45.74011571459731 -224.04659458682565 -3.969529702023579
45.81554635644553 -223.71127542154267 -3.975165089329748
45.89018105397915 -223.38908966228348 -3.980400750725312
45.93216655350313 -223.3394237423499 -3.9796575577978466
46.02147812351092 -222.93526517414122 -3.9862773802897378
45.650286390951244 -223.99770371261152 -3.975124734932225
45.768770318897424 -223.40811476248115 -3.9855763289841706
45.799655263402926 -223.3354185624652 -3.98598267906222
45.889168686205146 -223.05730811949547 -3.98928281061861
45.91570394593546 -222.91866973191173 -3.991776891901954
44.71271813366468 -211.92201079964332 -4.047313231264356
44.63925268738518 -211.92189125486124 -4.053879109477881
44.50174881314684 -212.28785750076318 -4.053208589353052
44.462612129476206 -212.1986931802901 -4.059890580240541
44.47299601230921 -212.07020716110875 -4.0635931124968865
44.5252858461823 -212.01364454571225 -4.06090384975043
44.58686093873838 -211.94781683763802 -4.0576907641720945
44.44191532888754 -212.10993731935983 -4.064897561423557
42.413024434642594 -209.81130643258217 -4.009279722902064
42.446056278084214 -209.7442428023342 -4.007558333251338
42.48093138055249 -209.60164561070167 -4.00913193696897
44.697564183393716 -195.500216529236 -4.05649988469914
41.59499280280698 -209.1401775742427 -4.0520018950998695
41.6348510735406 -208.59702456762815 -4.068239499011298
41.683008512245955 -208.59365870298646 -4.058549406921951
41.520116352897794 -209.04908498459426 -4.071782503323968
41.60977311551521 -208.60461770602942 -4.073041512664457
41.434062856338905 -208.96011211263004 -3.977077267103291
41.40780453730567 -208.89627386331105 -3.987002730301531
41.41199869845499 -208.79653289551965 -3.9914873185558997
41.46130279644755 -208.7024506328734 -3.9844404974574856
41.5019204854202 -208.65553480772385 -3.976877772320171
40.39000942307229 -212.01563675464342 -4.073995914137408
40.43477177358238 -211.53244090539005 -3.9821680987579953
40.37750744205484 -211.57299323832373 -3.983043860260886
36.97910278226844 -220.2229972973684 -3.991396432331205
39.5066879559386 -205.58792312221792 -4.026958739059954
39.5241241313385 -205.57256726463504 -4.020947323056321
39.40179773526091 -205.6802810103307 -4.063818897714848
39.462161928716085 -205.63192494730038 -4.0437248535666575
39.35170641027804 -205.69732205878995 -4.0753867192296696
37.64340917105597 -212.26025883008168 -4.035034380774655
37.61848531694058 -212.18831254742074 -4.0472343750058
37.57411304113915 -212.15169289482716 -4.053437338822333
37.532378190194905 -212.10502596188638 -4.061272429778183
38.98878926322189 -205.4471471328242 -4.067501111209315
40.46718673923217 -198.33983150681954 -4.05360259398674
40.46781509691846 -198.1746992525062 -4.04462188460005
37.43657567222514 -212.10810059935022 -4.0603864683473505
37.47891947308503 -212.07180160776898 -4.066695003151937
40.34985693383592 -198.2337754725251 -4.055307791898051
37.38236539049864 -212.08699098728016 -4.063578543161755
37.36848664387839 -212.07257569784423 -4.065910067058408
40.281683769360875 -198.40330139149458 -4.069759661118946
37.23381023400142 -212.05661617066895 -4.067191894884512
37.29081051710999 -212.03910817531872 -4.070762567585856
37.163512206672095 -212.09011873064586 -4.060700891141816
40.180037791059355 -197.81579400820266 -4.04237655107304
37.097009173721055 -212.13407829591162 -4.052394359103273
40.06847001082917 -197.8411296256732 -4.050609616334052
40.128270855075 -197.70349050009762 -4.0394206735144484
39.98146053672587 -197.8300796598842 -4.055473343073315
36.91750949255616 -210.79547758169562 -4.03385493561516
36.88973741383812 -210.74172183600356 -4.043244723233306
36.813651801997835 -210.7462997526816 -4.035971731624019
36.861407622144704 -210.737473170672 -4.041859339063806
36.73339764304491 -210.75305185128988 -4.027568184470796
36.59705194303992 -210.82308861743059 -4.000583591516486
36.540436308492424 -210.81539569646915 -3.99679975396903
33.79613784474868 -208.10072949857917 -4.039637230439231
33.7288230278259 -208.15485660055882 -4.027763947518764
33.73785503127479 -208.12273679942618 -4.0300970751872836
