ply
format ascii 1.0
element vertex 832
property float x
property float y
property float z
end_header
31.58023602628736 -167.4623915172656 -3.28327574024775
31.383852465713687 -167.59646204962505 -3.2735067156800395
32.34289070195408 -163.66833091975747 -3.278077124097369
35.551597869723764 -149.9048152879993 -3.2796517953767377
35.45810381381076 -150.05867382138385 -3.304669121347594
35.502313017382185 -149.99581006334537 -3.294048881678634
35.54571993723844 -149.74553851772697 -3.2608921843433887
35.36127021633073 -150.06360618460707 -3.311999737489489
31.8870616746726 -163.69202942336528 -3.259863192175691
31.89023122271551 -163.55724785632214 -3.2714150611657584
35.255982809790716 -150.0557797346058 -3.3183583374089904
31.823593619427005 -163.6727944830757 -3.2591550491988426
31.795951323608858 -163.45576240186327 -3.2762074405820116
31.86277658056494 -163.30421722288773 -3.29113256669448
35.1631934852768 -150.00224634220942 -3.3184400088775305
31.69409828161037 -163.35727530359713 -3.2800925278470956
31.591399280160807 -163.29599142922905 -3.2807591363764144
31.58433342885721 -163.03232105649582 -3.3002934646639677
33.79629674274662 -152.30789378923905 -3.3236726666454635
33.77900043297289 -152.246275555781 -3.3162455354723477
35.22255193719054 -145.6176743019323 -3.273706957471963
35.11808884029836 -145.06774309220347 -3.232774463968845
35.075101329036315 -145.0967741371363 -3.2395697504932626
34.826947805414086 -145.02577431074113 -3.257117843792061
27.278699407035397 -175.02221169473495 -3.3223449877671034
34.755010258659 -145.05336787564138 -3.2666762131569076
33.87587327464596 -143.73599947130444 -3.2294186422232034
32.64697837237337 -142.60509159108219 -3.240953242439592
32.67585477981691 -142.52532939159636 -3.2312238362029833
32.53572320991913 -142.65351628616497 -3.2555458427494464
32.23439551254073 -142.8820472865056 -3.303427213224372
32.28349088444618 -142.83941320218705 -3.2953528807221497
32.2492666476852 -142.28699540299058 -3.2487212651934643
32.14968565849226 -142.2989576804702 -3.258936417069016
31.85145341923402 -141.8400614303775 -3.24457140051066
31.6260270984641 -141.83715003821436 -3.264788555880148
29.755469655361445 -146.38579857264455 -3.2315641124465033
29.670504598188998 -146.36895879661506 -3.2339402169116576
29.574983409134077 -146.39306360776854 -3.2413893460843095
23.63340903201317 -167.80113437713783 -3.269068028343991
23.582763168317918 -167.75404329744947 -3.2714591390732646
23.354085709977806 -168.18419963731526 -3.242038786505616
23.344335045615384 -167.76837449674764 -3.268326532006037
23.382968284521827 -167.63445072149383 -3.2770255969830657
27.09004918294518 -152.44668023438192 -3.3233139691409264
27.028327253889778 -152.35842117550573 -3.3157587089127807
23.21807938919544 -167.49531512610278 -3.2836009665296495
22.942702937831847 -167.4075001285148 -3.2857895973087925
27.241741955423073 -145.2471442842094 -3.2356121950994026
18.15329529880425 -166.52515425422877 -3.2525591204469597
15.64608058506705 -159.62393168980222 -3.292888986533564
15.593458790301664 -159.71345725765045 -3.29198211592601
56.50241173716926 -170.78620085418865 -3.2071007102476496
50.57092858660112 -171.1435251052524 -3.159091262222217
49.97620125618114 -168.96213622330598 -3.1712279966471266
50.035684357911734 -168.50474581000583 -3.1536120513683823
49.86504480017592 -168.9136440066518 -3.182435029761039
49.86005472368813 -168.76914059425374 -3.179473398309461
52.41188813042391 -158.17866094113307 -3.1503483690240444
52.42368995381407 -158.11485378103396 -3.148902809213055
49.75100697948909 -168.58576334841675 -3.1870798289578373
49.74331372726865 -168.44529117290986 -3.1845378016914285
52.30891799318853 -158.2669906612798 -3.158382405841026
49.665539314374705 -168.4292873111846 -3.192813714999853
49.69675679170197 -168.33130390741286 -3.1869913573988438
51.76992389407053 -157.7444228435492 -3.1911863432736656
51.68901704440819 -157.6911750046544 -3.196426956286528
51.65031824542344 -157.59545026362574 -3.1984342370136734
51.688937982469575 -157.49235860062203 -3.195031456930857
54.09797352265726 -147.21215187982565 -3.135812932769389
54.03905279164334 -147.14028876456916 -3.1416015311600987
52.057218010579746 -153.614528962199 -3.173062380944279
53.63692898605581 -147.36101677577793 -3.16877185058011
49.27515729694049 -164.43766189663128 -3.145856568823061
49.32810700423316 -164.35978826879912 -3.138550877565484
51.99929805851567 -153.59157410140193 -3.1774858439388134
49.221620127590086 -164.44796950910913 -3.151787044934194
49.216062880471696 -164.35538928683093 -3.150502561729319
49.08434968280943 -164.4667589178451 -3.166993983751491
52.01000037568476 -152.7673714230528 -3.2160122454065423
53.54768026735052 -146.65798626046916 -3.189567387239237
53.51438653729232 -146.43884069741028 -3.196577538476074
53.53175387636307 -146.33434647206627 -3.1975191885825436
53.51416074134251 -146.2631348108678 -3.200290582786061
52.91828937614942 -147.15403016470742 -3.229153159747146
53.21392040874487 -146.02320424614484 -3.2296467626363894
53.244867373118154 -145.90370352529894 -3.2299254845403773
46.40921799758069 -165.658876551438 -3.1612834157655936
46.262185828784276 -165.8093521070049 -3.180887361102771
46.26813379509303 -165.74101432393326 -3.1802059565418155
46.323569183289486 -165.68183342799222 -3.1728206657380182
44.030843537250654 -167.3096300018594 -3.1434309145252732
44.05438038528931 -167.28156720867545 -3.1409905413912815
43.975158495456455 -167.33870932949355 -3.1505202634175347
43.98764350248578 -167.28745836770392 -3.1505403191114283
44.70879670717751 -164.1798747461477 -3.144468575461187
44.61559536002705 -164.18001485788187 -3.1591100705606197
44.514647425417365 -164.36687150164923 -3.1693346889173597
44.523942076244175 -164.27880916682741 -3.17053096247321
44.554218895888724 -164.21992199688805 -3.167557998370617
44.65455781326258 -158.8012109724011 -3.2312930985440436
42.929839259496674 -164.67847043796223 -3.167492640138351
42.93453221134312 -164.63478451113525 -3.169701588414297
42.889156949946944 -164.6697959955845 -3.1746473150103887
43.26279967944356 -161.70843174950875 -3.139771393386458
43.14432368248748 -161.74464584623166 -3.162156837140871
43.17364059306458 -161.70706477701842 -3.158852075992275
43.222596731839246 -161.60727125173713 -3.1559640148245904
43.074262941800626 -161.76387709351403 -3.1753761315895876
42.91367237294182 -161.77707109030092 -3.2077721934245873
42.97083979459364 -161.77762933236693 -3.1958749215047173
42.78793224554406 -161.85705773096925 -3.2269274410443742
42.84053922696633 -161.80163282452904 -3.2208028605376575
42.81247050806427 -161.7434207005223 -3.231401649901261
43.31555326633155 -159.9804263518859 -3.228364139404202
43.36403208163455 -159.81331398020495 -3.2221590822939445
42.77532530252903 -161.87514979966167 -3.227955624204898
37.06287619607619 -169.76366390781493 -3.138867233097777
36.98197613755467 -169.69038956908906 -3.1542814778828134
36.883823477999 -169.67067707426352 -3.1655722759056193
36.77811098125211 -169.6836277586511 -3.174017659502348
36.59241315370663 -169.79905838568186 -3.1789173388562935
36.65464408626866 -169.73956292104165 -3.1795484796068223
36.70707063511788 -169.71033586766072 -3.177714817014181
36.458856515920495 -170.06383043569713 -3.16352489662244
36.26037150573865 -170.51084645248588 -3.1348142982651135
36.13582799599308 -170.6055468912593 -3.136150531320123
36.1038079196349 -170.56702810558951 -3.1431015459009686
35.98821845878159 -170.697820969185 -3.139761141320128
35.90662428733698 -170.72174311937272 -3.1444179249054827
35.817147183294665 -170.82944823977888 -3.141246182753389
35.834204898978506 -170.65723411257412 -3.1573853997548733
35.800154036011016 -170.50622456353835 -3.175856748461836
36.00594471566471 -170.0803058169586 -3.2019147375207555
35.6673930626881 -170.72917535717926 -3.1645266594178123
35.764295153413975 -170.23196499384397 -3.2071072772965343
35.76349335997191 -170.124573939851 -3.2180358419951327
35.37709731665783 -170.97206894666857 -3.164400193834364
35.44399341019097 -170.45262121937105 -3.211475145768606
36.8469113200369 -164.85686518499642 -3.1579261367621863
36.845521858732276 -164.74096494578438 -3.1761618998289505
36.79283526344772 -164.73546484956466 -3.178841131758759
36.82209774210079 -164.63778051540532 -3.1929976860213487
36.61510034698331 -164.93796080413605 -3.1532006478125334
36.31667366264429 -165.08601856694898 -3.13927065529483
36.2531160980773 -165.08788798007424 -3.1406971865735587
36.26943082342761 -164.94279340632315 -3.16214396878083
36.18836818977522 -164.9509396657937 -3.162893471313721
36.200980859035745 -164.9318505279747 -3.1654108984825617
36.12406223485769 -164.95402268485833 -3.16390421552168
36.11530279624339 -164.89815482224583 -3.172363186862535
38.22253356990432 -150.527260421246 -3.1321526132221016
38.16652528687611 -150.4888472261055 -3.132695787059097
39.68513513321261 -144.23556842978505 -3.155276035897944
39.557366439343106 -144.21205934996559 -3.1700958344570394
39.619629952767994 -143.94444050487894 -3.1453142413196167
39.39127988949395 -144.3578470787576 -3.2002621714541903
39.483277796769336 -144.21472338520914 -3.179555165149404
39.289822782976536 -144.3482251537677 -3.2124427670958062
39.328935236395274 -144.1915902440585 -3.197781815746484
39.4252767737513 -144.10385314713844 -3.180054883695937
39.12578116857985 -144.1717599666077 -3.2220970473135964
39.20005288736941 -144.1492486091225 -3.211231880012442
33.04545210095275 -167.8135585707273 -3.211021796078365
33.02524866188087 -167.74261194646806 -3.2195165013355975
32.99048662599452 -167.6877571542306 -3.2266256045253807
32.45652187612997 -168.6856252503862 -3.1323481395163535
38.84606470129899 -142.8581533047855 -3.1736818329025454
38.77438067476789 -142.98297937624253 -3.190660055117892
38.662248893391904 -142.97275805786444 -3.2039934030127037
38.56981916979714 -142.88284381352358 -3.2099350232499493
31.952153065731903 -168.60359694816088 -3.1562675148639494
31.893254136321207 -168.60357032572222 -3.1579333541598107
31.914600538765594 -168.51183326711296 -3.1671811950461626
31.808906678326444 -168.53041704677383 -3.167994742208163
31.68521661167945 -168.50116000621435 -3.174239027644319
31.764304642264257 -168.47738629009683 -3.1748286068362632
33.2825189559845 -162.00236012596403 -3.1756800818842947
33.30737362373492 -161.96147239863438 -3.1810805441541876
31.5778807363504 -168.4864203519973 -3.1784367005030365
33.215326521899186 -162.15240813771064 -3.157645669329765
33.1554587880525 -162.11979130693734 -3.155923040823331
33.23567835815479 -162.05219555255945 -3.167887241729987
38.31583876710448 -141.41950016580284 -3.1488133848270676
31.557055535859526 -168.44111585975926 -3.1837566650250206
33.17705284954717 -161.6698873982393 -3.193897198310286
33.231089003263925 -161.57615978599512 -3.205267234832556
33.22068876764761 -161.48187624413845 -3.211181318263442
38.229985987591036 -141.46541908314282 -3.1622358408352795
31.46159171852252 -168.41161549598377 -3.189074092170432
32.935956020995725 -162.10141226252983 -3.1405706131607993
33.03760060585634 -161.93515932849962 -3.1621152704750353
33.04548860530218 -161.78319289841374 -3.1747026160913383
33.167642743924134 -161.40262614527012 -3.212268443288573
38.12686567183127 -141.39422134869878 -3.1706214164996545
31.30338282147701 -168.45102657228784 -3.188551453020454
32.935736226520234 -162.00946859655255 -3.148139809927412
32.93593012996233 -161.91958428644668 -3.1553146707535817
32.94446961874451 -161.8558172186978 -3.1609538905280417
33.086876121748865 -161.39115760053338 -3.2062355076581195
31.226259497225392 -168.39869998186973 -3.195626303361174
30.152347692109597 -163.50089249309067 -3.203495346284843
30.17602583335495 -163.40550439862685 -3.2111849261494694
30.18239828642117 -163.3166312182649 -3.217539820618863
30.173292818385363 -163.25769139310913 -3.2211054839729547
30.148962434551507 -163.227773553424 -3.2218995726928434
32.79891461764938 -151.069010811032 -3.1890980854879416
32.88505189882544 -150.78314372260297 -3.150887913037147
32.775829741098335 -150.9376278123239 -3.172906534037307
34.45086136775803 -143.94807439142096 -3.193826152698514
32.73223404706709 -150.67738482559994 -3.14078776156184
32.53940450534164 -150.96988543650653 -3.181990524460475
32.484876733491085 -150.80553543300817 -3.1624173751736318
34.29377863625127 -143.40051017256778 -3.1581645934921614
34.15207687532308 -143.7985321500365 -3.208830735777078
34.06772188903178 -143.73811944241913 -3.2112098592588145
33.92517797371627 -143.7043586049992 -3.2216937964289336
32.67227683481015 -142.37279093717456 -3.217556837453305
32.29608985489077 -141.41531898942083 -3.165616584941615
37.55995040494421 -116.44240550964466 -3.15470214950271
30.208301070287774 -145.67927901808812 -3.1314603687217595
37.4220141649435 -116.5756316483677 -3.175573552298367
30.117263623996486 -145.84085117692047 -3.153891725712348
30.070623146703927 -145.64298231445648 -3.135036828751505
29.84312193086503 -145.95476871113033 -3.181141315629523
29.957451671285824 -145.82449194229213 -3.1608094198724412
23.599204578393394 -169.62542152964087 -3.143391994872194
23.452582395510852 -169.63828998000253 -3.1421327919742033
23.120773708310534 -169.18652016177168 -3.1731263896151525
27.76369613196435 -144.75821505167613 -3.160753913280656
27.778886199233078 -144.67787722572285 -3.1518900275508486
27.6698725090491 -144.8531864979208 -3.175129687530806
27.727283779535746 -144.81754676493225 -3.16889390542837
27.785137875471438 -144.58716907175076 -3.1419156638905354
27.585209262746275 -144.85710815660383 -3.1798352269741033
27.432204596546924 -144.88354862129916 -3.1898570573694642
27.508550725115715 -144.8676485016804 -3.1843706560434377
27.279154179316247 -144.81838113172378 -3.190205772639444
26.77839014715262 -144.47698854022505 -3.1789545463315365
17.023912628216266 -166.74072993189134 -3.2219708750346707
16.19573227560506 -167.7799664381672 -3.163395666044882
16.112868998962423 -167.71828068055038 -3.16438461157201
15.710111661132508 -168.06136796625137 -3.142195929657543
15.62920524465687 -167.60653137584023 -3.160202699379524
60.945873475427604 -177.3333142853962 -3.1351238502351206
61.05904742025267 -176.03799452425145 -3.066482107724072
60.69121687847921 -175.03181342084406 -3.051825216892121
55.33931752331768 -165.02160158474632 -3.0824525496892106
55.1151642301588 -163.23648023923573 -3.0483828482003297
51.42877251476705 -171.1318662728072 -3.0628855166697573
51.19601721498219 -170.49354178292302 -3.0731118931760646
51.041441405033474 -168.96446402776016 -3.0534707718069827
50.9733743388169 -169.07680918075917 -3.0636058994049646
50.990128695364874 -168.98687637376435 -3.059606371205443
50.93081665524186 -168.57888936231086 -3.0566135344936765
50.97427493556475 -168.4178672565072 -3.0480393160859345
50.827948064848485 -168.5523021658199 -3.0672664579265083
50.61139754772915 -168.8312133936888 -3.0977750189613236
50.399087954114925 -168.7631136276648 -3.119617649628708
53.54019799896041 -153.77779441815312 -3.0634074764800525
54.91843457952068 -148.27618891249136 -3.0565335247758307
53.503062268049035 -153.63447264703615 -3.066986830367184
53.59651317499577 -153.5442024673355 -3.060697050389267
54.810752493712904 -148.27690263352977 -3.064333368166531
53.36465019600705 -153.7926168650288 -3.0761253687026824
53.425619202006615 -153.71701879434434 -3.0720933681274216
54.80115569354379 -148.2089364859601 -3.0662168451900738
54.825674568931525 -148.1136867575503 -3.065605849735147
53.40806056582727 -153.4579285680751 -3.075064047689353
53.41706775385163 -153.40025115967686 -3.0747651161224328
53.44144158111667 -153.22834904057072 -3.0742553334390794
53.27243308613322 -153.35232793214914 -3.0857054448265604
54.693756974966 -147.21553628026322 -3.090005435453987
54.484352054062995 -147.2197594942311 -3.105954198878817
52.98123608563424 -153.00429419598532 -3.1099767840625745
54.2911293431139 -147.21365273018677 -3.1208984179801984
52.62482999867938 -153.6718510795476 -3.1309159967375804
49.64277983095638 -164.20111662495805 -3.1015665991139243
49.48841290269983 -164.34939079063096 -3.1210688913820355
49.513940345370216 -164.27731046352727 -3.1169379717801284
49.57504631946624 -164.22662325282292 -3.1093155992930717
49.3857534352246 -164.33037751985387 -3.131780431073783
49.40823184195244 -163.06517196823938 -3.105124878919884
49.4661227058375 -162.93574341315647 -3.096667768606632
49.39714043153027 -163.00148127214163 -3.105181623326981
49.50010366824321 -159.8748707892599 -3.0469810691048167
49.546518043319985 -159.6482756181452 -3.039436069733143
49.45536397411689 -159.80338303685062 -3.050811082047553
49.467025390763254 -159.72331866642034 -3.04865081266961
47.04020333053789 -168.83514266952383 -3.0699263020532395
46.91992586983419 -168.958877197175 -3.0856642879811123
46.94824823924198 -168.88502952595084 -3.0820908132602236
46.99284992291872 -168.83830327683 -3.0762689228342834
49.090204003165184 -154.70248939576553 -3.068666378472017
49.038283217048985 -154.68754482901906 -3.058187189956736
48.95512477378906 -154.63935085874905 -3.0691025750114855
48.92162322184965 -154.58645107027104 -3.07636308544397
48.94544042348218 -154.45406246891847 -3.081174727865717
48.91429189096017 -154.52604006637304 -3.0849949979289004
44.325078866275966 -167.1349657726873 -3.1064073119738143
46.78971624016767 -156.95828241490767 -3.061623480174175
44.16347674521781 -167.16757578913143 -3.129046965754476
44.22491141406856 -167.11178213205517 -3.1219921168632547
46.72463657280152 -156.9286571199143 -3.070167184772699
49.028894652289814 -147.62930026567867 -3.0458199969882163
44.13056348651222 -167.2159846077719 -3.132162094707099
44.782467755005406 -164.21143920453287 -3.131960351304108
46.66656358601949 -156.85947954387612 -3.0770514181013975
46.652036795187 -156.7791086463508 -3.077651312281232
46.69600850467598 -156.71567475292412 -3.0703821179129154
48.92540115227719 -147.64441173678046 -3.0571256318630473
48.85672363000722 -147.61119268985303 -3.064660598755353
48.81685571316217 -147.54031378010365 -3.069029927968347
48.79744141300873 -147.44280850915575 -3.0711871939811637
43.57303082284263 -165.03290144762838 -3.0383899770045186
43.59078374674955 -164.9630535314474 -3.0400138004413737
43.629146058249994 -164.9297952356613 -3.035793177145588
43.095797651322926 -165.23714228175012 -3.1026606349884096
44.533831590153326 -159.02963250975498 -3.1002678518022337
44.50935261273817 -158.9904500936443 -3.1052810423765758
44.49593683101982 -158.92197067925397 -3.1077317954016443
44.54476631620579 -158.84850832650648 -3.096860948523658
42.57730103300184 -164.09567330818624 -3.054937645310324
43.03581549867197 -161.71371684655034 -3.0386614871608226
42.95378511352767 -161.71765167186268 -3.057489679838517
42.831691974248365 -161.85802484837347 -3.0704018555393704
42.83507897284025 -161.83977207173612 -3.071650423091035
42.89351754844097 -161.72742364164816 -3.070490521804616
43.28475420396095 -159.94513309009986 -3.1168640511784247
43.29264506215196 -159.8559132696288 -3.1188073996190835
43.37073078356858 -159.81705557043102 -3.09886301628823
42.43629683590855 -160.84459550387456 -3.0433685131024117
42.42689107327821 -160.80559186973142 -3.0520099095840445
42.36308593042272 -160.86097101531288 -3.0624934622439914
49.690432442387966 -131.41702684720926 -3.0281654606086525
42.30205958077345 -160.88067822016146 -3.077309930528703
37.816646938399536 -170.03842763206515 -3.034764019298385
37.82198234903965 -169.8317615242142 -3.0563921018365328
37.70269260294941 -170.00162914122944 -3.0503461214630834
37.803161340630155 -169.73592616198061 -3.0687178466101708
37.58408602388631 -170.15473606824924 -3.045965983725087
37.55180112433575 -170.11046078102157 -3.0540601113189254
37.656017014062506 -170.02591246731572 -3.0525770972161568
37.50331140118034 -170.04271234169073 -3.0661410671304035
37.301270605800184 -170.4337338594298 -3.044544221887941
37.53816366365909 -169.66458900576063 -3.1030631427768594
37.01377735422363 -170.6934174768448 -3.045039878885885
36.99532280503265 -170.59762637980754 -3.0570968157437157
37.13677797152689 -169.9417377223299 -3.1129107635291584
37.11662491111472 -169.8637611264303 -3.1231988603144574
34.24162902157671 -180.2436072896632 -3.088801123447013
34.151787146469324 -180.2766488134174 -3.0957195526776977
36.10448135441544 -170.82463646053898 -3.1163107022886667
36.91414221559264 -165.48300199801713 -3.0552000174064444
36.96099606499004 -165.24832021413556 -3.0910476614314053
36.9842295791245 -165.20332904098126 -3.0972098419273992
36.942251126623624 -165.06744341640376 -3.120858470161512
35.365674445035395 -171.37243604808396 -3.1243801457277622
36.83673735843986 -165.3479653737508 -3.0803076389513193
36.821044590139614 -165.13626333069644 -3.1147004548769432
36.90822384874629 -165.02509465809652 -3.12898880753378
36.75729874049802 -165.14644908131768 -3.115592484945929
36.7353632288605 -163.92598195911722 -3.077891717430581
36.659956623830425 -163.90089778993047 -3.082326946192256
36.63295198220279 -163.8091906178637 -3.0983173112246307
36.56212938186652 -163.86016251673252 -3.089194301067835
36.47502396058202 -163.87627607361765 -3.08597834895856
36.26932940520146 -164.1134530686876 -3.043933775862647
36.326270461215174 -163.96351455715728 -3.070025806734921
40.80829857528637 -144.62920771474245 -3.0358425481504847
35.862395812120646 -164.11770683692612 -3.0388351011543744
35.90352315825747 -163.97484917319562 -3.0629957755733
35.92384358981664 -163.91457216670096 -3.0731728922557275
35.95479901397495 -163.8242702786018 -3.088443397289884
40.709888212487584 -144.62250230632827 -3.048221059306233
35.84188979260755 -164.0857801824331 -3.043770644877269
35.890781270753365 -163.81080948915985 -3.08942801460125
40.63803380054329 -144.56630783280136 -3.0540778220671148
29.16614246820104 -188.19768239514255 -3.042164779805254
38.322593603628405 -150.50581245921754 -3.1193970321830062
38.26958557928376 -150.53325150897825 -3.12824548204926
37.282557669298 -149.1882408608389 -3.0483954874520043
32.357693500531354 -168.7399901844549 -3.1294531050078778
37.18965426147398 -149.12959418021254 -3.049403063733054
37.21248074763366 -149.08694887373525 -3.0419090010331953
38.784511456287625 -141.5563901953343 -3.0991629980910447
36.854470609127695 -148.80132019853326 -3.037701088346583
36.803990583288844 -148.881777090466 -3.0524334200838625
36.81096732012469 -148.79087089816773 -3.0403248020107085
32.43657476138364 -165.93874153559477 -3.041738754040109
32.381964876105606 -165.9382679379606 -3.041147389653702
32.333446992395494 -165.44751030387766 -3.096927553868035
32.90667255353426 -163.08705119328772 -3.045836727403037
32.958039739417174 -162.89088511969106 -3.069471000796004
33.01609815043002 -162.759223058919 -3.0865891263005434
33.02919807467738 -162.62185337971576 -3.1008858240008133
33.03321895781573 -162.5872440258619 -3.1045232318145572
32.15798381624633 -165.93440434316824 -3.0384843184570056
32.154198827003114 -165.74022378274486 -3.0607531522815457
32.266106951074086 -165.59859859265765 -3.0786854589742063
32.296183486307726 -165.43124129895912 -3.0981309120248537
32.862904418935514 -163.02919681448688 -3.0488857161415717
32.8826970368296 -162.88303055946648 -3.0650405009274913
32.92944579653458 -162.74073239833123 -3.082338322913329
32.93870929130342 -162.54035964584014 -3.1020670578395473
33.044704321716694 -162.43796749199853 -3.119314983265485
36.47743811787008 -148.47992796486074 -3.030057175842974
32.04329888355288 -165.95980177748396 -3.0337824146035413
32.20098458676839 -165.46361755962968 -3.0927053132808804
32.856696878626146 -162.48523533909025 -3.10116911205811
36.39652639318035 -148.42475388442847 -3.0300274434385983
32.04514311740289 -165.51939829699103 -3.0835689643553046
32.03232399491227 -165.45689780937573 -3.0902363415618757
32.742818377330615 -162.69122515735063 -3.073744918788944
31.974978746274004 -165.45607710386324 -3.089117747110974
32.64982089969422 -162.55657466040662 -3.079336024388491
31.87677854209452 -165.48684563219163 -3.083790114756589
31.879799242542326 -165.34396202052264 -3.0992409850062557
31.89340965264282 -165.2871569260835 -3.105674579149274
32.519913920627495 -162.57021102408513 -3.0684496096058758
31.71305731863275 -165.56959938321233 -3.0713135768011552
32.42558663735519 -162.5655794269158 -3.0618056974924865
36.400649251316125 -144.85599731590233 -3.082539878362236
36.407807896755244 -144.60060135767225 -3.0573581795730105
28.016596161169474 -177.8658363422406 -3.0322328005651267
27.93252421480055 -177.85479879790412 -3.0383945737965945
27.90365466040803 -177.75534363768912 -3.049251971491728
27.673230495245498 -177.9631520780161 -3.0446893951960385
27.56486452794686 -177.98055497170947 -3.049869657582984
27.462797051909796 -177.98988279589327 -3.0551720839967613
33.75719201390984 -152.6144539829554 -3.0443149406108674
33.79254188717273 -152.5612249544574 -3.036932877230657
33.81824729341581 -152.49950936242772 -3.027993735555322
33.653273395517054 -152.70808906303216 -3.056830002388469
33.71033191603545 -152.657382320476 -3.0501545005486648
33.56705933536874 -152.71543915116828 -3.056876118201421
33.459227053749814 -152.70284187701844 -3.053747887553574
31.527199795657793 -159.51756924873246 -3.1263076527053935
26.674054522687186 -178.7219410116375 -3.037665508467894
31.51329279937093 -159.47221798374017 -3.125236347424602
31.487011642562447 -159.4431378890613 -3.122793138757896
26.657535046852175 -178.59476524181014 -3.0498160030776678
26.563156917648726 -178.5809703741989 -3.05672975497909
26.511089837808992 -178.5135001123385 -3.065647213956826
26.38307402134797 -178.55103370815687 -3.0699487188054886
32.508134553940536 -150.26585078551412 -3.0934176607826314
32.35295621545038 -150.44531487615538 -3.1199867780359503
32.36504965703787 -150.40101756756425 -3.1139522572502467
32.42928669972933 -150.23797405770338 -3.0916009895382666
32.336144594838885 -150.31597197955853 -3.103915706037273
24.89172803243882 -170.63566307996794 -3.062500260847234
24.88288909278198 -170.55572472944905 -3.069151747603269
24.796290108482264 -170.53473867650544 -3.071357048056393
31.102517869452658 -145.25913917909324 -3.0322006701922106
30.88484717821737 -145.44779347678724 -3.0668205000805653
30.90389865048158 -145.37603547636778 -3.0574425375147487
30.95997826848766 -145.2571554370794 -3.0406652697936285
26.70849155739361 -162.0106538800702 -3.0955559812091544
26.759294863386234 -161.94831209134182 -3.1003719281116933
26.80014171363714 -161.86468950907653 -3.1052686701090915
26.788783891885053 -161.74416927541571 -3.108005213382354
26.78308313918819 -161.6468289262104 -3.11025795810305
30.799308588582367 -145.42505015998887 -3.06918204913137
30.90549698134385 -145.28010349162608 -3.0467220111405817
26.58226529455102 -162.09108983474297 -3.0856182083688957
26.757469555011625 -161.60361738757555 -3.109898858047801
26.714379083736027 -161.538747586014 -3.108922307557271
30.71134964867788 -145.3992871163409 -3.071685182987969
24.329872881574573 -170.80276981649465 -3.050712811886876
26.68525630678655 -161.4707575210828 -3.108797579531932
30.549179484576403 -145.56089184422004 -3.0991244385605676
24.27794791555081 -170.67085269165642 -3.061761567034572
24.23475219286951 -170.61622102073144 -3.0664555461485
26.59363391410421 -161.44015068299237 -3.1040434778023918
26.58048491358826 -161.39348554809587 -3.1042670136233514
30.4647548601249 -145.63818671310605 -3.112505774408043
30.476069664074362 -145.55772386342963 -3.1027960645010264
24.064186305601293 -170.91510736394608 -3.0424305513644407
30.400115723870464 -145.64664259343465 -3.1169277757605016
26.412779025845573 -161.37771271219646 -3.0945219249613456
30.373315793237822 -145.12818582497795 -3.061287003375038
30.218826478691653 -145.59838376589974 -3.121841826551419
30.2243259511123 -145.51145800791343 -3.1121883283376315
23.735222908035972 -170.8951064562883 -3.04486212962214
23.586814127031218 -170.82770828349928 -3.0505941352483177
23.520740017686474 -170.78750159826447 -3.054018079743277
23.570555154133316 -170.49281399802592 -3.077203124165716
23.49845741612347 -170.4562409085934 -3.080189441399892
23.4416227312294 -170.27620087082394 -3.0940576557856874
23.326495950746942 -170.14278357369093 -3.1040735923674703
23.28011444730499 -170.08805437556927 -3.1082402311415036
23.151678842026445 -169.99949085339904 -3.1145993897818327
22.89164628341389 -170.25833682579113 -3.094577337212365
29.0246599437668 -144.56558098058736 -3.07546996616584
28.880456465601185 -144.58582243758667 -3.0854492126326374
28.80116157423677 -144.58552444444155 -3.0894609136530757
28.60028496374963 -144.7447217802716 -3.1170683039481455
28.620664777394094 -144.67078562274693 -3.108336995995206
28.664094458058216 -144.6222373630509 -3.100662382767588
21.08434877240273 -171.07640592570687 -3.0291654985222776
21.116765326312933 -170.77401527782584 -3.051295109626717
21.156396683497864 -170.29079652515136 -3.085441802629946
20.567245098422855 -170.55209818208664 -3.0641210334991964
20.383898030592828 -170.94675807247364 -3.035531966654825
27.15639024204016 -143.78065190341985 -3.089242502432403
28.902890820033978 -136.7426684886344 -3.0535202882102706
20.16563650705657 -170.69832925569136 -3.0515331920512008
19.044571849700084 -170.488781203276 -3.0572667114713523
62.6948318444172 -177.93788688634197 -3.017453818458063
62.490866289666116 -177.4981254275668 -3.0143438077919344
62.27227052961382 -175.43131483095712 -2.9408044685623924
61.68551911179433 -176.44080012451658 -3.0329387028568364
57.282957207230496 -193.45724272690254 -2.994253072805522
61.31147402466746 -174.81970763084675 -2.992202918523425
56.40400886303432 -162.65755160158432 -2.94251472088345
56.36875955194142 -162.41300821121865 -2.9395973552765984
56.289536630809586 -162.45518582748474 -2.946236251837739
56.358141674395284 -162.35066878535204 -2.9390955921872237
55.85489361961821 -160.89441988653178 -2.9462461485560123
52.20058715498283 -171.75984696743527 -2.992424794572397
55.4251910162902 -158.8063156100964 -2.9477796309031543
52.08230741075131 -171.72222930288086 -3.0046161310662898
51.56322260211011 -170.1577428981336 -3.024167158778341
51.96579015791916 -168.2549318934997 -2.935775332547588
51.47841270925919 -169.7578724681857 -3.0239783591582103
51.81265738825319 -167.96547198416903 -2.9460129808850954
51.851439528474394 -167.76841863465222 -2.937460816267004
51.41348501247752 -168.95593255204074 -3.012242717447102
54.90594628748981 -153.72815371198269 -2.964721089079831
51.23695601777435 -168.17780864007386 -3.0137462323775535
51.159709886561444 -168.04685442270645 -3.019174734351001
51.198272599836564 -168.01347251140086 -3.0142483140096616
56.172034261927735 -147.04141220939042 -2.9812797323064606
54.50086189324468 -153.5599229109984 -2.9948537377060647
55.87279068276356 -147.17756862218923 -3.001408550361842
55.74311906701688 -147.190529954542 -3.0111195473144257
53.99163545313279 -153.6634922411924 -3.031278639234283
55.657256245562465 -147.16926221038943 -3.017707922313692
55.573138658557504 -147.14721560877135 -3.0245732134232575
50.09981028958383 -153.66578303862468 -2.9575388333117045
50.01556566001444 -153.6018993594532 -2.965572651739202
49.967037713711704 -153.5416955594602 -2.9699283682052524
49.98947938973404 -153.46372674930464 -2.9670752946370866
50.0027272247308 -153.39024036443246 -2.9651970825990426
49.8139933737452 -150.56932198460652 -2.967112493773512
49.72848388408008 -150.55848433490667 -2.9760604318029116
49.65020491984832 -150.51099588553168 -2.9840744068770664
49.64786082735308 -150.42380104803783 -2.9840526359409516
49.74289012344082 -150.27870710354838 -2.9734760291653024
45.061084197206824 -160.30466686173543 -2.980585089614034
45.08668627904174 -160.19156923183866 -2.9770392913261547
45.101695084415645 -160.1122392754516 -2.9750307620957566
43.717534395209135 -164.91101487548974 -3.0221842127877543
43.659054797559335 -164.93349131658854 -3.030537962994625
44.537591143410104 -159.04195673175204 -2.9430218857046677
44.48422699341119 -158.98554530221844 -2.9561622538425416
44.49402628796892 -158.91809855864216 -2.953437428884127
44.53100250572761 -158.86693892798874 -2.943939054440378
42.86694280591736 -164.49701252926005 -2.9634309650507786
43.385233078723466 -161.9220380521215 -2.934186178034248
42.730951454484824 -164.2697111747714 -3.010329685057264
42.809973506189166 -164.06682076100944 -3.016552418685394
43.366466681139535 -161.88006449531375 -2.942965491071029
42.6832717932103 -164.23840442678784 -3.0218973240134934
43.22160988763727 -161.58704288764577 -3.00722656183076
43.080109925303375 -161.71952139241947 -3.027597145471338
43.110194132206786 -161.68973088820366 -3.0235484220145548
42.94078265392763 -161.5034287190531 -2.9398459750016066
42.936783702488775 -161.42799748169702 -2.9505473198938703
43.282813378747846 -159.94659397696185 -2.9949288802095237
43.300295781114585 -159.84209605453995 -2.995624515040051
43.3693833651915 -159.81797969325405 -2.9753161919200264
42.81670472885186 -161.7117151573072 -2.9444645841785038
43.26449441012017 -159.87757554466535 -3.0047787253524296
42.78066729644609 -160.85718522903156 -2.9370925384273923
42.703348156392664 -160.90652157191641 -2.9538863073273047
42.710432238867824 -160.86653979907408 -2.957395646307606
42.61853911490895 -160.8153073803341 -2.992735362756604
42.43878213623222 -160.775272526994 -2.937282114007803
42.48510549817585 -160.69609545040734 -2.9352918675153483
42.40582861973469 -160.81585935503404 -2.941015532539991
45.479098646206815 -144.8914022579375 -2.935984246217004
45.396160396773006 -144.89218944233156 -2.9468140204725795
45.32295611677897 -144.86294964175923 -2.9555425225206076
45.28497510579286 -144.81295744192988 -2.959016259588294
45.27739304407572 -144.6808443709149 -2.956367239981958
42.575418113348526 -152.04772040035607 -3.013926921483746
42.48095833257143 -152.01802815184118 -3.0255561266546294
42.42902202783815 -151.93107505897538 -3.025158200110104
37.82897770888864 -170.17335449674314 -3.0188641506413827
37.079263050044084 -170.7827454479666 -3.0291419181053896
37.027478535499036 -170.80634590235405 -3.0317947797363676
36.48504785159762 -168.44032140148386 -2.9594978399439005
36.30097757098909 -168.18208666105767 -3.0074108326146973
36.35041204578178 -168.15719718952704 -3.0072271304320317
36.82643257698487 -164.71889971906035 -2.9324845238749173
36.72607311320606 -164.69798115748176 -2.9378883694398423
36.80637789946037 -164.65830137169127 -2.944094176243557
36.69624476891125 -164.7012065103768 -2.9376593660396413
36.67041051906227 -164.6283933786279 -2.951378229194259
36.637306254723114 -164.56916974850049 -2.9625858223227004
36.61532998215364 -164.51619152154956 -2.972428259273089
36.370224759318205 -164.6277944424973 -2.9537376194741913
36.270268516035976 -164.73271888824195 -2.9352921512884596
36.16398542999583 -164.21545555743032 -3.0256959360762226
36.05740836607318 -164.23721750338996 -3.0211290811112814
40.884439541624076 -144.57561060909975 -3.0224331088521543
29.954500933624786 -188.26931369866887 -2.9589316561415027
29.547672020608353 -189.10129072666774 -2.9410349088481382
35.68941575446995 -164.60806430286786 -2.954773677005015
29.48219212832509 -188.9510509274636 -2.9584084575228555
35.57002470425486 -164.65458753087174 -2.945613372183028
37.577372160469416 -148.95201450083744 -2.990153813521383
37.63493186597599 -148.68993810770368 -2.9504871388901184
37.510496539110385 -148.97436952226127 -2.9993940261837637
37.37366554882053 -148.8827220589453 -3.0005983961274745
37.41441658754792 -148.77178884813657 -2.9823935975503932
37.287002074417785 -148.96424128787422 -3.019162267904633
37.30813891119405 -148.7898273179846 -2.994694763051645
30.19222691893308 -177.10895692378628 -2.958012128476582
36.731809634520154 -150.60944480369847 -2.9604457120853405
36.72873336075102 -150.5265423834222 -2.947715921825232
30.12594563329224 -176.99981467370682 -2.97323272485517
36.662564162210536 -150.6025725544503 -2.964045162785517
30.027107117484782 -176.9632535956189 -2.9835815696983246
29.913329902338646 -176.94526992182134 -2.9931440917678636
36.49322985864777 -150.61063369562805 -2.9762599212549965
36.498429118845124 -150.5471735612773 -2.9659833950117016
29.772126667471877 -177.04200725098073 -2.9938370045551457
32.45097080114344 -166.30364054276407 -2.997993734335358
32.42183687214657 -166.2565300874269 -3.0034390845638588
32.33704397096207 -166.17925969701855 -3.0119240450564484
32.23970676751421 -166.37743748737196 -2.987010902591586
32.18362622010158 -166.3764577615025 -2.986487555611739
33.308269721786715 -161.46377646374995 -2.9529034023666973
33.33140702849431 -161.3993632638791 -2.960982141016178
33.34905657757734 -161.31011428137464 -2.9702887373944966
36.56243471881551 -148.48740716784036 -3.0236069914029473
36.61050904853096 -148.45559451221814 -3.0153895613960113
37.37946653761209 -145.00286720173497 -2.9914500567930578
32.059988844381536 -166.17666975790203 -3.0087676590968586
32.76066704921153 -163.26087082763348 -3.017923961418427
33.238948200219845 -161.5467246931125 -2.937841747514717
33.34084693272859 -161.25939790610198 -2.973377716852154
33.30852076177412 -161.2033002922887 -2.9738554575402727
37.331488954799845 -145.01083322924725 -2.997410135333154
31.997613719600448 -166.17911573538638 -3.0076806428300076
31.979344098843054 -166.1440639970845 -3.0114603783464684
37.247259606218606 -144.9645282335056 -3.0022144495222967
35.53964683182757 -149.962209607008 -2.933331079028238
35.453726129268745 -150.05709351290108 -2.9523707103287293
35.506710954797036 -150.0102582672724 -2.9424466054737666
35.361431005283194 -150.06986933335116 -2.9592024388383424
35.257660510259356 -150.06406138396528 -2.963717559589064
28.15512922710725 -178.24752860815548 -2.9887166879659732
31.028143224414627 -166.60067913210042 -2.9440166997527113
35.160157838080515 -150.0018715553152 -2.95939404906228
27.962588664680133 -178.71085482507763 -2.9585612502553786
28.053765759203017 -178.1020951727665 -3.008440423914479
28.023304749393887 -178.00265640505916 -3.0193148452839864
33.83231845987992 -152.4483061413537 -3.020583182345688
33.81681416146008 -152.3679307747707 -3.0086173023875107
33.782264217673195 -152.29010171807377 -2.996697992950791
29.123334961956253 -170.55402356354077 -3.0190115397211246
26.416744614195935 -179.40136418816755 -2.9927128845388187
35.58936277509409 -142.32515490698532 -2.9262883430992916
26.381783634187332 -179.30343638074206 -3.0034469527060006
35.43830853278032 -142.63888369569423 -2.971853815783426
35.486209881339455 -142.5935806082484 -2.962466429794329
35.350263221058945 -142.65277469661956 -2.9822022127876666
35.258409582020434 -142.65992160243718 -2.992264057868071
34.669260429444975 -142.0035699049191 -2.990271823165994
34.55748250864937 -141.96094388333037 -2.9975983124855166
32.19570852862336 -149.19584166712139 -2.9614464112144017
32.06712561692051 -149.2093003131934 -2.9668376038398656
32.08548768001939 -149.16747503850416 -2.9609273091941914
31.448672100425803 -145.06721032998342 -2.988789073188369
38.9784598465115 -114.65260485722591 -2.922140533307557
24.62875133366054 -172.1008330259843 -2.9364812214380978
24.690991330440152 -171.67648426137742 -2.9738442287205036
24.458500989665644 -171.680698905015 -2.9752393277478575
31.0469962598618 -145.0774702609127 -3.0151680620138084
31.077968537370467 -144.9177838494223 -2.9950607450268842
24.036001334899765 -171.3868569800961 -3.003020854348882
23.700455826369407 -171.82933447097838 -2.967124173711517
23.45747486915759 -171.92776911451668 -2.9601540102744535
30.08947293742323 -144.63868193276917 -3.0231829911247985
30.10874969352678 -143.92357358392718 -2.941877405535876
29.833999392231327 -144.4956529694542 -3.022164075363454
24.289292823875247 -160.92826688336683 -2.971790138559382
21.491973402674837 -171.75671127599858 -2.978633025799541
21.273062851876762 -172.20253792328174 -2.9439025616385566
24.055688525351833 -161.0169523293693 -2.9562108309417887
24.092953482212334 -160.84512069975236 -2.9605701876659873
21.428939462776913 -171.50983634603523 -2.997704674220322
24.060601808345012 -160.90561678438064 -2.9578992565058635
24.0104915811819 -160.68416404473632 -2.957116517050787
23.791494098865044 -160.76808713250517 -2.942604841951765
23.805380867431463 -159.6674480912891 -2.9477920008123077
23.84672716432943 -159.15492429003197 -2.947827888894855
20.776510908750573 -171.17758421233404 -3.0208656240403267
23.6179813916866 -159.5620322029814 -2.9355937554521936
23.680611604695308 -159.2173100210064 -2.93772698740588
20.667677579954425 -171.1518799225352 -3.022191945388246
23.499348041579285 -159.6259244052375 -2.9282433125480893
20.471267990783062 -171.0838204445215 -3.0262491826128826
30.383756861626196 -123.3838586320173 -2.960082371545405
30.26746339085038 -123.43507481149273 -2.976755002685998
29.957216880610023 -122.8082018451195 -2.9734407981016595
9.394231336447167 -153.0161219800237 -2.9548200187334137
9.361198392843349 -152.89949498322758 -2.9492064696039697
8.928208183845285 -153.3852223036264 -2.9567100960103074
8.815663895351701 -153.13572936928622 -2.9442278562215005
8.793083157218998 -152.67805529533413 -2.9255224184376916
8.656264268041312 -152.99468493108662 -2.93444281564832
8.79268098468484 -152.56511370659288 -2.920792603566131
8.052537415712806 -154.26882703750212 -2.9640586510360603
64.47100436581809 -179.02516676751782 -2.9198838879074005
62.49344167209903 -175.3627420837605 -2.9200432365241813
60.61830144584928 -172.05740395272701 -2.9325952172130823
57.99092699221063 -166.57204205254928 -2.935002309419583
58.15633626815011 -164.36376973109506 -2.858948261157924
58.26878329365609 -163.98911426782686 -2.8413271115236802
58.29924963688633 -163.89705933085003 -2.836808443924496
58.12901161165095 -164.25256395769105 -2.857980066403573
58.17011493033844 -164.02828517628407 -2.8492668134808197
57.2227493510619 -162.42337998910585 -2.87951039846153
57.10822574132674 -162.3384967730123 -2.885702452942602
57.21873495720226 -161.6274438080688 -2.863743691937912
57.258020927762715 -161.44804979594542 -2.8577662651419447
56.960562856538886 -162.21543911359436 -2.893611484898468
57.025357038826364 -162.07580414106548 -2.8861154685507997
57.12608345610511 -161.67216016225632 -2.8712055269853938
56.89380012513253 -161.98909271310615 -2.893738596452436
57.06150481323296 -161.50776286169807 -2.8725987580206107
56.88599792143745 -161.690211856921 -2.8883136798365863
56.66755249369544 -162.06386005205314 -2.911207321493329
56.48527131070263 -161.8517707581978 -2.9196612861438567
56.43640500459794 -161.7545659396543 -2.921232282322226
56.61239014691615 -160.0139225463847 -2.8796346366987677
56.225454812409794 -160.09660464596362 -2.907743197021196
56.24459229417129 -159.92812982565556 -2.904154084093985
56.10873777898416 -160.03007299329073 -2.9150330723681526
55.90466788211514 -160.12416470201825 -2.9305891503940398
56.013735620933666 -159.85561967593833 -2.9191241693924312
56.479392055381254 -156.88645857693362 -2.856871486220774
56.44169300431216 -156.8049008305487 -2.8590096186436265
56.482919131028126 -156.4862247937099 -2.854342105962848
56.40615567132906 -156.69616497578593 -2.8608434716251923
56.39326837157613 -156.61192433960784 -2.8612829068513066
56.405452880397895 -156.55295119944324 -2.860078702251481
52.661935762945554 -169.5628595666114 -2.88919766994286
52.72587983697292 -169.5406516792622 -2.8816142003855467
52.23605288206258 -168.61531695570685 -2.9143253840721015
52.25631596522018 -168.56201456325613 -2.9108547268237492
52.08752979448443 -168.69812047327804 -2.9323705208766064
55.8083792918003 -153.6010354666124 -2.9001935573699935
52.047457612074524 -168.2551890995992 -2.9268069013406883
55.73284883786841 -153.53529316823048 -2.905873812167649
55.68842855021869 -153.40147803378912 -2.909664852188799
55.64995558954181 -153.3244368915737 -2.91277829181169
55.635337365538724 -153.23821917234315 -2.9142295815439736
51.92696458071187 -167.9573217577065 -2.9333956283697127
51.90787835417858 -167.8780228255803 -2.933666481253283
51.85900593631283 -167.70951272099606 -2.935282607041037
51.72971008597632 -164.56497007893017 -2.8851026230752232
51.74050827126781 -164.42198668267505 -2.8813674370324103
51.79479763963312 -164.35114906220693 -2.8742770534148208
51.69472985022081 -164.49674733122106 -2.88763328583101
51.71409611281225 -164.45772472521392 -2.884779393793668
51.63939726719351 -164.32479883785325 -2.890299747996509
51.20700251173105 -152.21520731942132 -2.8336325682886274
50.567638162316705 -153.57985152526598 -2.9093508821544525
46.40217673607394 -165.67957584926356 -2.8339997739874963
46.287595816446704 -165.84430383402042 -2.847529209443909
46.30115607655223 -165.7596473726166 -2.847766081466326
46.34918032431208 -165.6924613167827 -2.842044137484613
38.34538265815939 -194.05889266857838 -2.839693690987949
38.200086417446606 -194.49356221751896 -2.8404088085398427
38.07097227436737 -194.5863430165555 -2.8530406370460786
46.709363523402274 -156.95354716600778 -2.834276504566052
46.6711685659723 -156.94100073840747 -2.84059576573501
46.6523491790195 -156.87236251556308 -2.8419807275570457
46.6621825752852 -156.7969073805339 -2.838184292145823
44.54067313773561 -164.3669506368067 -2.9131392586525644
44.551394631569266 -164.28185071278236 -2.9161733563363708
43.31234651706737 -164.91132173319147 -2.842463663380836
43.22360684154341 -164.80931910553213 -2.8685588515256635
43.308600737023006 -164.68869895859888 -2.86500528760451
43.17335409334142 -164.78491323948336 -2.8800222261767408
51.31839593457964 -131.64951644422675 -2.8356828409045898
43.043116336185165 -164.7519643672646 -2.9066020826065397
43.06784110210866 -164.66984388695508 -2.910378756352613
43.72142226196878 -161.90335239825617 -2.854778085255972
42.98196314190044 -164.69805691484834 -2.9228688025892278
43.021657269219006 -164.6243199047279 -2.923176177404889
43.67529386529299 -161.91617740784122 -2.864796583183918
43.4744838140926 -162.06125858668045 -2.898636108624129
43.558343236921694 -161.9835322360658 -2.8864867007534745
43.40864930518189 -161.9008770590964 -2.930745758602055
43.41693668351597 -161.88669065583215 -2.9302073636766273
50.85145248507549 -132.01268427955642 -2.888438830319995
50.73583568097409 -132.03142659783447 -2.90197334351539
50.62812105351919 -132.03430054747835 -2.914478937842624
50.548792151997844 -131.9628470672744 -2.924231128036733
42.95345841949266 -161.6164410825327 -2.9217692972572946
42.96665564629077 -161.56073638073747 -2.9255861826507736
42.9990151251221 -161.4462373187366 -2.931634058846898
42.89885943370404 -161.72210838953202 -2.921904661287835
42.92263619527892 -161.66402437892853 -2.9235439348032948
43.285989465265786 -159.95006107641422 -2.8684808718295765
43.297981765183856 -159.86140090356955 -2.8706963451269183
42.88373567244354 -160.3416886741892 -2.8481938703409
42.68295057581841 -160.71985950834443 -2.8643470528658916
42.685178575144576 -160.68468005297058 -2.8691987063832567
42.600824278489306 -160.7025477796071 -2.8951586378769707
42.46280219837558 -160.78867994365459 -2.926995573418062
42.49598785212341 -160.70606859929035 -2.9299849193436946
42.40703257421641 -160.86980155052703 -2.931047290524708
45.54405296357876 -144.86068051940885 -2.9267360965328146
42.30899021984849 -145.0478840846397 -2.8635047089856123
42.3653644996688 -144.9860276621121 -2.852130847555253
42.44420211685067 -144.78462005020623 -2.8286716686041156
42.22909824199838 -145.0842522118666 -2.876608342447584
42.13870235051387 -145.05206823528422 -2.8867237931761176
42.04817236610764 -145.010458649227 -2.896232714311349
41.98224340361368 -144.94952278879427 -2.901268155702562
41.894505326177615 -144.85427899793177 -2.9068228377998646
41.902149688626395 -144.78280964431625 -2.901420670643642
35.63249210851836 -169.65271521853037 -2.856663363284404
36.805838271700665 -165.05088252571502 -2.870119051918609
36.82727363301948 -164.90906737787967 -2.8966185634835533
