ply
format ascii 1.0
element vertex 833
property float x
property float y
property float z
end_header
-42.75485857401864 -98.15362164408475 -6.216071565195791
-42.74012967668816 -98.0615031740048 -6.211519713945652
-43.12302651094237 -99.21766068808522 -6.201948280870695
-43.03393367651088 -98.9418231401122 -6.209660563906341
-43.02776054421754 -98.92399166412652 -6.210119743691621
-43.07854564753485 -98.07951906127717 -6.283046425745953
-43.133185266027766 -98.10889966788612 -6.277009458324283
-43.1691584992744 -97.94459923629375 -6.260579640289218
-43.34382963929924 -98.52323198595293 -6.270023329854276
-43.22951393513435 -97.92756351740664 -6.2506144697896975
-43.200614639551624 -97.86711316186091 -6.250505203261752
-43.17992660960583 -97.55307542680063 -6.229302020636595
-43.31413713476087 -98.09284500182396 -6.249434807438934
-43.20946492943363 -97.56384202870352 -6.225992797751583
-43.233000012260426 -97.34159321835463 -6.202872528386247
-43.34420129535352 -97.58010476464479 -6.208135683311997
-43.32439017247467 -97.45935561401755 -6.201194136171682
-43.30126918746084 -97.35872950999807 -6.194941857748578
-43.55804394994576 -98.05130232820747 -6.210955140753549
-43.44419808667125 -97.58986624803308 -6.194634850376537
-43.96596728839569 -97.42900630105818 -6.274320433896568
-43.89971044258987 -97.03699740206449 -6.255830720129353
-44.1195376469466 -97.59715863362305 -6.268131124203191
-43.858757906852475 -96.65721326946617 -6.231142261339153
-43.84558395343278 -96.62488935293268 -6.229971929446894
-44.15653802573146 -97.53671429322117 -6.260265983997846
-44.10700284582184 -97.47771582397813 -6.26199797083055
-44.09175745833831 -97.34114996592207 -6.254771182906612
-44.207489045683786 -97.49838907034311 -6.252246178508954
-44.197679624121136 -97.44833681421035 -6.250136528177396
-44.06362023959962 -96.60670289008455 -6.20597416866257
-44.32449273682435 -97.35178234240841 -6.230000356425249
-44.26760951968444 -97.29675679897225 -6.232630774502854
-44.23752704623786 -96.80321375113931 -6.202822522558304
-44.27593013485995 -96.80554643039018 -6.198958564294659
-44.564053511619605 -95.60567696323716 -6.28920913257995
-44.911351279528525 -95.98210053435872 -6.288650021956098
-44.84157357264032 -95.87313726127515 -6.286832738323448
-44.814280404917945 -95.72633555588173 -6.279433519677703
-44.765560768285695 -95.6547333239762 -6.278269070441468
-45.0234590988704 -96.02005867210724 -6.2829078047722975
-44.82318876619547 -95.47006685956339 -6.26221743966611
-44.813662789712595 -95.39560450121455 -6.257965573013937
-45.13238002796016 -95.56879633815916 -6.246780036398006
-45.26962909753212 -95.80680431127566 -6.251931611110989
-46.34868159052492 -92.57021359723603 -6.289435624127805
-46.43283075880324 -92.44716234205606 -6.2801976421761765
-46.52135269811931 -92.67790302082251 -6.287825364746789
-46.47783315229244 -92.58293225160493 -6.28495137748535
-46.599887151750025 -92.65182793905214 -6.283450597411755
-46.616072655100176 -92.40896763121145 -6.271236312608269
-46.46372528254207 -91.74270101202404 -6.244938538158264
-46.43350724194433 -91.67451512826554 -6.242809933987548
-46.43313008607022 -91.57109487688057 -6.237754787547841
-46.69364970208555 -92.61286978514266 -6.277939278520088
-46.53128758176072 -91.82463587633866 -6.246357203926226
-46.5151336588452 -91.78947177482556 -6.245231014253713
-46.76443595200817 -92.08609434870078 -6.249937593457225
-46.71849969944509 -92.0083075406051 -6.247960939946682
-46.68882740281327 -91.91379614387982 -6.244531318546917
-46.71488649201467 -91.83794509355445 -6.239896733246141
-46.77576149469234 -91.70269680354909 -6.230975200789782
-47.044627983382824 -91.35234497898556 -6.203583548506382
-48.86114077469955 -78.68378165174424 -6.280361903106646
-48.98458639661663 -78.68932038082158 -6.278052734726912
-51.167101275210754 -81.23477940523604 -6.291081963736363
-51.02189256065756 -80.77260644495685 -6.283866615409116
-51.30388914001664 -80.89180123829115 -6.28157816867627
-51.3994871583163 -80.465540597711 -6.270918076161299
-51.45201736468298 -80.23579913015791 -6.265058623668754
-51.51493471903121 -79.61899114067415 -6.251034598033868
-51.43756784910941 -79.36506228212998 -6.246999576747924
-51.11705165037733 -77.79514533672466 -6.220280406009405
-51.080009890970686 -77.68616689653844 -6.218606845228836
-51.07276367606413 -77.52080869411596 -6.215463449607031
-51.07568209250165 -77.33411470984765 -6.21147992362106
-51.64081036003895 -79.645607982772 -6.249368621113426
-51.595194207785994 -79.25741928961406 -6.242104556444955
-51.125046601276516 -77.05459774700198 -6.204977424963689
-51.540166595124866 -78.56675944950811 -6.228543939827752
-51.12310748579745 -76.68096402385446 -6.197397911037438
-51.58708757601742 -78.6501930552567 -6.2295645932684485
-51.71064551501421 -78.60287084680915 -6.226297747776638
-51.780123096400324 -78.64455245964274 -6.226057700296552
-16.33675440705394 -78.31837826235468 -6.178346660674973
-16.92028560332362 -78.55782661149061 -6.182412973611651
-16.863061151033808 -78.21724778185327 -6.167108567629604
-16.980230517927012 -78.17576835281119 -6.163780473217282
-17.004472550474176 -78.05573248283646 -6.1577374357432895
-17.18247904926483 -78.07911918570039 -6.156687675330337
-17.124628345438566 -77.72996592310392 -6.140916591747921
-17.10468039909671 -77.56563395569606 -6.133302779507821
-17.300561537527766 -78.04419297838237 -6.153473562277178
-21.328150212339 -79.82490270848118 -6.186054811107374
-21.482962729105797 -79.72063629478095 -6.178958597744404
-21.506924997358688 -79.61099505703783 -6.1734317969460575
-33.97886325485652 -113.64978070383154 -6.126369210314772
-33.980638006130924 -113.49231124436659 -6.133940486349237
-34.343517928088815 -112.9755577158957 -6.160759432213855
-34.30444509641269 -112.93544383758689 -6.162503085239658
-34.9314394380739 -106.31812664870597 -6.1649798731523395
-34.9061382651263 -106.30230229722693 -6.165050448493658
-35.442553089126974 -101.28094836438596 -6.135887876415356
-35.84398979505269 -102.14457004889417 -6.123096526117603
-35.930692155023806 -102.2473431454378 -6.123868403790754
-35.91408119359146 -102.17281341465053 -6.128943711421948
-37.64015598985125 -105.1021008409367 -6.1057670733717755
-37.73301563573427 -105.06291556308766 -6.112214835156415
-37.686118594818566 -105.02882711569217 -6.1152992900574334
-37.8074827680148 -104.99809718049133 -6.12122291717632
-37.893937769560374 -104.96939665687886 -6.126069934087741
-37.8726438566376 -104.84512877262796 -6.1404203908490285
-37.912773364245936 -104.78003454369161 -6.148788943219874
-38.02246080507367 -104.77420832379573 -6.151165513655964
-38.04358375956339 -104.77757088748297 -6.151049988005579
-38.327601482631756 -104.54589721267533 -6.181797357748049
-38.775973301276075 -103.52254651232478 -6.143882841163464
-38.94901787424521 -103.67832388240654 -6.11954711273707
-38.99061805347763 -103.47036272089366 -6.15233723328491
-38.927339133663445 -103.41779941706477 -6.160766077297511
-38.96091505040984 -103.33940624974309 -6.173122005656949
-39.124932031209276 -103.74342043794007 -6.1081510729796795
-39.05787853615172 -103.59069597034892 -6.1329194036376755
-39.022547564184435 -103.46724581179642 -6.152694889333146
-39.01763760128433 -103.37972252431135 -6.1665405823730906
-38.97309538147935 -102.91407988868163 -6.097485499450786
-39.18330833956819 -103.420952191589 -6.158833508533672
-39.1037506290229 -103.29144741582728 -6.180089211866648
-38.993727644819295 -102.91679526279462 -6.0970533968385965
-39.215425482091675 -103.41327203708634 -6.159700553037378
-39.201579961014225 -103.38656829794081 -6.16412033491928
-39.36609276143576 -103.513448183104 -6.141455747443352
-39.390322048059666 -103.25920272684962 -6.181547138959678
-39.405032484306 -103.25170603074754 -6.182443573255737
-39.400258963066264 -102.88751680699025 -6.099940975446975
-39.42048687923176 -102.65633228048189 -6.144740149750775
-39.535602628960355 -102.65321071160342 -6.1427275075833085
-39.479551871643366 -102.56998837332317 -6.160359191647215
-39.54795007751553 -102.6433005742102 -6.144326096154414
-39.57892107739114 -102.55393096322847 -6.160924844063738
-39.68232087389225 -102.50658397044496 -6.166792987562941
-39.61373772646957 -102.45930392459974 -6.178366804612534
-39.75004042121339 -102.61759404296427 -6.1425443250113405
-39.753489183154045 -102.4737387888731 -6.170475538808258
-39.78114241744706 -102.43473999589395 -6.176910560665009
-39.75779204487168 -102.22252046498531 -6.100561102321176
-39.71566548425194 -102.08047965023309 -6.1352955399359255
-39.83080992510223 -102.38534766159363 -6.184302980126863
-39.77088730828398 -102.09893195537452 -6.128511565368201
-39.789538832729825 -102.03794626305687 -6.141702366744261
-39.909476894705925 -102.16673812475773 -6.1055411129701875
-39.86141578380814 -102.08138220205812 -6.127931348486795
-39.86608952580108 -101.98056686053778 -6.150829939681402
-39.98468091112803 -102.0705179660168 -6.122972151922185
-39.96259056427842 -101.95628094029306 -6.150553191152031
-40.19435228946404 -102.39783954387241 -6.160606637143208
-40.13008465288818 -102.02437691218245 -6.122984876398237
-40.03485606930944 -101.94713440646576 -6.147720566437938
-40.059231338287105 -101.84806436946313 -6.168495366245564
-40.12563127821146 -101.94981256690552 -6.1402439321281905
-40.098198419831235 -101.76268050293164 -6.184845568780601
-37.85796286612275 -90.51027847013295 -6.148368414254332
-37.92933859408684 -90.63777708866927 -6.158380254803606
-40.34461071666474 -101.76327889220653 -6.162140628051574
-40.288180460636845 -101.72826900646564 -6.175574738401436
-40.39646120324785 -101.7434991748151 -6.161085167969584
-40.551087017359244 -101.89756253777267 -6.110247638950316
-40.54988714895387 -101.87830833089463 -6.114550090602833
-40.51745833070564 -101.60878746248063 -6.176527675401616
-40.537472323619276 -101.56663304696703 -6.18309671166037
-40.73772951388523 -102.13794684075013 -6.160298096848006
-40.55249401278119 -101.53889512082635 -6.187126289814865
-40.88419866193383 -102.29515209140735 -6.11582167547007
-40.79213625074595 -102.21328963542027 -6.140784544006077
-40.75942479091276 -102.03423075225574 -6.176499492924183
-39.856503097552796 -96.3681247284764 -6.138144185282947
-39.89061138126427 -96.35875953723968 -6.133617400400856
-41.225030651274636 -101.26330690707312 -6.13523918391365
-41.27972166483552 -100.99329391347307 -6.171162887120482
-41.29702031370657 -100.87616430153446 -6.186613871270348
-41.53662973402229 -101.60069410203509 -6.1383404016427345
-41.460310101402094 -101.51896558850167 -6.163148134784711
-41.34843951663869 -100.84743097538619 -6.1802375670740375
-41.44828491968356 -100.7964178382414 -6.166216263038796
-41.420839968665234 -100.75775629443751 -6.178018765100484
-41.534052800750935 -100.62207421346338 -6.1711475351739855
-41.52418340074446 -100.5666304288077 -6.180787534491084
-41.573710884167234 -100.43483497800159 -6.185263371518436
-41.68032823597162 -100.2242468540037 -6.1811477717729515
-41.740562539336786 -99.96701332930425 -6.187085006601276
-41.78515451563934 -99.93171057822794 -6.177314313941099
-41.855986874679324 -99.89950902640305 -6.159895849395764
-41.86777199814293 -99.89035243091077 -6.157187613380363
-41.8005458472771 -99.67644527101432 -6.187113591617943
-41.965505742658024 -99.79623044440672 -6.134950507793434
-41.95844533243721 -99.67058271808034 -6.142319607953998
-41.93395265599239 -99.59749511089298 -6.151755367106953
-41.95559215284517 -99.52599856933223 -6.147330487173127
-42.02110187643649 -99.67483394602957 -6.124235289518275
-42.001740304889694 -99.60284529121783 -6.1320209125407095
-41.98605779566588 -99.50591531433334 -6.138942134170524
-42.000934027724576 -99.41515057663737 -6.135937831586839
-42.080886736420666 -99.36526495035146 -6.1128592232996946
-42.07184416788301 -99.28684934913564 -6.115399666015148
-42.07849178235701 -99.18632116099175 -6.112432573558857
-42.19558414135397 -99.36069999387641 -6.179867899056783
-42.2058881301902 -99.21564142107603 -6.175774541006863
-42.10326453893465 -99.16361093087558 -6.104735103405406
-42.24553813921057 -99.22908832918255 -6.165754695096221
-42.22087298017569 -99.17912607322799 -6.171229277751277
-42.27153617115824 -99.02434886275508 -6.15405440934257
-42.19590297318964 -98.65919669005555 -6.155775421553541
-42.353617729026276 -99.12524736596829 -6.135720611410691
-42.28576884907179 -99.01680165785123 -6.150100431870483
-42.32928680586313 -98.92854468838405 -6.135534417635575
-42.23603465875124 -98.66898606905932 -6.146061014672947
-42.46859752290456 -99.44864683708441 -6.110109418193714
-42.50704533720946 -99.33828331685118 -6.099720281316316
-42.398855809730506 -99.01229436104332 -6.120610676546617
-42.38931567365949 -98.91516538823353 -6.119385415719664
-42.35696035357255 -98.81926505037309 -6.1233317500092985
-42.35610776718466 -98.76526119735932 -6.120750947649218
-39.76617694758685 -85.89587825910513 -6.158821935060735
-42.65574301229253 -99.71347581236502 -6.178232203297663
-42.49670415152766 -99.08681262533173 -6.0976680001530426
-42.47103343754609 -98.71799217644198 -6.124890539291187
-42.4665254979815 -98.5719367259651 -6.189521478192904
-42.46736804230689 -98.53184493391493 -6.186754645987218
-42.41981741163561 -98.38841964558466 -6.18695297858625
-42.412194984608014 -98.31701770265755 -6.18301362008031
-42.69191673812083 -99.34113614980404 -6.169195843594345
-42.55683158222124 -98.60938051806635 -6.171945005570076
-42.544717645578615 -98.45950317698981 -6.164804872054804
-42.48727561439257 -98.40722481131371 -6.17363775443332
-42.74110487287294 -99.19437082000397 -6.155529968497984
-42.59928578861384 -98.4797087718123 -6.154230914273543
-42.86424756459738 -99.33790366712249 -6.131092063276344
-42.64197830726939 -98.19636126184844 -6.123234759785309
-42.858292644726255 -98.00372553592895 -6.185607739222241
-42.89370393724422 -98.00589959676596 -6.179418792626626
-42.96252779303779 -97.92089625340724 -6.160088966494979
-43.37114190378574 -99.22117949865846 -6.156051577714949
-43.43819890817504 -97.38258800680447 -6.178781708386295
-43.36389624733405 -97.3149767797561 -6.18243020309113
-43.856208662675954 -97.88890167818157 -6.156618071815796
-43.68495402623021 -97.00388808414614 -6.110327611890439
-43.66200057015426 -96.95133223843399 -6.108624917738761
-43.72684276358748 -97.06410935839071 -6.110051131621612
-43.72567268871977 -97.01106568275314 -6.105408406549852
-44.412117982900526 -96.61699325063127 -6.170426304526277
-44.37684670590197 -96.60173059528898 -6.17294637042127
-44.39370169204829 -96.49697104752093 -6.163187114561918
-44.50098999381763 -96.80660600660507 -6.175281591893276
-44.50944806010947 -96.78172979124342 -6.172553512252052
-44.47306859962306 -96.64030067791583 -6.165821902689215
-44.48899044320629 -96.51340473746565 -6.154475306365729
-44.42520017656572 -96.46595287022073 -6.1575040837207355
-44.39965411357766 -96.4062104172853 -6.155542584500127
-44.63773190030042 -96.76730647977928 -6.157918307761965
-44.570500043713324 -96.45035163884536 -6.1411707600977445
-44.58869196947646 -96.1313138286078 -6.1143359502940084
-45.225844847626284 -94.78347740078831 -6.188670107968813
-45.35588470016986 -94.8438302616627 -6.1837649440424025
-45.373577943139345 -94.76956681387688 -6.17755889127272
-45.45763555327468 -94.83240886289968 -6.175949357327355
-45.36723238072381 -94.63173975303853 -6.168718268057104
-45.506284118784635 -94.31085736320529 -6.137402415620484
-45.72153258330841 -94.70948339652188 -6.1494868492054025
-45.65529203124047 -94.12695437187585 -6.114694423753602
-45.72765691034053 -93.99761610988483 -6.100893004048416
-45.97018092022936 -94.73538602786921 -6.133848691724341
-45.9858186826992 -94.55947072680333 -6.121229426568408
-46.043735933495 -94.24892017028981 -6.096534457340002
-47.157594976659155 -91.06944904889224 -6.185541310090419
-47.328701139811855 -90.51908520998715 -6.152141464889934
-47.52490010694969 -90.21556140028558 -6.129836404991745
-47.63955909629532 -89.99487680419664 -6.1146375658300975
-47.64985744128739 -89.88745696061201 -6.108958580921356
-47.69861165210044 -89.76778826727147 -6.101289552562108
-50.275472283118134 -75.06710035967373 -6.180906061408452
-50.19422408019287 -74.45264867926761 -6.170337850982648
-50.416828915857224 -75.08618404083862 -6.178492380781116
-50.32290611379001 -74.62064617166519 -6.171160841922128
-50.20305547007816 -74.20155104134098 -6.165067078778908
-50.3080401149258 -73.71782004801646 -6.153557897727395
-50.35190736235455 -73.36715846492618 -6.145635539115462
-50.322590663121424 -73.18551789417904 -6.1427572935961186
-50.24673332906935 -72.85526042746679 -6.137752615729253
-51.31095668959597 -76.1343228443288 -6.182696798063063
-52.20026076368029 -77.27113037770611 -6.190059796294772
-51.65475005713404 -74.84637573828343 -6.1503029179997855
-52.238380324813576 -77.02966066901968 -6.184257125550595
-51.7422537825658 -74.88169682128381 -6.14926348423403
-52.29201521350362 -76.75814763994231 -6.177793980279614
-51.77114584688395 -74.40606557366776 -6.139097514107275
-51.676425038761046 -73.93594923702982 -6.1315184341219116
-52.29232797624933 -76.57637485510735 -6.173909379976729
-52.26625676932594 -76.44193139209456 -6.1717163583611985
-51.818531494895495 -74.09245385956113 -6.132002244823799
-52.32417325212248 -76.1579301702134 -6.16470073145292
-52.33747710818639 -75.9477151376462 -6.1602511751510445
-52.29927631194613 -75.82599521801356 -6.158315236583821
-51.982370460760166 -72.84948625844213 -6.103886664689868
-52.077875770632986 -72.41013724101111 -6.093118656908692
-17.320317830020723 -76.39268509416391 -6.074781122210802
-17.47283587270151 -76.39472661208072 -6.072778212934973
-17.69463658050769 -76.46930790403734 -6.073506717464616
-17.77602427468341 -76.39652630382365 -6.068845016640019
-17.673367852743144 -75.15083315587403 -6.0103690143916095
-18.40601584018676 -76.11198699627617 -6.046689951839466
-19.09544565614992 -76.54372323589834 -6.058134186689864
-19.189423818029717 -76.48573429487998 -6.054134749480896
-19.194971983293037 -76.34110439700407 -6.0469611345768115
-20.100159125506995 -76.41743953215418 -6.038037037457365
-20.077892494251795 -76.23923015955245 -6.029756700283637
-20.184365600124583 -76.20397031659705 -6.0264304650715825
-20.23712705841627 -76.10460064984088 -6.020922823599529
-20.75722277996559 -75.75992968302319 -5.996536794376604
-31.37811754309603 -115.75107185841607 -6.003698821976965
-31.7840938462651 -115.05961336328168 -6.040018809558435
-32.28969562560628 -114.5670045786338 -6.068510987398939
-33.77499605437435 -103.70684088502446 -5.9913152081161645
-33.7689168164854 -103.66173358811768 -5.993681635222963
-34.226574235757326 -104.18330393945033 -5.999185395521235
-34.01573863409354 -103.21456057025338 -6.04662342294451
-33.96245606154281 -103.13413432014666 -6.046144535296486
-34.083982658224244 -103.25283861133444 -6.051050963596932
-35.90951571444603 -107.88664528457963 -6.076624695311736
-35.844515973626244 -107.7816574144269 -6.083552137010651
-35.90560179847457 -107.8076389810532 -6.082813716123714
-35.184401704851616 -102.33585903691493 -6.023642607776556
-35.265308925982424 -102.32080152206446 -6.035269612603898
-35.33764286819866 -102.32309733331574 -6.044254190906743
-35.474525977823674 -102.35357136010602 -6.058717976964127
-35.42483116004305 -102.32320117661641 -6.055223827995145
-35.52686034085968 -102.3683400497772 -6.063847692323071
-35.657809570355596 -100.81776594111672 -6.039278653347168
-35.74722886118341 -100.80757809092582 -6.056213150886305
-37.430305893343615 -105.34822434415538 -6.072380012476465
-37.47243647797015 -105.36389752107331 -6.0715419290362584
-37.563047288073264 -105.2331476279295 -6.088804856651651
-38.274573680593356 -104.4133997222015 -5.99908988388637
-38.402884662823745 -104.14618208183732 -6.042594291697602
-38.5720398810034 -104.40013870951432 -6.004873931759534
-38.44470497665678 -104.16703522262281 -6.039953434146439
-38.46192325225923 -104.14630029295749 -6.043396868929548
-38.543014910266386 -104.11376794918439 -6.049415597455045
-38.738154455582006 -104.31631134960637 -6.018846478736394
-38.7178122778602 -104.26738033019252 -6.026497040380902
-38.823563593205684 -103.41501305272755 -5.999606827685531
-38.892599710330344 -103.36885961249278 -6.009058261387112
-38.88516885044666 -103.31429530416722 -6.019560171128692
-39.011344847973795 -103.04570097029897 -6.072134114096923
-38.91944236976706 -102.99178541159473 -6.082111010957485
-39.17211211727718 -103.33964124773468 -6.014554142668694
-39.07787988525561 -103.07080099136634 -6.067239487301708
-39.0464790500637 -102.99234511921239 -6.082502796866169
-39.20221452298737 -103.34707647076195 -6.0128568274799346
-39.201816326459294 -103.25701777725143 -6.0303837753387945
-39.1518089840299 -103.15188243858343 -6.051238167381306
-39.1346527221255 -103.10405924133761 -6.060628014532873
-39.29124604000771 -103.13038824535919 -6.054169691785179
-39.22064319061627 -102.72658781446984 -5.996614600914941
-39.215659738275946 -102.63436860454459 -6.017948982330795
-39.36541052406951 -103.06911281123986 -6.065065715434024
-39.36847838396091 -103.00047702179245 -6.078406327281484
-39.32798497211636 -102.68305201828105 -6.005801106615372
-39.2985523671597 -102.63894113608833 -6.016343355260807
-39.24953559033169 -102.5274588620015 -6.042515683023815
-39.42971551018237 -102.70721649447341 -5.998603008043771
-39.65773152628874 -103.36894084821209 -5.999156542897916
-39.49441791586055 -102.72739609274647 -5.992514751566744
-39.468824123852116 -102.70675730110655 -5.997897718258265
-39.52094332090616 -102.54227082222923 -6.034815883678839
-39.57020796348628 -102.54166398701736 -6.033587589092039
-39.55406713867508 -102.44348162767109 -6.056833874599813
-39.5095871711415 -102.39616632258 -6.0690210122494435
-39.69855805403308 -102.52025836906385 -6.034122046235499
-39.632103483300135 -102.34489086648325 -6.077223239494028
-39.71085902223393 -102.39567976292389 -6.0624921281146955
-39.936332969106964 -102.39389109753756 -6.051710893699822
-40.29772439841178 -103.00899947846166 -6.036486849708986
-40.84922473985637 -102.60061881545404 -6.064723728884843
-40.8818176524661 -102.63019005346455 -6.055914382186843
-40.880791582581914 -102.24808684738224 -5.994736986468029
-40.84234832730324 -102.18628195810192 -6.012780350669093
-40.760304273259095 -101.91192639835049 -6.081397681348897
-39.79504530445402 -96.47040535229571 -6.071903231185802
-39.84454810279432 -96.44638615518654 -6.061507898405829
-39.88349119449146 -96.41163982307862 -6.048399525221486
-39.910875506447226 -96.39537267409702 -6.0415655455726345
-41.37333680923999 -101.49127416002743 -6.066734952458837
-41.62091992675999 -101.3713608588073 -6.039143753785467
-41.63035888234832 -101.36550371264657 -6.038186206815377
-41.76680444488027 -101.04862436297667 -6.058155027594738
-41.79102104273674 -101.04921949972919 -6.052622713407901
-41.91599760392876 -101.2107692116493 -6.001103083793284
-41.93344340996742 -101.1040989830893 -6.012494466882418
-41.92328832609783 -101.09511960697034 -6.016069780918073
-42.15782925999101 -99.99437926593738 -6.0703298733020326
-42.214823909663046 -99.97705764918825 -6.055434409180771
-42.218243172551226 -99.91143282841097 -6.05802308564037
-42.35574127819722 -99.97626804739775 -6.016025168036263
-42.15772947511291 -99.15401842460511 -6.08844109403796
-42.16565079845978 -99.10369294044926 -6.085028086130038
-42.446229800198616 -99.90062169001429 -5.994109420495981
-42.41842605828177 -99.8696420122184 -6.003326939215043
-42.24159684785019 -99.05850568745387 -6.06125882197861
-42.24269184812519 -98.95733068971865 -6.0574432378998715
-42.41644778606436 -99.663590678935 -6.010794752033679
-42.31326752290959 -99.02811787923476 -6.039089001503099
-42.322229160617894 -98.93607942641788 -6.033004671754391
-42.57259768049301 -99.50977236916611 -6.083434735392391
-42.683250450659905 -99.70094383458013 -6.053584850338968
-42.62945405132269 -99.59807115361896 -6.068436755568809
-42.66602345971727 -99.5154345334603 -6.0595507819327565
-42.626367799807966 -99.29842103188503 -6.068552287019616
-42.46933732010349 -98.60143652497487 -6.081571074682996
-42.4090963485963 -98.40347145572464 -6.0822141314676
-42.426175041598604 -98.32635872405021 -6.07128952640594
-42.75289932595239 -99.65451521739519 -6.036495452334395
-42.72577821521389 -99.56364127161545 -6.0440880886870545
-42.536841297432034 -98.72059890416017 -6.071541245048303
-42.5087577752575 -98.38610640555117 -6.05534842119906
-42.44082645964582 -98.31248778273162 -6.0663327106606815
-42.856842430825715 -99.71094867475378 -6.009496852352119
-42.79206229744735 -99.51363369698535 -6.02733096070463
-42.84692680379515 -99.3690317799476 -6.012568027757286
-42.62427310107378 -98.5498990618748 -6.038210771366385
-42.62047294455595 -98.4177342753716 -6.029417312980053
-42.55577537247443 -98.3306195535687 -6.038735422491845
-42.568623944799505 -98.31707103761892 -6.034305061356226
-42.597904791209594 -98.19799227316845 -6.016108187038303
-42.78066877758504 -98.68917123516675 -6.006752857426775
-42.693664946333016 -98.52945547667291 -6.0189586268401545
-42.67982470834809 -98.3677204902069 -6.0102476526552575
-42.68897311026217 -98.2448666105279 -5.997403818564105
-42.650947624705346 -98.16767996277514 -5.999853709848847
-42.83164378133049 -98.67310521768448 -5.992647126665601
-42.88427798171481 -98.06045642581138 -6.059132400856725
-42.85778680783142 -98.0428904108777 -6.063269706542061
-42.93123365920815 -98.08669031164835 -6.051293478164309
-43.292763381101096 -99.25967380620102 -6.034797986261329
-43.18374627928509 -97.49589248764555 -6.082605797250804
-43.25404749871 -97.3503878799382 -6.052633121606242
-43.28919414007617 -97.36656383986636 -6.0482724117957405
-43.269106624450465 -97.33303032411551 -6.048258215399465
-43.25488941184165 -97.0912370656285 -6.02479742591429
-43.20132226226799 -97.05248647861278 -6.029480779794156
-43.431931059792504 -97.44747721590295 -6.034606860464634
-43.59360848346937 -97.57169033723737 -6.017554013144389
-43.56047279919075 -97.44055430581531 -6.011426208425523
-43.642280533426685 -97.4743725665613 -6.000165547767674
-43.59156409227455 -97.34789478113349 -5.9972004642397465
-44.15836412843794 -97.44651275037366 -6.081276815897497
-44.26526929412084 -97.49276243436907 -6.069329614761255
-44.20108431057625 -97.43242532066046 -6.074070117733097
-44.243815238201876 -97.36398564437343 -6.062735779430147
-44.30131704182415 -97.31581511463807 -6.050796833655133
-44.6925876680972 -95.84169144501345 -6.08024032987857
-44.72261250030029 -95.65868036425049 -6.062009552162198
-44.69232404143678 -95.61229045192475 -6.061115397346784
-44.892387701652005 -95.92128966047682 -6.066383851466172
-44.81868630869672 -95.88940938609522 -6.071365047490839
-44.88302283732776 -95.74999390791865 -6.053454262639656
-44.901738126362375 -95.64831101071837 -6.043156888230061
-44.936100501895524 -95.58753442778809 -6.034633765342344
-45.0583377892908 -95.8000660077336 -6.039690337503662
-45.03241580835368 -95.606702044742 -6.02654738347986
-44.9610323473637 -95.54536142155801 -6.02863512384516
-44.9616385628259 -95.32469916856763 -6.009866268723183
-45.00667785795907 -95.32216878615114 -6.005218449693089
-45.18209600994159 -95.6217828146685 -6.012596069927494
-45.26985570410325 -95.56932645201019 -5.999431673884254
-45.83661868505722 -93.83614625866366 -6.082364019390454
-46.02646889161006 -93.93865991257934 -6.07662595183333
-45.96568917134069 -93.8425343748347 -6.074126571948781
-46.09062536887955 -94.17827470638464 -6.088526547028644
-46.044277123866436 -93.96151609680922 -6.077016693696303
-46.02529295173627 -93.54798527045307 -6.049686079876701
-45.960463279493936 -93.50527058132798 -6.051018904158489
-46.06930427536867 -93.56957329858737 -6.0482753259348865
-46.08137925124323 -93.44161129183533 -6.038487232816
-45.97845489939065 -93.16995869361654 -6.026090637791412
-45.99614143788572 -93.11247908495844 -6.020793281855608
-46.2822403485721 -93.88918436520562 -6.055861889615911
-46.232903252660876 -93.87041495508491 -6.057961169027853
-46.13032367138071 -93.21939539934735 -6.019615641966649
-46.10012488784045 -93.16408598049358 -6.017680734855707
-46.22280695894778 -93.21953518718709 -6.013518105441863
-46.19733025421875 -93.01442168124709 -6.000646691914676
-47.79363478540975 -88.90463369173558 -6.05512671099488
-47.730680186013196 -88.46819033177545 -6.035897884627763
-47.91028360027417 -88.83512032683447 -6.047367815668278
-48.075606190432815 -89.17040432685465 -6.057619676549738
-48.03877538489188 -89.1106976137457 -6.056110665717464
-47.99027224304414 -88.88348489513952 -6.046745443541961
-47.96621245017946 -88.84005654573362 -6.045448449956744
-47.905211022165815 -88.51587729798685 -6.031730033215277
-47.89395109479398 -88.41628098705085 -6.027239593743589
-48.20373708286283 -89.12738599505822 -6.0506158234759475
-48.12203458405959 -88.94281539227877 -6.044640250421694
-47.980318567610695 -88.22767067924494 -6.014589822325822
-47.945106088765144 -88.07497548561919 -6.008337642581797
-48.194051929521905 -88.74984659725477 -6.032443432612144
-18.1227276410837 -74.4612505793906 -5.9706412258191675
-18.42725136448475 -73.77670022770056 -5.932942283130777
-18.844941360578158 -74.10024409793719 -5.942878218690755
-19.24591006912717 -73.52577862670522 -5.908860891931442
-19.795912264310342 -75.07294709339438 -5.976700978473701
-20.798214750050207 -75.64509781498978 -5.990199020664254
-20.79184378631772 -74.41360205958928 -5.9296890233423
-21.06159330553764 -75.63777039973935 -5.985972391518375
-21.141712443365606 -75.56727393237588 -5.981415466987418
-20.94538806702216 -74.43785749173736 -5.928476109816342
-21.241812559768576 -74.29666325301612 -5.91708738758134
-21.49946773432743 -74.1137206427678 -5.90393860396325
-31.01355621462922 -116.3468079401962 -5.972264563501016
-22.671348065340624 -75.21261165931497 -5.940609270909655
-22.747524266626403 -75.14442151228576 -5.935918880981701
-22.75388391401211 -74.45021897679968 -5.90111207827193
-26.724012762684737 -75.6922097279951 -5.897882947309996
-26.81773993132379 -75.67986197071946 -5.895711550418193
-32.73572485252121 -103.48413374280706 -5.898174783263424
-32.81029380411086 -103.53603789300546 -5.9033259514755025
-32.94803483544426 -103.37656141941703 -5.92657625127375
-33.06270392782736 -103.49554776891608 -5.932181078836185
-33.12571924668673 -103.6034346036342 -5.932562397768112
-33.12805005276198 -103.45035209896685 -5.941538961954745
-33.09558749141338 -103.18177685767098 -5.952626584652567
-33.285052567041944 -103.80883216020308 -5.936406904605619
-33.26331829075491 -103.7395557463879 -5.938493220915596
-33.28397576785776 -103.67288687503589 -5.944653810697045
-33.19132416773071 -103.50578346805936 -5.9449946901578805
-33.185062601600755 -103.4762965762741 -5.946047953480514
-33.1894420381248 -103.34357238574901 -5.9539549617509415
-33.11411577956954 -103.13727078146154 -5.956941384496631
-33.12305201125908 -103.08501731902321 -5.960572353204134
-35.621275657136756 -109.87507344949799 -5.911015323005671
-35.708536291784014 -109.74956405514118 -5.922618914510052
-35.45941075147374 -101.2854829606897 -5.970174532705946
-35.958986024187325 -102.1371548952043 -5.966835060512672
-35.91708404997322 -102.10783741372109 -5.9640615343139425
-35.98321498421551 -102.18125696180827 -5.965141309445977
-35.812559935409666 -100.94939279656109 -5.905139119710364
-35.78638609582562 -100.88977860328427 -5.904850410479337
-35.731284770586726 -100.81987148559378 -5.8989845038770845
-35.85183714627262 -100.65703808838879 -5.937830107351845
-35.96731240747167 -100.64615859661107 -5.963722467218825
-35.876590490502196 -100.56689257323055 -5.949883898561568
-35.98211064360689 -100.6617653595873 -5.965681639412575
-37.00580620413321 -104.36875443322971 -5.957975073285921
-37.7928120212794 -104.81901151221248 -5.925606327171986
-37.834258164724766 -104.75289274934163 -5.936835817581094
-37.94833880854642 -104.68536271869192 -5.950215972790604
-37.99601784493228 -104.62968027714406 -5.959928227369534
-38.07566144665185 -104.7004808608059 -5.950898657535882
-38.058278425381815 -104.60566741035322 -5.96506775298832
-38.16823591462506 -104.65153431047338 -5.960343607282207
-38.131912132359076 -104.58897534026346 -5.9692641205829515
-38.24263239195568 -104.73634410318896 -5.948540034885022
-38.23993879537491 -104.56362346332374 -5.975233611894725
-38.51424859174836 -104.61269887756019 -5.971121015057101
-38.5682252788506 -104.53375860397995 -5.983895735569986
-38.43671812170101 -103.94214886815845 -5.8922388722526335
-38.5791213079924 -103.94663435863545 -5.8941957553590925
-38.521856224808154 -103.89347077793643 -5.903307235288698
-38.645682105478876 -103.92262918768719 -5.899811959492352
-38.632426450541445 -103.91425311884694 -5.901215025571005
-38.88207375073294 -103.06658260080583 -5.916635369364048
-38.854881953208135 -103.02733168621334 -5.9251954065824854
-38.95287045253277 -103.0934035815544 -5.911341838568488
-39.07393872460125 -103.17437534357546 -5.893379791135187
-39.31055517830401 -103.63089303691052 -5.956185514288848
-39.15609746642752 -102.92958793493685 -5.949879184091888
-39.25469716944231 -102.99849368415975 -5.933488618525436
-39.244595328241246 -102.94320689836498 -5.946353938595197
-39.238228556760156 -102.84118619114986 -5.9700158643446635
-39.375509717578964 -103.1210561644426 -5.903578091864231
-39.36161571127181 -102.93440018089439 -5.947086253883751
-39.43308076278491 -102.83185896640177 -5.9695837681872
-39.682544448634765 -103.41315655766118 -5.98967701127165
-42.000879084892794 -101.22650556948179 -5.979759335776837
-42.47786794286989 -99.91487541397201 -5.984454146352122
-42.53259122276974 -98.87120106996336 -5.967723880554392
-42.46360104636963 -98.83212741003112 -5.986253260940334
-42.387842801021975 -98.47709333198479 -5.984580510553721
-42.76357081936572 -99.62943351698026 -5.910756717487975
-42.62615885896913 -98.86287073030057 -5.939556970994909
-42.508845399011975 -98.64174811690664 -5.961501219023432
-42.585336383195546 -98.59001654058316 -5.935302376638056
-42.504369577574565 -98.48421710433365 -5.950933723355799
-42.53156451810484 -98.37663157924345 -5.93372797970842
-42.49314438258178 -98.27103885862489 -5.9348675723597735
-42.64898518011359 -98.85682701000961 -5.9325164823217404
-42.68689331471188 -98.79366548609468 -5.918057708026499
-42.66615892807093 -98.64664325442043 -5.915380900729857
-42.61974767371342 -98.53145668195974 -5.920854935251786
-42.593044017103914 -98.27827249564879 -5.90657731466155
-42.9534228077614 -99.35789152922105 -5.98503022682317
-42.76383646614727 -98.76719778525965 -5.8938065202934835
-42.73650509187429 -98.66190513549614 -5.895592245720416
-42.70844267372755 -98.53592223266222 -5.895090598620905
-43.024910888927955 -99.60304322356991 -5.96763705471297
-42.84590117619102 -98.66012492626487 -5.9881995212060755
-42.862880980815646 -98.43484140359301 -5.96868077023057
-42.946156034757536 -98.6326467897211 -5.96066877449976
-42.877932101725186 -98.41303104883352 -5.963165624453772
-43.22544464264807 -99.40218933345767 -5.915480649011772
-43.0360419145252 -98.45704443383148 -5.92588894187868
-42.97174894525485 -98.42973379306393 -5.94040435418502
-42.93353104670189 -98.07632016300533 -5.919900637096585
-43.231969283020135 -99.20678657453217 -5.91050576371338
-43.04889299537045 -97.53735788006306 -5.971835032830581
-43.15635062221265 -97.53829453755993 -5.949541630100761
-43.10117942137806 -97.45161194123791 -5.945649021094853
-43.573081818905436 -99.30988224554036 -5.973800300450224
-43.32607688085542 -97.725341548648 -5.933190004016551
-43.24168183937064 -97.52640215411385 -5.930423712772405
-43.22728025214726 -97.38064453699903 -5.911497830448623
-43.16824819392143 -97.32120724122719 -5.916434548749801
-43.223141643792246 -97.22460913096471 -5.893516435204935
-43.72017697613011 -99.30761833587081 -5.9411810467786195
-43.35767152369211 -97.73717473008543 -5.927628105721257
-43.28415350543544 -97.33145740195043 -5.894058194254544
-43.500997252913834 -97.83527106369871 -5.906221339811457
-43.49267026589042 -97.7771665085204 -5.90259964870458
-43.43867287602096 -97.57424694820445 -5.894112335913835
-43.529389255343666 -96.85933882772396 -5.953109011012753
-43.69980971429563 -97.41233429684736 -5.984319368854948
-43.65974414144062 -97.28637834683587 -5.979366353967235
-43.67463130570916 -97.09112342166655 -5.95385473541686
-43.64179841492993 -97.01807587209514 -5.951638811971043
-43.602243128269095 -96.91165552145321 -5.946749360272301
-43.61713060618652 -96.84864316316867 -5.93727349726057
-43.85058728812065 -97.43292920332796 -5.9596291883936825
-43.72030335525999 -96.91561642192019 -5.927320181630865
-43.70623810274326 -96.74517366773134 -5.91083927657648
-43.81187095777861 -96.96393883054414 -5.917070957915394
-43.755899358223964 -96.68898229682651 -5.896213635275595
-44.19090303858605 -97.44799232885863 -5.90060759258412
-44.2090335729097 -97.39701760836817 -5.892931326963004
-44.37279266885424 -96.48889331905605 -5.968951655958518
-44.43729304146298 -96.41099730573134 -5.952871683200176
-44.415522038183155 -96.35653277149186 -5.95064073365349
-44.399864069380655 -96.25287593823651 -5.942730878864025
-44.505465217153194 -96.239264108611 -5.927276295853584
-44.55332964851978 -95.95348710491015 -5.892730519785879
-44.665939792361186 -96.12591272953503 -5.894826154503523
-45.09608692808592 -95.17512899605728 -5.983761469939198
-45.12948037054986 -95.10847623295739 -5.97470285389106
-45.16704924065025 -94.90654621285748 -5.953413649317048
-45.413170363653286 -95.56601522108653 -5.984545271533937
-45.2619307613716 -94.97265523561141 -5.949899909047081
-45.24121594806081 -94.85190386470377 -5.941377217283296
-45.35334134638602 -94.86324015747667 -5.9314291367715635
-45.328546173213546 -94.70931547375824 -5.920331969008819
-45.32599371159575 -94.64807427991336 -5.915102425796364
-45.24832716495511 -94.45218026770544 -5.904918009556936
-45.387458048741514 -94.60259723567549 -5.905156312735925
-45.38112166732931 -94.50917313875149 -5.897399864237529
-45.37620007044141 -94.44777032908578 -5.892324885160084
-46.53670706460253 -96.63266226703966 -5.940657428303936
-46.38614137456906 -92.71285376890985 -5.96682143999041
-46.44778007472612 -92.58886479714745 -5.953899347222009
-46.59448954155197 -92.29420928162926 -5.92316130267932
-46.56043380237901 -92.2814623971312 -5.924479532956293
-46.675952942255584 -92.3080845603441 -5.918894362180493
-46.64522650365881 -92.22204396529398 -5.914687907621007
-46.635940652618196 -92.11299455107765 -5.907411410185386
-46.68144959892978 -92.01993050095263 -5.89768653812077
-45.52062240037651 -84.58065574950828 -5.915390767188677
-48.16447254300337 -87.62942928173362 -5.978013166081798
-48.45081427321011 -86.94946424983917 -5.9334653830603115
-48.70275864598186 -87.7140806589144 -5.9621788768641375
-48.54459604892788 -86.9996233175945 -5.932504757471978
-48.5455263682648 -86.91042860088471 -5.928087569408409
-48.5256625862711 -86.75898300295493 -5.92125293070683
-30.089975276517496 -118.94407327903795 -5.8438053410307385
-30.18918736650646 -118.90906192116589 -5.846558095608305
-30.62262988945558 -118.3304369341944 -5.877950327752435
-30.74854954856322 -118.32523698895119 -5.879637888996307
-22.207189301422684 -74.0154914352976 -5.88801280145324
-22.39930915113337 -73.55120068997579 -5.861720796910688
-22.57413628607593 -73.42772569068636 -5.852725438162723
-22.89419009444294 -73.71963938532473 -5.862341048502142
-23.042596810063245 -73.75885869481291 -5.861800614237401
-23.346020709304288 -74.03861020170555 -5.87105722470835
-23.36501893982152 -73.8767209929459 -5.862488094465953
-23.332570707496515 -73.63184254109979 -5.8507945807580555
-23.247998947062325 -73.30215328158663 -5.835452301215259
-23.36450630748362 -73.28795294307365 -5.8329330541152995
-23.441566808172638 -73.21639721048035 -5.827930020657736
-23.708276204877123 -73.45094390250708 -5.83547059793646
-23.686588454732863 -73.21567744082232 -5.823823705442219
-23.789299000944915 -73.18117243071968 -5.820480411512656
-23.738896695257303 -72.8940481564491 -5.806675165298062
-23.952251191444397 -72.83647429542427 -5.800164893518603
-26.36104668785995 -75.41295104656109 -5.889959925797705
-32.36818779229583 -103.51536437546655 -5.856928930536876
-32.635527915112604 -103.51608272700841 -5.885778765250846
-26.8970905639801 -75.63250730148971 -5.89179394688199
-35.55706897930745 -111.23815600114774 -5.798156488810675
-34.08824235541796 -103.13508075534098 -5.815794911494878
-35.806163924959634 -110.67528411307588 -5.847802445493656
-35.06163755711529 -102.30179474634886 -5.810854338128399
-35.173424978163226 -102.4095183367688 -5.8171562450589684
-35.16235011833391 -102.33361394601913 -5.823476889781433
-35.48713965170275 -101.3675525960584 -5.797652191578975
-35.92664491927951 -102.07071463291093 -5.797340355994276
-36.04859985604955 -102.14802619558803 -5.807658828977894
-36.007976781862226 -102.08675959092218 -5.809381091892068
-37.585441535406666 -105.3130562077935 -5.8445626494023255
-37.599686692003104 -105.07448278036031 -5.881019936926069
-37.75837890845727 -105.12491308617037 -5.87816849556444
-37.803012436569695 -105.08509430107686 -5.885447902149498
-37.981497161406494 -104.38048575954201 -5.795810507422066
-38.02547160028979 -104.34208678841199 -5.804585114134834
-38.09941155363679 -104.38905717098987 -5.798302104868094
-38.17318037176927 -104.25987861409268 -5.824955457435934
-38.24102599793711 -104.14505762367924 -5.848647963242957
-38.25142854830271 -104.07740426645074 -5.8617040475026485
-38.35391577950773 -104.02339135462792 -5.874786228650078
-38.3410794908845 -103.96296359764347 -5.885906841108997
-38.41868702291812 -104.10698622710156 -5.860440673241929
-38.39342163332632 -103.9729020335366 -5.88536432311237
-38.41438171307497 -103.96139270554096 -5.888055573115793
-38.53933961238541 -103.96708915197584 -5.889587835251737
-38.628113013824944 -103.59492532816479 -5.791171050761362
-38.67668386409047 -103.47009460590654 -5.820697501368785
-38.716966008448196 -103.55944977465663 -5.801189281566095
-38.71291470557451 -103.44789009737354 -5.826543687912379
-33.11335709761444 -76.112828051255 -5.795781415901489
-39.000290690147935 -103.29090577490909 -5.866284728556689
-39.03144920711349 -103.21987636537133 -5.8827868935878245
-33.97518942070718 -77.15788127792443 -5.832305418687848
-33.98271137683959 -76.86364659177775 -5.816490003521257
-37.76643882199876 -90.49523096824122 -5.841736124577078
-37.81576384373247 -90.43503606523032 -5.833906637020449
-37.87044441969605 -90.39225660244863 -5.828196868303108
-35.7133110420109 -77.7440408492482 -5.8242386150459735
-35.82282342199537 -77.71278063862763 -5.820097557852637
-35.891715347543744 -77.67885901388016 -5.81661818476938
-42.90036751840478 -98.72976202404746 -5.851262303066822
-42.865373765714565 -98.59099355266123 -5.85280457043684
-42.83677584730863 -98.53528675171931 -5.857217268615275
-42.96388562900345 -98.69287378152082 -5.830262471070306
-42.96930836491892 -98.5424593445361 -5.818734810342474
-43.050469241924716 -98.64456634295048 -5.8016826147107015
-43.02175131962626 -98.43731345147526 -5.795359454904698
-43.007316212027746 -98.40864311507055 -5.797286532810469
-43.031911626994024 -97.86445565819264 -5.873581574312819
-43.010276954405754 -97.7907977409822 -5.870846422131109
-43.164773562134286 -98.10355525400398 -5.864122985595358
-43.12242498090769 -98.01270663707207 -5.866198169500417
-43.11332852499383 -98.00129066161928 -5.867362792262729
-43.184873117280695 -97.88697006438863 -5.837872486425984
-43.07399104946441 -97.42829798653173 -5.803094480383597
-43.35252655227419 -98.03779228717453 -5.8105923687471845
-43.378665043019716 -97.16597407916379 -5.854863929643549
-43.56661373629943 -97.75537074527728 -5.884758885450569
-43.574630135303465 -97.54952969274528 -5.86287977453363
-43.55572448333026 -97.03625230049452 -5.803068008960364
-43.50421452687104 -96.96471502036732 -5.804459391804377
-43.776005805521294 -96.64849791559048 -5.888256211898435
-43.7585493725928 -96.61884160593858 -5.887749642619025
-44.23419007530367 -97.38873707897724 -5.887746699933677
-44.263192609307346 -97.3047442200379 -5.875136019620632
-44.31156216532218 -97.30608010786372 -5.866690234996293
-44.424990842896584 -97.20950014328594 -5.837931474842039
-44.550494966122 -97.02490903885545 -5.798718227666175
-44.56939375405336 -95.89561519276074 -5.884747748061856
-44.555210152446996 -95.85539056530405 -5.882536495216418
-44.71740783713941 -96.04872245441881 -5.880426977987147
-44.629311944524986 -95.980227759211 -5.885350097050998
-44.77111033469568 -95.87120583042555 -5.855742356995071
-44.898417613403 -95.76907511432782 -5.828675192833997
-44.865362082645106 -95.3644900464676 -5.7912069480860175
-45.02837973950685 -95.79435192416835 -5.813993407312671
-45.030674493625575 -95.76706155295163 -5.81101204529342
-45.31670033174957 -94.33126723087952 -5.887442620258756
-45.44567675097814 -94.29557440262849 -5.871946698231349
-45.40319852300969 -94.2270709111093 -5.869686974703786
-45.51467912494836 -94.30609734916854 -5.866322399160768
-45.48767624134098 -94.12350619123336 -5.852242240316137
-45.59929161181009 -93.99706675388494 -5.830056356343042
-45.602533824579275 -93.84954355031883 -5.816096645421695
-45.65952356835719 -93.87511031014877 -5.813155442670453
-45.59641736912063 -93.81783862676986 -5.813749209745131
-46.77899685645298 -91.87475214567468 -5.8809192514613455
-46.828905275397 -91.74969194190813 -5.8685813781898
-46.84886062893115 -91.65414090470124 -5.860299591147802
-47.17640783340921 -91.27233859127773 -5.811560790067743
-47.25108083115006 -91.11402483199963 -5.795174851018684
-49.4610495412242 -85.28661730044132 -5.813180567350132
-49.392977587027694 -85.2326276193367 -5.812938793979388
-49.53244904844245 -85.28928916351902 -5.810610277301171
-7.210320233034942 -93.68414310675192 -5.763349068486686
-7.361270643806897 -93.59372364595366 -5.763585814289013
-29.16600716880626 -120.69500156546074 -5.75329414954852
-23.317356476721024 -71.1190287318979 -5.723872759255947
-23.70461517893408 -72.20742278634485 -5.772559943823248
-23.43656257161413 -71.10111100749415 -5.720800471169278
-23.678793954880618 -71.95390214129019 -5.760008397103438
-23.685385324091037 -71.07905768985435 -5.7154042191382
-23.779656844815648 -71.01226395047232 -5.710503207539407
-34.53116919463323 -111.40166744270843 -5.767838839090867
-34.84787498626044 -112.32041504281267 -5.699304807314839
-34.95183304504153 -112.17086658178093 -5.71308950059437
-32.73551359428894 -100.89784231367999 -5.731471963227733
-32.5983793197056 -100.5782578792101 -5.713420710043598
-33.26415079985113 -103.14174808889007 -5.705678425284624
-32.814054225651994 -100.89248969649212 -5.744239003511273
-33.387069102191276 -103.09095214060265 -5.726154452489573
-32.83738908914453 -100.74371326528026 -5.750496568975856
-32.85838767983621 -100.66569800018155 -5.75498516365799
-32.80159736809962 -100.58126200320305 -5.746673187209614
-35.23491142488606 -111.9339953439989 -5.736547279452719
-35.21923936589079 -111.6850501475804 -5.756822482507086
-33.4291603984206 -103.09349592629039 -5.731678197959955
-35.279943267823995 -111.65069487952509 -5.760511308296689
-35.235929761657495 -111.49281681541416 -5.7728641383685515
-35.41473300620797 -111.5356189628617 -5.771790161375548
-35.81593163385362 -102.51407262893082 -5.714425456609989
-35.82496945022691 -102.40954449177438 -5.731378818077886
-31.346742490706113 -74.74384769082322 -5.761095101642092
-37.66729264016487 -104.68588568264988 -5.7262086324665065
-37.64344292911616 -104.62955759221163 -5.735484904053568
-37.75893956498796 -104.63750260699932 -5.739163022119929
-37.85462191475543 -104.57094340392761 -5.755445018881099
-37.8563044947976 -104.39403312459982 -5.788373737431179
-37.89674973495259 -104.53516519444699 -5.763754203509228
-37.87243176290736 -104.40913406164982 -5.786235879242382
