ply
format ascii 1.0
element vertex 817
property float x
property float y
property float z
end_header
108.97712672774516 -182.0373144917824 -0.12151292810773184
108.93378326356444 -182.13120506839562 -0.1301754393309964
108.91425381423309 -182.1815963047896 -0.1243793817383948
108.88656133919179 -182.2443850104096 -0.12262035901611823
108.69768928436207 -182.51740117660574 -0.14273527860400925
108.66481310550984 -182.62860396674103 -0.14403950307837565
108.62923652587999 -182.7013018354202 -0.1475499970362728
108.44832235862918 -183.0099751967116 -0.11160551502084193
108.43949384882092 -183.06757322069353 -0.13453217816651342
108.41185677736176 -183.1693154974017 -0.15614908253176585
108.36736256815422 -183.25318629685884 -0.1648517073328798
108.33064097409866 -183.35248980426337 -0.1802467610812467
108.15584308808843 -183.74122368296864 -0.1526682111131259
108.12550438132476 -183.79135115530426 -0.1638591952889913
108.0695534778852 -183.88586108064627 -0.16857925804231433
109.3340760057212 -181.41625835989635 -0.09179690353437064
109.28772951094156 -181.49224234524243 -0.09433796793457871
109.24764737581516 -181.57766458109356 -0.09681596451271568
109.20426263717543 -181.63397241121996 -0.10382179091797972
109.14746208365565 -181.81478059545174 -0.1112499609098151
109.08959245155755 -181.94071342761254 -0.11219742532755195
109.03597340497262 -182.01103822256303 -0.1046227649617788
108.9915050511061 -182.12862082523543 -0.11251188047919414
108.94316325834323 -182.20289104861865 -0.1137270656553786
108.90100104494289 -182.27719239907765 -0.12794118037341906
108.89732724865397 -182.43123782913352 -0.12218697535523138
108.85457598571972 -182.49721630033793 -0.13016718096750812
108.48211108929473 -183.35111830731825 -0.16715305954613258
108.45255093295131 -183.44428603269026 -0.16332062779394896
108.39902784013398 -183.50765833928784 -0.1847077543524268
108.36561988457578 -183.5855989413459 -0.18333260600265044
108.35474240124879 -183.69566821619492 -0.18207998733736086
108.27764336388763 -183.8159550641484 -0.2098335025757202
108.25540838840479 -183.85721660402208 -0.20372486239560128
109.6560261452136 -180.85910950285788 -0.06585736627287164
109.57528880049114 -181.1063507479968 -0.07058152293619824
109.56265175974936 -181.1661089620644 -0.07455046287045086
109.49846410530422 -181.28709411027 -0.07468178892586141
109.47657729153275 -181.30720452376542 -0.08327889411922529
109.36510797179676 -181.4174494373941 -0.09533336863232866
109.33433586634878 -181.52380793903484 -0.08421331210775773
109.30279816846463 -181.5922913328109 -0.09435183941734526
109.25941885007764 -181.68671847901845 -0.10084762680014625
109.23479273478739 -181.75258823050575 -0.10773019957909302
109.17104413934663 -181.8644304508147 -0.11061936145794904
109.10498907945937 -182.0475942340953 -0.09134556082067491
108.97636040935409 -182.35626073951912 -0.09436831678721613
108.93600880802504 -182.44403974112168 -0.11135377814591596
108.92197425516754 -182.53087726215483 -0.12166316348008477
108.9000052284933 -182.62193789304644 -0.12661674685871227
108.88288361032055 -182.6970203807792 -0.12716182499727413
108.50495601535744 -183.37698027529152 -0.1471127545203007
108.51334636712083 -183.38764962593254 -0.15031421850799975
108.42928175835007 -183.61062974305992 -0.16334588670133166
108.36423224251118 -183.71731278501062 -0.17307096866415617
109.82105242489553 -180.7665902560439 -0.05366162084742909
109.84529937844344 -180.80255928788728 -0.05570583605664814
109.67912823771618 -181.03932791183996 -0.05429504783637229
109.64806627878407 -181.09973669144716 -0.05788725744827716
109.58737941282638 -181.2101382122525 -0.0643838382829881
109.56231991871836 -181.24637507309592 -0.07997169424955708
109.5145249371068 -181.32792924679882 -0.08378268913297682
109.02753600161653 -182.57258889242036 -0.08793485012497815
108.97864813680052 -182.6573051494289 -0.10131754487324485
108.95124948863368 -182.79315635578826 -0.11510236731750678
110.01744408318737 -180.64967459126882 -0.024684017711069872
109.99582675854863 -180.70546494034477 -0.01202864143807103
109.93984502751577 -180.7963699251602 -0.021916065614764002
109.85626508729379 -180.8355685436606 -0.03726930513839033
109.88237931155604 -180.96602000883178 -0.022342750513366094
109.10842978166497 -182.54022343473707 -0.059669340821218
109.09152571582085 -182.58753077220433 -0.06739176027496774
109.036060038405 -182.70760228391768 -0.08976810767581755
108.99921824803799 -182.7829136770934 -0.10128405638288762
110.88369558958587 -178.92194016607328 0.04038580249080326
110.82825192924393 -179.03516301375302 0.04360070933325799
110.80904210206938 -179.0597027689165 0.03300692183053844
110.08306441862953 -180.65007634295932 0.0007017726619025222
110.04064086028725 -180.72612593420465 -7.574580234315231e-05
109.99786114397534 -180.8268974683348 -0.0037138755814741797
109.97625614661199 -180.9016318260257 0.0036338674460552056
109.9276200971933 -180.99698332754917 -0.001924985917218347
109.9146470320498 -181.07026974344546 0.009917133217726137
109.8300551987142 -181.19428652205832 0.007330188382105973
109.79415415595379 -181.2220375086069 0.007593047239761286
109.65776411235025 -181.56525766481982 0.004493697461613211
110.90893595300469 -178.90571752421516 0.03943320354658031
110.84274949250421 -179.04409939513525 0.043767566535355185
110.85705693826515 -179.10813133515555 0.05355783449431628
110.15943485378489 -180.69887887100475 0.009938471143705274
110.12590570182743 -180.76968401461423 0.014876199483667696
110.07692867254227 -180.86227409329828 0.019297589222791567
110.06109979851607 -180.94122430476497 0.01740537894209071
109.99978922646412 -181.03906287205774 0.011247566261294417
109.96025774646604 -181.0948387862144 0.00998610975693337
109.91781203434877 -181.2326947527061 0.01162654500124749
109.9510116549245 -181.3073976788512 0.017098081186678882
110.94665362775422 -179.16301021225053 0.07728080753592403
110.9038281098285 -179.1990446519791 0.06982289592872148
110.25422520073487 -180.74917105853243 0.024447282744773813
110.23794374228214 -180.80415780538297 0.021602308746917043
110.19901919968981 -180.9036054616158 0.02534081243384867
110.12927223948155 -180.99469830257914 0.024241366900382033
110.13611585926539 -181.0530845336448 0.03015648415646255
110.06569491780208 -181.15711138148978 0.02669475205900773
110.01405076867754 -181.3409740003122 0.02346428665216771
111.05463055489867 -179.19145280312168 0.08485275069726816
110.32812987308975 -180.78137379701187 0.034171005406642974
110.31390344575593 -180.8475595165342 0.02509328976235725
110.29041028553573 -180.92776294212402 0.026339307493260633
110.21862247986296 -181.05917467499083 0.028965371501411652
110.17953647742458 -181.0781287469789 0.03812239543698104
111.55964939503792 -178.3493087431019 0.15034628879783768
111.21135641035289 -179.08281731998918 0.11167186681010088
111.15503903133819 -179.15419234803898 0.0986705674655754
111.12386785509327 -179.2385357475807 0.09243030197657759
111.08975122330558 -179.28747075916243 0.09302742175963802
110.42395647624998 -180.82459567307842 0.04775628669554599
110.40323124679816 -180.885756579141 0.035074189526320576
110.37758497575628 -180.99451846601167 0.04205513154409535
110.35864185073142 -181.08839881476402 0.03948243887753444
110.32445538153833 -181.18082435535072 0.03177687095142967
111.5895493453817 -178.38018155501283 0.1564054045156923
111.5687616208836 -178.4531841095594 0.1520524738156243
111.53629787632494 -178.55402885542344 0.14871786968939416
111.4613788122065 -178.85505127421965 0.12015084333202886
111.40833028538125 -178.9496869333559 0.11754921182816658
111.2643822389098 -179.08126947450597 0.10779070101185367
111.20604036094412 -179.2967523655561 0.10179857345786625
111.18736216822373 -179.32596744765985 0.10507158033224034
110.48978950385215 -180.9294516714495 0.04196743526737057
110.46671532204091 -181.01233926154666 0.04401055212355198
110.40247190430507 -181.1105962475351 0.03788516018031629
110.36670655117952 -181.18090677048914 0.03583364966609748
110.34746285310948 -181.3196530799425 0.030759297298434407
111.51527833781127 -178.84743159110624 0.12989187609827263
111.46191559448238 -178.92278187898623 0.12855483518076705
111.40420714418424 -179.15721654849312 0.1150383267758105
111.35256049663778 -179.1742337407434 0.10360446776675031
111.1602975722499 -179.76152957955418 0.10886315128734736
111.10771257936274 -179.90274107099452 0.09226255158222096
111.06051644881309 -179.97424126808303 0.10135096732200366
111.0184447743497 -180.06401692964306 0.09649968753460897
110.98166085028211 -180.15957228641636 0.087314554170637
110.94764994426289 -180.22696724473548 0.08692507772372632
110.83476372192219 -180.4706922535448 0.07795582656546607
110.82033393730669 -180.52350921277872 0.07136316808764476
110.80397870279566 -180.5948900900296 0.06961214674959126
110.72410899200214 -180.68031245188658 0.06884158727666467
110.52802758113019 -180.9976005441829 0.04624184327912084
111.63808756990707 -178.94239954578856 0.1347293512715062
111.60918535678725 -178.96509611192005 0.13135427820606954
111.52615633444974 -179.13383998461094 0.11305559705227602
111.49572713047164 -179.168296467992 0.11465119734813767
111.30206123941217 -179.71133014149044 0.11804912593956624
111.18624181063772 -179.76973082028866 0.10818020872026857
111.13247853177727 -179.8902189693895 0.09280608779594857
111.10535920061396 -179.94205446748313 0.10530613133031924
111.07883399258175 -180.0684851862994 0.09676665623971492
111.0102493020982 -180.17277928274473 0.09087529845622344
111.00419967052235 -180.24861326948943 0.08784921896725639
110.88534414374901 -180.56519097580733 0.07438603375130559
110.80957023835425 -180.6069858763481 0.06916509442740792
110.66862995512217 -180.9663321396369 0.055332140620183656
111.87862230386382 -178.6169934656428 0.17311333807161827
111.65528741416429 -178.9577761332212 0.14124082139180022
111.65848657732474 -179.03410486746625 0.14593969827999814
111.62180432325255 -179.14395784524257 0.11919059427544121
111.55852966458761 -179.16592195709666 0.1145483925301033
111.32834819909041 -179.75998968110463 0.11427188077852851
111.01705155388025 -180.51424385703464 0.07920964621387305
110.76494584982565 -181.055691044822 0.05594057986791734
110.7182755505009 -181.23087080320423 0.045822212823042774
112.00800403794452 -178.55198033111304 0.16670420099297117
111.95051303540721 -178.59126592825424 0.1745901535558933
111.73433728240319 -179.09397585057732 0.13433353444908586
111.71797299575198 -179.15189554268446 0.12817377473856373
111.34221907417654 -179.90909409270571 0.10799083346750377
111.26564742300157 -180.1320922040733 0.10248345420088595
110.74277914179805 -181.26539194517815 0.04850237039768979
111.78625496919003 -179.12082759237393 0.1318224475453621
110.86964253005462 -181.4310940782396 -0.009611314323734743
111.20945758346338 -181.3823037815269 -0.03724996838133465
110.79872156781977 -182.28850652509414 -0.07595679545996781
110.8216858184731 -182.32304061533594 -0.08588799139562453
110.51535274693116 -182.96706516420673 -0.08913495010335593
110.46756721345376 -183.12391820196356 -0.10613231372030285
110.37665829793633 -183.15023410073763 -0.11409344783931485
111.25796570868104 -181.37833445183026 -0.039651110754488794
111.28491785239046 -181.50189586557562 -0.04439304120223331
111.05940603670912 -181.97380923071245 -0.0658973377271942
110.82669654578625 -182.38108663627398 -0.08741696307720925
110.6165772575788 -182.96420883127746 -0.10448596670386223
110.58901913539667 -183.00966433184047 -0.10278851790866317
110.50002088928134 -183.09492875561426 -0.11066024555985121
110.49336997165224 -183.21340113034276 -0.1258013693914669
110.42883394512964 -183.278620542069 -0.1306681616215407
112.05640327417544 -179.87488276004035 0.06103927099558648
111.29362393391179 -181.516479481564 -0.043425254646643485
111.22045719975519 -181.7189239358191 -0.05210769021230266
111.24035738934377 -181.84457809955225 -0.047837033464239065
111.19643368375218 -181.89552037456863 -0.05814098117344846
111.17887893492387 -181.98177871852542 -0.0612520213496911
111.03861629978498 -182.27559422866392 -0.06829638739593324
111.00165815330139 -182.3309387390763 -0.06506032294988551
110.99502779157199 -182.41168536920247 -0.06870437321816136
110.95051355012625 -182.50256162963436 -0.08747875928685345
110.81116735332769 -182.75002721394281 -0.09145439770470376
110.76206020425407 -182.80562831138715 -0.07112374647223763
110.75779876957503 -182.8817860080461 -0.06046671762855749
110.71785251957276 -182.99638875391878 -0.07783437896133727
110.66612163788868 -183.0375667207107 -0.09071962120902755
112.99669866095519 -177.97606042543862 0.21097326175483483
112.40908176921921 -179.3909615675727 0.09136897477900469
112.3793073335954 -179.45376436501704 0.06371418822190655
112.15305744307862 -179.84646645102887 0.051956245224228814
112.15688752001017 -179.85639608340182 0.04854529225316817
111.8358860321229 -180.6340321678676 0.021058752958157956
111.64731760140688 -181.1081141889148 -0.015372266267802526
111.24521988537663 -181.91048709855198 -0.05688328950320809
111.24684094866477 -182.0052740107527 -0.05144153439123966
111.07779434984229 -182.2794523356645 -0.06950611995837708
111.08307952014536 -182.37792055886015 -0.02899455593258715
111.04445475639463 -182.46177093685557 -0.0315936617613064
110.9491029634293 -182.5576354963526 -0.08211234682516522
110.94708416214996 -182.6405672807094 -0.08261093688217713
110.80656374782215 -182.91207483242047 -0.09028527144616594
110.76772183124855 -182.98787691339217 -0.04572454436897322
110.73989728467019 -183.07849657543667 -0.07761853777003358
112.5302982748279 -179.341816042193 0.0898738186147679
112.48056888524106 -179.39667923097866 0.0839795426366911
112.45830446991253 -179.49713661658103 0.0742602894943779
112.43087693288044 -179.57198081362608 0.08424706171741964
112.17122177650027 -180.16403569582724 0.06636892095683256
112.15266691156111 -180.18513350317173 0.0679654891188689
112.07002795448048 -180.43742814502048 0.055186138561964415
112.05710134906617 -180.46420804819232 0.05710549538723886
111.98998428138079 -180.6089212153436 0.0715393053118838
111.9534570566456 -180.6653254046819 0.043620145145102596
111.844062519771 -180.73484635626912 -0.0011507212397867672
111.85043028502857 -180.89851458024796 0.015722966722521714
111.81907728693082 -180.95427345388185 0.018504188559747115
111.81498915170349 -181.022923344276 0.02372415516890536
111.71578940519717 -181.13484693711007 -0.00403837860925349
111.69236092600417 -181.2072852316058 -0.006526468491587334
111.64522868507278 -181.3478227980509 -0.015860078242139086
111.63116413910348 -181.43073822524556 -0.0252713736781921
111.59968998673922 -181.49253538427163 -0.02200660612179206
111.53496347845959 -181.643421039649 -0.019464037811309898
111.51821807038206 -181.6884217225101 -0.01686313430179809
111.29175019003767 -182.0875406760144 -0.05376604396765394
111.30183601811649 -182.1227084824211 -0.058265791001563816
111.12983832022259 -182.41139765951564 -0.0012138394521925555
111.04084557042849 -182.70554541773092 -0.048391050807411906
112.67946297998952 -179.2941113033189 0.091437639609449
112.62895215717464 -179.35592923483395 0.08238222791856448
112.56779788618387 -179.45185132566183 0.09068344129099715
112.54619332241391 -179.51217212853493 0.09140806093155118
112.4797871645713 -179.60994202543625 0.07810835519820236
112.45880887592502 -179.71533141053027 0.06606307108069598
112.43783245840832 -179.797382752282 0.07680694442824332
112.39434927301106 -179.95107228563367 0.08534917541279013
112.37071094539976 -179.96059063603346 0.07441323380999687
112.25945361852041 -180.14088126261925 0.08003000836196528
112.21419693280671 -180.2610174524499 0.07079543233581542
112.1714941677513 -180.34693153219763 0.05611227288890086
112.13931846166025 -180.43200497036332 0.053810126757537824
112.11310037162171 -180.5327743887708 0.0529197332750565
112.05141970726825 -180.61161182888964 0.06731789266540611
111.9932557462919 -180.7043126785429 0.06735109633880398
112.00267963433238 -180.8063601188268 0.05827283978990161
111.93933048914391 -180.90724348747807 0.04381569840867994
111.90302164916703 -181.00454220144547 0.048150563301102234
111.83919121545749 -181.08486887741833 0.017229677583566638
111.81684904086487 -181.16239320155725 0.036778068335798775
111.781260903727 -181.23203774010216 0.009180066359353423
111.66603456484236 -181.41397734987444 -0.02618983355687443
111.60422638923154 -181.54094608451564 -0.03151720752260756
111.55170951979353 -181.65792999486527 -0.002755460839386825
111.5504771943894 -181.67439347539153 -0.016665847325818106
111.51799526275319 -181.76431121967204 -0.03890183077133169
113.66981978782138 -177.08623821328854 0.19344367440404686
113.64913825875901 -177.3237826215589 0.20570605388113855
112.81171817254084 -179.24570360529 0.12802300297392588
112.73998279264909 -179.29218171138155 0.09847140365800561
112.67969067185913 -179.3760298932167 0.08280331094614318
112.69444623987556 -179.50990093333758 0.11370237242905074
112.61764321403908 -179.68864747512177 0.1465116013408031
112.54659798551904 -179.79804954831513 0.14583579526367652
112.5206375398168 -179.83905859092232 0.10490403983729718
112.44978984679248 -179.93207615918922 0.10938039405678651
112.4253713500042 -180.01996047135725 0.10117326155745643
112.40039552617574 -180.10213618240087 0.1113151060747834
112.37636567684139 -180.1898428510816 0.10438890982681631
112.28695180358805 -180.31623834751284 0.09758049267093977
112.27120669770034 -180.3758042728249 0.10447493749896464
112.21187208070819 -180.48320400222445 0.0697837191415216
112.19388201563319 -180.56079381497605 0.09191516383741716
112.15189448060464 -180.65964825195942 0.0709531712146223
112.0699988219411 -180.72962521062473 0.1002913050184367
112.03536917489038 -180.83045536514058 0.03120940433126973
112.0037691625617 -180.93631294763102 0.06912168748302572
111.9375117963452 -181.0380489942391 0.06398214745875364
111.93284660742398 -181.0840009020057 0.06047297192313872
111.88949079244712 -181.21006159656642 0.08034412778995981
113.82220600027607 -177.19700890951353 0.20096589138103843
113.77110545095421 -177.21574545284128 0.2049767514280889
113.51836811855517 -177.66349631350388 0.16399231707619893
113.38147310859289 -178.16868875544054 0.13385929103876526
112.9864689373895 -179.09857862479655 0.15359879757512035
112.90925118801366 -179.18777349809187 0.10854054334057284
112.85834877125505 -179.23619032685778 0.11526082100670881
112.84652110128187 -179.34079138715248 0.13257504534930725
112.78577464903539 -179.4131698320689 0.12184652384975381
112.72855441707937 -179.5290586954963 0.12471452998578536
112.73366314705198 -179.62724634146446 0.13497367443563396
112.64692257371587 -179.70054205539452 0.1327699678541066
112.57693547059357 -179.8137062113553 0.14552085872638365
112.55279297267441 -179.88095131278027 0.11662351868908061
112.5223645858042 -180.00265483983745 0.09923040280029938
112.4634396791297 -180.14491873489374 0.12417771967513269
112.43001829841845 -180.21022555382788 0.12628041198646467
112.34311164055505 -180.42910651759843 0.11507727208541974
112.19715115977465 -180.70122441567977 0.09612940912672324
112.92001020693145 -179.30777757999545 0.10539473840069674
112.93401290140501 -179.37215267756142 0.1514546246856161
112.8876866213836 -179.45935116109132 0.1370489229140055
112.85546646098773 -179.54965285093098 0.12781279366744874
112.78465753059066 -179.6192099298754 0.1303771307303866
112.675163304307 -179.8821607102452 0.1466099723917912
112.4109082171051 -180.44264649446262 0.12376181754988319
113.01590093406634 -179.3793549301515 0.13817382048624105
112.95290481550175 -179.51991783309222 0.1377243860061908
114.21740961142036 -177.23611218423738 0.2795135205299995
114.1811542787157 -177.30778807326425 0.27444340371317966
114.12788597866219 -177.4117064127635 0.27373525895777745
114.10551232974044 -177.4736957649479 0.27245632627577293
108.25336197010624 -180.85088909658197 0.03820321978955332
108.22673513314353 -180.88070164977063 0.03697119558634765
108.38286242248064 -180.80223528358704 0.06803940324427882
108.33897182339284 -180.88599565986303 0.048598617178951975
108.30814589561771 -180.92289692903898 0.02437684302172971
108.25980826075862 -181.05868347080641 0.02506603724758294
108.40839270335036 -180.89934312605678 0.04738608700208358
108.385121699703 -181.02089213431736 0.04626235003623147
108.35911908375729 -181.05117041111018 0.04366988255551951
108.73165181318947 -180.50714267766529 0.06948969395296589
108.67740223279087 -180.5456581082537 0.03336874582811622
108.53040968290476 -180.9639133013022 0.07910201555948981
108.72598756372932 -180.86269646751688 0.09279325248182058
108.67910242445761 -180.86873512040418 0.07679315358654037
108.5963670595604 -180.95770761268747 0.09093655563643976
108.50002545603583 -181.2754459540352 0.027416580251542588
108.5055327036013 -181.32690439777173 0.023485552727647296
109.21629488122831 -179.98088962792676 0.14875391694561513
109.16149788483948 -180.03996752315066 0.1425213623460757
109.1224156401528 -180.08355843038999 0.14165627574456097
108.92319488851389 -180.56877541259215 0.08183380952693076
108.8821973632539 -180.6405982584864 0.02582628919031149
108.74352844592404 -180.86058775518168 0.06609829409989665
108.5822643643223 -181.29608486404322 0.033616532555726164
108.55884787484968 -181.33971146824877 0.025104889862278212
108.54110529038442 -181.51245922398854 0.027985353423585435
108.52301861832926 -181.55459282783843 0.028277486114132167
108.47717024173049 -181.65423911932797 0.029636672895514193
109.65188703851102 -179.0662194909456 0.1958014432927302
109.64048080330215 -179.2622102064149 0.1650219295853384
109.47871321956184 -179.64076038362094 0.14926388952974246
109.43127996629059 -179.6470611249715 0.16877947564472184
109.39244007386993 -179.8036151985819 0.14720740058954285
109.31310116637319 -179.88717218807182 0.14261223287968477
109.30111249330177 -179.9635610240812 0.1349245796952801
109.28993466686983 -180.02174121264255 0.12348737629066753
109.25324328205988 -180.14029280934992 0.11814034238214555
109.19742510918009 -180.26701751770563 0.13358823336284686
109.10925292097953 -180.44569471809885 0.12252800596353824
109.0250891523746 -180.49883005021113 0.074086361393915
109.02172394232565 -180.63493469425313 0.027583934378798247
108.96487033310761 -180.68221299994605 0.026184158727300733
108.94067610456064 -180.79927497362797 0.0298621815280532
108.91415764928296 -180.8682300212824 0.018640811377122812
108.68249762793282 -181.26861300266063 0.0022479699724547997
108.65242535208647 -181.2908723266108 0.0065057288668218805
108.59906098363547 -181.5230230110904 0.008148902578342665
108.53936635784312 -181.6010771601202 0.026846452120798947
108.5099058900935 -181.66636868466506 -0.0031439825290332513
109.79182443986097 -179.1320775067127 0.19279191513357785
109.73412820214953 -179.17946017230787 0.16501868208409542
109.71577438706039 -179.2615582578947 0.12939310916526098
109.67719425122314 -179.3699284621988 0.143005364475361
109.64798154648818 -179.45066585586474 0.15257054587009256
109.59758145145246 -179.5840809401772 0.11423520825514072
109.55199874482162 -179.66503890570334 0.12518610346300502
109.53227753877962 -179.71382019442456 0.1234633774682018
109.47317405202509 -179.79557411313272 0.14154145377899097
109.43202839309322 -179.90079343581817 0.09527201442568639
109.38478872854952 -180.01457887591096 0.09717348455520142
109.39405133064942 -180.06362928121385 0.06279204544038297
109.30707199133225 -180.18736351378226 0.09704655468026596
109.26995590867445 -180.24410457012397 0.09046346693086749
109.16633785406145 -180.48372458939846 0.07853796797541523
108.72711313802 -181.4703663870646 -0.004479988763520848
108.66371935055834 -181.51934891138814 0.014421436009565802
109.89534921743392 -179.0520687125575 0.15097667563745132
109.90063118204988 -179.12320144660907 0.14639023091964398
109.84979250094074 -179.22829838416445 0.13373854607298757
109.80017063852384 -179.29279381865376 0.12059014337427959
109.73413151883831 -179.3986252543086 0.11005663211504979
109.7156925137945 -179.49010484506408 0.11452680747291777
109.69075490052914 -179.57709750140893 0.1282058788212716
109.6118915136548 -179.7097031846562 0.09255160887579
109.59261594730918 -179.75715121462636 0.10579632680200057
109.36172850873908 -180.17524393943182 0.06306332122297065
110.44541001838033 -178.07567620898195 0.2283423578392737
109.86327965935735 -179.27807622968908 0.10555027198226191
109.73565605325967 -179.57407858989365 0.08896810635318492
109.64903016196112 -179.76645450591639 0.09125982787492543
110.7996437886198 -177.5026147020394 0.26394134344643766
110.80021957124026 -177.56290817383157 0.2575131276337147
110.48770820403469 -178.24932313069283 0.19282706196547988
110.43465541442865 -178.26132229822616 0.22883903864909733
110.82612807240986 -177.6061158071541 0.20633760567836462
110.80920419950844 -177.64721510154308 0.23750241797788718
108.06698581626235 -184.5166351003801 -0.09841358637718245
108.02278472371405 -184.6024330202216 -0.13045272910085737
108.09217427203754 -184.68210743689013 -0.11090594117836505
109.87886373867228 -181.13429177674226 0.030108973924184546
109.82998713542305 -181.21772328258498 0.030143955466797934
109.70442622083291 -181.49336996674876 0.03031718293329455
109.67450738083517 -181.5642855274611 0.0211145153136878
109.65346647018228 -181.66170619373204 0.028890793494824596
109.64921001240205 -181.72410930151946 0.012398632395111076
110.07083654322199 -180.96947996158488 0.04122608265426053
110.00034510280001 -181.17129421139694 0.041844952810665026
109.95002227479837 -181.2456506019134 0.043217742493704914
109.92406410584802 -181.29132775221936 0.06757034874214063
109.76069886435755 -181.58953029444513 0.030079358145795765
109.70617182633141 -181.65571420444454 0.02493949347865998
110.1179672861375 -181.02772384905631 0.04569163360934214
110.13137907706907 -181.04985075121107 0.04002128224837953
110.07392686541681 -181.1970376576233 0.042103348154513
110.03955251956795 -181.25835230542373 0.06290773598990596
109.99225569430511 -181.34752516141862 0.05984231904273141
110.31083458769668 -180.95633782796605 0.05641424837076292
110.20235551690978 -181.0627909227543 0.04479464019529522
110.18809319109631 -181.07347396458132 0.051667886448194755
110.12336905002007 -181.2295504587805 0.06047686295121446
110.11218324963912 -181.26469326076773 0.06779481139455934
110.47282150624238 -180.84233942289228 0.06544374441276546
110.38471482391667 -180.97513999482481 0.060799677990883705
110.37587679989606 -181.07035649977948 0.04907793298761365
110.31188670218505 -181.1811846939526 0.0433737803829235
110.240084658449 -181.28179554982478 0.05721255256874325
110.22503896397845 -181.3432587884181 0.05825947719903224
110.51655226016378 -180.87197725993488 0.07314010015188299
110.51583729934676 -180.9225619020422 0.0752795737420262
110.48611645208558 -181.02387470746953 0.07131015522903972
110.4218823619997 -181.1101444769905 0.05560727079574801
110.37789440561066 -181.20465676442365 0.059362217101171955
110.34388913799454 -181.2951406941806 0.049816110530903734
110.31588415081055 -181.3849332616327 0.05810376543997853
110.28381455446609 -181.45953314987796 0.08476688229401264
111.16173444536933 -179.72866937441495 0.1268185048627387
111.16849747826916 -179.77501544134523 0.1264313941431192
111.06748139168988 -179.97244582746632 0.12007728741999452
111.0138278930629 -180.0815015846068 0.10242789249562062
110.98140030024607 -180.16941318436682 0.09852840548908992
110.92943789536967 -180.26051629320898 0.10006946019089114
110.87907954671651 -180.32651400761185 0.11997617534208826
110.8561277156888 -180.4408159586262 0.10918521793682195
110.8054173855472 -180.51466094035098 0.08881910225426765
110.7743951898084 -180.60691580774892 0.08700967422290368
110.73446996258839 -180.69753906099012 0.09260758636467853
110.58984958851941 -180.9378287366932 0.07949931755118811
110.54320268638382 -181.099237973737 0.09681806784798858
110.5146638091384 -181.12365114435303 0.10494255135727987
110.44045228381555 -181.24173745454513 0.07954737263754164
110.42653466346226 -181.33178445288797 0.08213906454724884
110.42152793373816 -181.39751394363762 0.05935759046431888
111.25693045602398 -179.73766086041493 0.1301855605388556
111.22130863713711 -179.80891002927143 0.14147618628418906
111.18020738011462 -179.91242651034668 0.13576578873318107
111.11992346241125 -180.00610764121726 0.13321754867379798
111.07134737753695 -180.074497971791 0.11204216721805121
111.04134277352047 -180.19235360519468 0.11329526945604601
111.00935643375466 -180.28002518568647 0.10599010910051238
110.96735696146081 -180.3556098657409 0.11296264630366654
110.91265638798578 -180.45479567244638 0.14366559538403983
110.90284441305883 -180.5442704664821 0.10877148416947535
110.8285377904829 -180.6465324533064 0.10011984921772255
110.81083700553302 -180.73683754137508 0.10245861260361988
110.70117364495205 -181.0159307862043 0.0725423700141038
110.66210257531712 -181.1528512321583 0.05304989067215704
110.61285106055544 -181.16570211215614 0.06753819074517153
110.59620692684902 -181.29912585775602 0.08877358109441325
110.55424857206795 -181.3679747389521 0.07273949873233321
111.80476713198547 -178.6574601081865 0.17645331795660962
111.66856508353743 -179.01678081614904 0.1603607959711721
111.38781450610752 -179.70791214592052 0.14722414712909537
111.3648778197195 -179.78021118214565 0.14488444353216373
111.31086941892218 -179.86542833795684 0.14400567361441657
111.24259617481692 -179.9671943472762 0.1391667193980412
111.21691017073333 -180.03112406092774 0.12782665130410487
111.16787240024765 -180.11449398191957 0.11749903753284208
111.14816713557377 -180.22832487410847 0.1200038695028498
111.08588966091514 -180.31447683952047 0.1190223305390668
111.0496851450953 -180.420730127714 0.11341028132961667
111.00560679898898 -180.522799514524 0.12115457478101271
110.9567297897281 -180.62765514110242 0.11352597928065572
110.9228694004554 -180.68240221718796 0.12013365204017756
110.8791719733411 -180.80483858669353 0.10649421943513138
110.84476930828968 -180.84926200577522 0.12181455481323095
110.81885063165409 -180.91431000921315 0.12048985090699543
110.75393366468906 -181.039089143702 0.0715104497509873
110.7210338637264 -181.17577918567827 0.06964567301961133
110.7392609997306 -181.21397863673397 0.0735890941821874
110.62666144918127 -181.3197915418365 0.08844594533780148
110.59978253539494 -181.42046145001098 0.05932075451098673
111.94002976499205 -178.62436707176107 0.1797219350502947
111.94095555529813 -178.6901311551168 0.1966283512809776
111.5157342507296 -179.65972850085694 0.16086784663620318
111.4597655825799 -179.71736835839536 0.16020441704005528
111.42794203911453 -179.806154771821 0.16565754446032438
111.39094699093981 -179.90454839061357 0.14663173180475736
111.34932393698159 -179.99828816769067 0.13530133406273176
111.32679709361915 -180.0928175642482 0.13105788469969865
111.25561973701704 -180.13258445119274 0.11516982062644682
111.20528581405328 -180.27530571579226 0.1196043798165849
111.17939461678938 -180.34747523331743 0.11909629789002213
111.11679106379123 -180.45473256683943 0.12079426027779322
111.0907093246673 -180.5628151135153 0.09480906354312346
111.00647613878904 -180.72441147908322 0.12799821070610906
110.96633398823784 -180.93689484287418 0.1074876395468215
110.93659220049733 -180.9853498365751 0.10169484788175143
110.76017018233027 -181.2446959053553 0.07836158413490557
112.03263340984677 -178.67569024851778 0.2013097645371466
112.03398687854262 -178.73422752318203 0.2133862816200136
111.94008170620958 -178.90647132688207 0.20937033149221218
111.53545750885385 -179.7109508984617 0.1550031757059
111.4778058291815 -179.84942809318954 0.17630758957039766
111.47225720319392 -179.91073694502512 0.15091563611827263
111.37262115673829 -180.08311039328981 0.13009580112495212
111.25244372931085 -180.36621016022707 0.1275609063981336
113.07424629388017 -176.64791406510147 0.3242300812126927
113.0615762649178 -176.6875264269764 0.3275724590402986
112.9709716198641 -176.85833458690848 0.3592487403209852
112.18605082374961 -178.6508175203956 0.22371663455482493
112.11572443583051 -178.6876731516592 0.22219931684081007
112.07133625899155 -178.76467355761176 0.20869358654597797
112.0496133435293 -179.01014063783552 0.22434207070718798
113.12443005193235 -176.66604324974364 0.3424305817487524
113.07468141407824 -176.8637832956582 0.3579363531043173
113.03201515122615 -176.88561528729866 0.36026372173320076
112.22707437881807 -178.64487024820755 0.22698805716830267
113.16453162797156 -176.81466280686993 0.36991738361528625
112.30141639092773 -178.76074816658308 0.26267896046601374
112.27256390186085 -178.86671276839553 0.2565023310824259
113.25303328097662 -177.00683379926136 0.35739967122631294
113.32484250442653 -176.96702496064287 0.3390596174170086
113.29380115275458 -177.02566074546283 0.3275754526953366
113.20336745048935 -177.12689854480593 0.3435004627067145
113.47744534772941 -176.88188480078142 0.30013112046083357
111.04606369032507 -182.3773416492707 0.027935872699736852
113.64704161180677 -176.6904493622828 0.3911246801348353
111.17546966676011 -182.35096104492075 0.03776169629073711
111.17922450468592 -182.38304733277388 0.03552144220553821
113.71090979472844 -176.732489793584 0.3376549192533229
112.20696869666766 -180.38090090522113 0.12396491938255871
112.02164068763486 -180.62744391940268 0.12022143490922577
112.03052699714897 -180.74085585120815 0.11168714954135955
112.02415787972153 -180.78369491414216 0.11155517106517254
111.93496870718451 -180.92233920525595 0.10428851271528305
111.90182336653405 -181.02725696423593 0.11030478462260873
111.90030223784674 -181.07053098731026 0.10819655453374355
111.82257306399974 -181.2213506253635 0.09285667467483322
111.79554550271739 -181.29454494946756 0.1047536466489194
111.69955921318332 -181.46532275288263 0.10540521190259211
111.69442102565864 -181.53034498590017 0.11398178992405511
111.56723889199613 -181.85825108304377 0.08588330960624746
111.53308047391019 -181.91402874832156 0.08722722480884482
111.48678701230398 -182.01152892253103 0.11666419434127134
111.23849345922225 -182.42218787427115 0.04453851806207276
112.57603441813858 -179.79498719109478 0.15814889597223547
112.49054185126255 -179.98826139358584 0.16613038790147255
112.42486880600664 -180.0546647957713 0.17465061821443795
112.37968834500856 -180.08464170972826 0.15997706939727668
112.28509706183172 -180.29979522050965 0.1364468285978711
112.24239239625471 -180.50839069914568 0.14032077753925937
112.20807273393955 -180.606483000324 0.12770865273855336
112.154113342819 -180.6699401610076 0.16060011442194239
112.09796642005259 -180.7519080302818 0.12748723206420504
112.0788553015493 -180.85917044691212 0.14270205962689791
112.00867114303749 -180.94358156122587 0.12691670755577406
112.01981137992031 -181.02296048925052 0.1283296104085206
111.93291889180541 -181.12367331881606 0.11818615967849277
111.9044919704009 -181.21650489915805 0.10423680795832407
111.8401264094056 -181.31277814126912 0.10984644739420302
111.8308819620612 -181.41277942872065 0.1357617011136653
111.78777480332656 -181.47897634565967 0.12546134544797566
111.72019853881534 -181.58948565541468 0.11381953453740667
111.72320194954129 -181.66826912826522 0.1362865462609399
111.6481742497859 -181.7686142647243 0.1375255254903403
111.6467062573308 -181.85610829865442 0.11790281474414743
111.55936413421448 -181.93500251555056 0.08366043043041682
111.54467594565445 -182.04077117602097 0.09439472976980973
111.51195487601365 -182.1602401216576 0.10605947091976792
111.4660928518218 -182.23388729472327 0.09140183107860694
111.45327037111764 -182.29981008784318 0.09565353429753576
112.73729321839745 -179.64524247599343 0.1740954210047605
112.69937049569815 -179.7523361295263 0.1856058054128189
112.6119721607256 -179.7626572102179 0.16641353426490846
112.63014309819027 -179.9074756745444 0.17220927457242158
112.56539606859378 -179.99998056562828 0.1803289944340613
112.52505413796992 -180.07876544903743 0.18181772593624335
112.49694828502 -180.1695009074393 0.15838093279131427
112.38102472209322 -180.33363868132324 0.1509871875350831
112.34917790895722 -180.40795451352307 0.1811304027660443
112.28985329987279 -180.49665709651558 0.13990905531291087
112.25736572255963 -180.6131437624942 0.16616542633352877
112.22440358961798 -180.69634907551685 0.16914861453877034
112.18363721530353 -180.80932053790025 0.14520400514243825
112.17213864876038 -180.90222975639617 0.1701816638183582
112.07270214829173 -181.07866567315187 0.163116546503291
111.97832391923272 -181.28952977235647 0.11770128622321274
111.95314837640515 -181.335325099519 0.12393783247382989
111.92809398394013 -181.40241907374033 0.1304604885076897
111.91697512304849 -181.5480444776229 0.16985832063746387
111.78812385965183 -181.64086735962897 0.1350123100725879
111.7893249114758 -181.67513904690648 0.14703963549509858
111.7299223700423 -181.7669842566664 0.15245184859242134
111.69109364426255 -181.8932786319357 0.13802036301317022
111.65849101929355 -181.97123797468726 0.1317436156845132
111.64453976116863 -182.0803539844968 0.10498422083304948
111.53551655186926 -182.26623379866075 0.09719146939050499
111.50240701671613 -182.32405536208498 0.09763613372746338
111.49515814770524 -182.44527537615252 0.10822231153608858
113.09462612523339 -179.0211096116514 0.2617540162628381
113.08124405571601 -179.11866912374887 0.2488048813478212
113.0428035176013 -179.19012540578228 0.24007005332337344
112.99083194872962 -179.30313949147595 0.25219496286950643
112.94712368704369 -179.37665703068356 0.21205515934072994
112.91505682683429 -179.4829762940991 0.1928372838753104
112.86684863026008 -179.5547210141777 0.21716931330071276
112.79624915139806 -179.65779996253002 0.20294029606552055
112.7648530736226 -179.73542954976668 0.19582889975906925
112.72404486960735 -179.8348489198066 0.20526070658453588
112.67671879912953 -179.91331438267375 0.1977560897999548
112.64378512032391 -180.00044060267774 0.22018395676418628
112.59445946898549 -180.112032455737 0.2286852176478219
112.56232009547698 -180.21862627232056 0.18807276457257321
112.5485055696185 -180.2812789595054 0.22079426086280107
112.50282026349178 -180.34371302456034 0.2285293709581095
112.28206762233428 -180.7434609822567 0.16498013361664443
112.2402288576838 -180.8550749682929 0.1597357643460262
112.22342420453441 -180.92103790326678 0.17954959430778838
112.25888617595082 -181.01575912103203 0.1919209911972124
112.1873270153663 -181.0902251208858 0.18419983682568897
111.97144490850046 -181.58424958927404 0.16501483272563638
111.94556993171146 -181.66379441986777 0.16488812269523012
111.89613835491022 -181.7661971305284 0.1450630522465316
111.7573288481689 -181.96537537208803 0.13255588757726833
111.76178640315315 -182.01102380300452 0.1395043806108841
111.71551676314093 -182.12231218593712 0.12891215773909998
111.7114807281373 -182.20394710140337 0.12170008592478232
111.60589094327455 -182.37949459387747 0.10388752117157035
111.5583234318872 -182.5076352408635 0.10515614879596497
111.54472197608976 -182.5832989922369 0.10020152350360706
113.14536679285335 -179.06242009776363 0.24155880438978145
113.11689805619474 -179.14064507045157 0.2401468635789527
113.0931775511916 -179.22333291460865 0.24864689220240654
113.0430193187318 -179.33563905469757 0.2582795394658965
113.02475218207971 -179.423300241428 0.22481673719968703
112.96547417272056 -179.50636306200516 0.23710800300422263
112.91328041648346 -179.56453358983194 0.20757560655348856
112.87902443454796 -179.67950571897433 0.17641838984517355
112.8185322130483 -179.77310146680946 0.18358069228675306
112.77742072506818 -179.86384136383646 0.1735317767531876
112.7340493861634 -179.9878399049797 0.23276702895466672
112.71437853571214 -180.0075500780885 0.2469618008382709
112.68400416558924 -180.1210037660136 0.22735270298854687
112.63133891049485 -180.25677311389092 0.21585357881169676
112.59460455666915 -180.32016948162317 0.2212738889579507
112.26900030410339 -181.02761083138338 0.19379785548904715
111.97843433197299 -181.7144625393393 0.16324317916536352
111.73614250113447 -182.23504164229354 0.11066467782332434
111.6868113558696 -182.36625047955425 0.13218019910160217
111.64712997030695 -182.4568579925354 0.1270289238042721
111.62018909090382 -182.5253473205971 0.1004270768780946
111.60145390299606 -182.61515637514984 0.09760777024232503
113.13447233246814 -179.29244876504643 0.28071187345696463
113.13622339609266 -179.32729602838862 0.2813682309761481
113.09087321259287 -179.42142074657454 0.2313153393429343
113.03536600934412 -179.5425148462868 0.2436058108689037
112.7107385225441 -180.284881247655 0.23313876637681996
114.19600660987666 -177.21805857586466 0.3134511567682623
114.15383312048455 -177.29905382682125 0.3042906714735582
114.09963983517613 -177.42757428237988 0.28436366245480693
114.34237156410003 -177.04459086262364 0.33197037186491607
108.98976320821193 -179.50859560335374 0.23683552033056526
109.04010076873904 -179.5354890225118 0.2278215303931994
109.20200976467612 -179.48692274348795 0.2644648831458615
109.13880713206967 -179.58016888093084 0.22766178250918684
109.26704009385526 -179.51787451101674 0.26337972162408185
109.19198330395369 -179.59275843935424 0.23218941255787673
109.63066425924985 -179.03871394848346 0.21283468153449625
109.47132364150922 -179.18644325250455 0.2439618478472344
109.38856772961148 -179.58776474281962 0.21009824672448218
109.35247583908877 -179.64156758464432 0.22896198478761415
109.29653523469044 -179.75626573884156 0.20319619260655253
109.23108800499521 -179.94295196621732 0.180188141770817
109.16501612729702 -180.02763973184037 0.16766186078864498
109.13063857326314 -180.10414783143455 0.18468408888440857
109.12425019375146 -180.1739414422801 0.16035316909210756
109.65447867690683 -179.05696016734632 0.21208345131794926
109.50568680852501 -179.39208486385564 0.22041215622170168
109.52046007754558 -179.53032299829817 0.18980227602999455
109.42762200689468 -179.61393025151926 0.21204432236714377
109.42883990891784 -179.69569940628676 0.20425516880337258
109.36190186293591 -179.77625448463104 0.1927677884784268
109.3103447574428 -179.88355322607714 0.19912542038025866
109.26347002348216 -179.95706735990404 0.17715791379138318
109.22271946727986 -180.00390667254035 0.1593210356204754
109.19956871721531 -180.15843293226328 0.1522571611025923
109.20477837221345 -180.24166882224787 0.149506901095889
109.11186097324112 -180.46456348330454 0.13336747062131732
109.79765258475926 -178.99500737856576 0.2739474235177164
109.77875512257795 -179.1018573871964 0.22081101165115885
109.73773041487283 -179.18330792299062 0.20228543239272018
109.64236605160033 -179.39257561883653 0.20770914953351632
109.54942771216466 -179.56465080503642 0.19356154965094025
109.51256452956984 -179.62853265227204 0.203392239893744
109.49784316040066 -179.7163265586658 0.18064007284099964
109.42543560529951 -179.77914364170098 0.17108197837396388
109.35910825518484 -179.9566077575738 0.1756693790035962
109.2586790166516 -180.19026250563996 0.14563902974906168
109.83764466930334 -179.1038923032758 0.21298682010589687
109.82444737236425 -179.1798469561887 0.19938945155867271
109.65841588831988 -179.5332728188365 0.21060799728699076
109.5443787489453 -179.79560963053882 0.16979286733286292
110.77490606486347 -177.59135739363293 0.2931503398239128
110.72622301478997 -177.65957865436272 0.3205155667742764
110.90733069884642 -180.48941596311334 0.19074173946673578
112.91464270080736 -176.96507120330077 0.3681064565600133
113.04534353488974 -176.92394015258813 0.39571523162444733
113.02154506072124 -176.99250245687136 0.4005325354491333
113.2144159109389 -176.8286366066939 0.4043605540321372
113.34008003646707 -176.74952324386487 0.3981143517044321
113.29233665300383 -176.77364724313753 0.400121817407598
113.27771656213567 -176.946375770949 0.3942202034527662
113.44052557221953 -176.6979478289918 0.3938401279344117
113.40975124968686 -176.7568210030041 0.3978037554469622
113.32335122905015 -176.92616119562322 0.38394504491731785
113.47202411897852 -176.7608115121619 0.3973702178709641
112.3179722906863 -180.37166063410518 0.2376919623648699
111.4772697382256 -182.31193047907527 0.14189239242231488
111.25342349546517 -182.8010507516834 0.15731020013187252
111.20413228983837 -182.91782444479537 0.17641646529064864
112.63722855799922 -179.87403375289168 0.2671335107006683
112.40023008001056 -180.37370634946504 0.2419672234416807
111.92270120962489 -181.5408346574301 0.17942110215395635
111.75420099601155 -181.79547185200028 0.16503647393678655
111.72542096640971 -181.98827713293525 0.17325896277539732
111.48356164605183 -182.355362190731 0.14290916684129223
111.4885015167615 -182.4293166961547 0.13929147381187557
111.27808831514137 -182.820511316966 0.14903356132108336
111.27840477274505 -182.91664705495313 0.16456679864780233
111.25928038304866 -182.97789895446803 0.16453654706983695
112.98853222935823 -179.3497030426363 0.28664066508816044
112.89717253952368 -179.471411139566 0.3056595868871697
112.80284399294781 -179.67203560379608 0.2856111240744314
112.72542601189491 -179.86641314627684 0.27803768232751847
112.66328905398137 -179.87329558151603 0.26291475927558433
112.6354429794862 -180.01329735710715 0.2542464604313896
112.63794689606033 -180.1244833818435 0.25441198321860686
112.56050123075809 -180.30102837058237 0.24191780141387942
112.46678690378464 -180.3767198349855 0.23840246178480567
112.25283248661502 -180.9455401224673 0.21671579541141778
112.23033178157017 -181.05247603299313 0.2093640455461372
112.2234795746404 -181.1027573858897 0.19657462494140637
112.11554664723303 -181.3304376930373 0.25430744530581867
112.05573408901142 -181.42778045349064 0.2265370592132812
112.028514565496 -181.4903328467859 0.2062103216337996
111.98564336779846 -181.58055354891064 0.19384377905456768
111.94643010139036 -181.68653699428384 0.17275958589220752
111.90242874036238 -181.77051531182596 0.18303382928404166
111.8427073593742 -181.86766813022993 0.18526387564171726
111.73900638488742 -182.02628115757955 0.18204385922622868
111.74150101188303 -182.1165585806514 0.18352496920796235
111.72258088925494 -182.22436231899584 0.1767877723460995
111.65583511841322 -182.2970848889401 0.14572844171360033
111.61134249266573 -182.41043275340715 0.17958181292787123
111.55913806984925 -182.55620947306048 0.1460240198491205
111.30287579977579 -182.97058820898985 0.1854976107327284
111.31515282783886 -183.03155550859873 0.16553835233065944
113.05507191355478 -179.33897366740365 0.29017456174754935
113.03816480008581 -179.41263153021148 0.31762324746689236
112.98583644617422 -179.51178737161018 0.30393587655932314
112.94877009743153 -179.64655306346316 0.29141798484494197
112.87916331414756 -179.69321319341367 0.2934955104045232
112.81239010470705 -179.89474975188404 0.28263305460551735
112.77482765560363 -179.92874249584307 0.2878746618165149
112.75497476378612 -180.0796456524011 0.26609954150819726
112.70107474193583 -180.11424142714927 0.2593514845452307
112.61759275255085 -180.30691677850345 0.24227242254865428
112.5783768210354 -180.44670900762523 0.29074417274675435
112.56043602930545 -180.50428517006262 0.2804028966516404
112.46301121443283 -180.74918162852734 0.2651747850681726
112.43489641904675 -180.83262389462473 0.24381256215701358
112.39445753367023 -180.88503018023508 0.24179355713473039
112.3312179896584 -180.97511069945367 0.2498309245658521
112.29858824301509 -181.06722470579405 0.2331203878373792
112.16614286258059 -181.3495277686804 0.2558107646090504
112.11571593924923 -181.43008652983372 0.23380281342926723
112.06809910115966 -181.50551651097382 0.19554766006953767
112.0533954872279 -181.616314636625 0.21079109796481332
112.03652229020372 -181.69955393824935 0.20025447966748378
111.97179379502879 -181.80729741556567 0.2124759389161483
