ply
format ascii 1.0
element vertex 833
property float x
property float y
property float z
end_header
37.34064550784327 -145.2517884160525 -2.685514500913294
37.38376368461241 -144.9477888578823 -2.6631035127252822
37.268460754264275 -144.91406958729993 -2.667225896590169
37.19294770317251 -145.14777889311304 -2.686727678171147
37.092418914026126 -145.13895596593542 -2.691521390528423
29.365887513099246 -171.0637563122037 -2.687495287114615
29.315045754661835 -170.46158626222203 -2.6857878013685643
29.05106095131358 -170.57072963186528 -2.6743683933030473
35.766099903141786 -143.00840290839957 -2.6229733482152744
35.41189318776895 -142.9528193116399 -2.638305534402071
35.28734804329081 -142.92719169714985 -2.6431735398197
34.99001049299795 -143.36485495927684 -2.6873079002846882
35.05818402867669 -143.29415904406028 -2.6791044483807873
35.03698830090033 -142.8732222352467 -2.6528749003430776
34.92769751956169 -142.86997535965273 -2.6584746173491287
34.89233330013936 -142.40962935279245 -2.6303968601071346
67.55581218042181 -175.6028929630724 -2.5275522671768487
66.91264047014525 -177.26357271958005 -2.607232922128977
64.72543916870003 -168.40534750621853 -2.569328306645974
64.61802675413918 -168.28793904267388 -2.5741620653305386
64.37657877053248 -168.59801753957024 -2.593248396796981
64.357570208546 -168.21992646077436 -2.588939897666286
64.07940032326704 -167.9925102526673 -2.6026048274622475
63.84222470900666 -165.99705161473142 -2.5917231073401372
63.088114578499045 -157.34308969972312 -2.581913483971549
62.77937739861717 -157.9889412895663 -2.603236248783423
62.830824653652755 -157.8826814001808 -2.5996854519619816
63.00476527695628 -157.25574629848688 -2.587045973447867
63.01307376569174 -157.17427505028962 -2.586342408948468
58.549798189793705 -166.6485698658398 -2.572065393872344
58.37143292094085 -167.06675551255762 -2.595069451899925
58.43282339609702 -166.92862163333874 -2.587262849838554
58.50143455395303 -166.80748496909632 -2.5789711072305703
58.49679632771765 -166.7216159506087 -2.5781769104551904
58.375391774397386 -166.89966086016716 -2.592327301909802
58.59402502207984 -164.95607689710943 -2.540949547552514
58.48778488089953 -164.89376325999322 -2.5499742141651227
58.65142347519366 -164.29030206191743 -2.5237389855121437
58.5589835618222 -164.22640272958333 -2.531354855492717
58.54437041304928 -164.19449497373716 -2.5321411362890247
57.4584323050556 -162.43436044959122 -2.5997179715090715
57.514876647207096 -162.40261853813809 -2.5937582127795573
57.61588758882785 -161.75710807772745 -2.5704335998336543
57.53247638829997 -161.8526503136219 -2.580297792047086
57.25131859413447 -161.8195634111059 -2.6057345772098928
57.08570868658135 -157.2862467674429 -2.5120282186470964
56.99388080124997 -157.32659479798892 -2.5213082760649352
56.89587037599592 -157.33879436562322 -2.5304177267540773
56.808371363441 -157.3034892564166 -2.5373599315159625
56.74846786448321 -157.23486685691705 -2.5409636494301377
56.7218865680958 -157.1260036355591 -2.5405347637527145
56.70310781148994 -157.00375260887907 -2.5390522810868807
52.856083839318416 -171.0792416058136 -2.5688453208970863
52.75957455556166 -171.1478930684787 -2.581121640450066
53.02733672865291 -169.92198774453513 -2.6008067924119374
53.08370070143283 -169.85595983062123 -2.5930067882280334
51.997326796031764 -173.45443325006644 -2.518167471105351
52.151681655638015 -172.46612076564966 -2.5810564090741996
52.63439281259377 -169.85616091143265 -2.5083881817212985
52.65699799786246 -169.7393242179968 -2.5108998094276327
52.73216072719565 -169.5278029578123 -2.5068415129823127
52.293891476092284 -170.78548847277705 -2.5063441072846357
52.86630892515746 -168.69312493451406 -2.512505044052578
51.59468374980038 -173.1284328339404 -2.6039989088573914
52.21194083198044 -170.81254125022758 -2.5201558629298204
52.71265530391042 -168.70359867357763 -2.547941661195556
51.84925307159532 -171.60501683363213 -2.508755688680199
52.48811071842384 -169.41798405425914 -2.56742194017606
52.610091641607845 -168.74425935919487 -2.5704253299332813
52.124165620065526 -170.28828621289244 -2.583848581810433
52.32630617138069 -169.48623034354333 -2.5992069885719036
52.33661450623917 -169.41753160933894 -2.601045452711605
52.35343186746119 -169.36412014886736 -2.6003901034026278
52.39707816304109 -169.21689332274585 -2.5986719717171782
52.4366417178391 -169.0854278810549 -2.596263369355114
52.642934285299795 -168.14985206463345 -2.577494710453121
52.67108646222899 -168.06172079305156 -2.5719074937870294
51.687159514501616 -171.6122077652769 -2.5367463397506693
51.701729898526786 -171.526266662615 -2.543649738113889
51.81570969568896 -170.96622422123937 -2.5817551749193033
52.53412200639288 -168.19891760389982 -2.602513053015164
52.561781229015594 -168.1835194740155 -2.5962127999434395
52.58092562619145 -168.00543479499527 -2.593878328185901
52.62119139789769 -167.96901623406836 -2.5845873953479197
56.091680415382996 -153.94487817975843 -2.510447986529725
51.52501183034356 -171.80112432500468 -2.543525987360172
51.59398322450762 -171.6186462043591 -2.5523426726854406
51.63203355093718 -171.55052346956975 -2.5532398174943545
51.63369633947467 -171.39080521116787 -2.570541899096462
51.78559085561822 -170.9565326357092 -2.588464002568832
52.2569832270286 -168.80977561638792 -2.5071854958474606
56.01644860735122 -153.91818139790115 -2.5162020978147304
55.960774418608295 -153.85256264075488 -2.5191777067126297
51.234961592442446 -172.46053280116058 -2.5119133800604776
51.481492787607365 -171.70248401389782 -2.562150513750245
52.19653206825733 -168.80048231902856 -2.523706077012082
55.93898037993853 -153.78639143570223 -2.51911175203713
55.91521840028731 -153.72157090269238 -2.5193953750626665
51.110260353779374 -172.6335418767421 -2.509486701670464
51.12381154858567 -172.5226893468566 -2.5213023128982295
51.161729605037245 -172.46846606800213 -2.5222690621366866
51.78645889178713 -170.17119986334973 -2.50995406051543
51.74440166499033 -170.04015191341213 -2.534081251067779
55.91787565025521 -153.59647641438477 -2.5155733693846107
51.01506880504702 -172.5893925788958 -2.5292712183879487
51.05321847064368 -172.39626136936445 -2.547860619389418
51.63753609548809 -170.1703033529339 -2.544116081578056
51.63102868593208 -170.10738392156486 -2.5526804767328435
51.89801318393045 -169.00518554268083 -2.5891722992128137
50.83774956479715 -172.88240510200373 -2.5176273216180336
50.93756957812313 -172.58064694175556 -2.541855168202375
50.68871058896721 -173.06122166134836 -2.5150780123754535
50.873848093549185 -172.5542312402879 -2.5545961606349215
50.633831946175405 -172.9679590959257 -2.5347117192500614
50.669834162720164 -172.94831081104496 -2.532374934433709
51.625578870445736 -169.10258448976015 -2.5239673462690524
51.77571884648311 -168.51903314335775 -2.5256086420992823
50.57683240777299 -172.86492145295483 -2.556088320675687
51.43404166824606 -169.19006019676468 -2.5692801778166814
51.59956191731203 -168.67421836859035 -2.5680732797191514
51.613481470991 -168.64993177420635 -2.5656854328026455
51.14065058350495 -169.92067435617886 -2.5538041108141556
51.322520042282505 -169.333644751983 -2.5840077622206725
51.3561858683232 -169.19739153107835 -2.590174601127812
51.431435157275246 -168.8553861520415 -2.6027866997114018
51.734771439973954 -167.8330195558003 -2.564806412756523
51.05362135841486 -170.0599364018587 -2.554169994615674
51.04911282867765 -169.8954095617417 -2.580116995232401
51.31693852111873 -169.16741947306184 -2.6043905504171674
51.32364497565332 -168.96252146220027 -2.5062074744414042
51.43975722683454 -168.53920871605945 -2.51047072241835
51.41098851898435 -168.39577833118037 -2.5312989948590205
50.25768142850243 -172.9763579719048 -2.5827458046099405
50.52155463907143 -171.89425254747738 -2.514498998397278
50.50320008321489 -171.7014759154985 -2.5485330497706133
51.02082693015279 -169.88274670468704 -2.588889824333237
52.20876130141162 -164.92726815746138 -2.5210042936883044
52.207003048924044 -164.90099295566006 -2.518618681394704
50.42490211321459 -171.87546587413684 -2.5328057584093346
50.88302897113917 -169.77454475611697 -2.5162432870642784
50.91768267190324 -169.67310231834935 -2.5244203575311968
51.05304031894249 -169.17282886849011 -2.5634867127414633
51.28741781819896 -168.38292662048494 -2.5740406293257827
51.28599167476439 -168.36679869730372 -2.575733715045655
52.16307457029595 -164.904796452679 -2.528220064186469
52.15311841175908 -164.82734429905486 -2.5219909968283485
50.84786680259287 -169.75357918597763 -2.529474954361775
50.99355561143049 -169.14169767953112 -2.585838658188753
50.38139922986347 -170.1225586808648 -2.575259649356564
54.09158714895106 -154.31180484297636 -2.605293266460671
49.84013205470428 -163.54849263471968 -2.5753289103151524
49.54403964734654 -164.48189733027107 -2.580651956685853
49.752748824022234 -163.58002569858132 -2.5936207776040408
49.80840155809608 -163.55856730679042 -2.581710581245497
49.70528001044549 -163.57100339188867 -2.5979846131698903
49.666965190829444 -163.52440605569893 -2.5931796409643137
49.31865547636982 -164.4270045631936 -2.5983985180875746
49.64914985142262 -163.45099462769193 -2.580053664085746
52.48763773769943 -150.07015580444008 -2.5868097878900835
52.40990823997416 -150.14311647459422 -2.5959205684177746
52.34398271028089 -150.15750150220333 -2.6018087683161064
41.361085621474736 -188.54647076068375 -2.5352061845063827
41.30020790847243 -188.4852560332829 -2.5420592969050375
41.18108616334224 -188.5938601625888 -2.54136149448985
49.49529441112537 -155.06942682731244 -2.5783822679421187
49.56369966079153 -155.00128854145723 -2.5678359612377846
49.68839883293648 -154.430897401654 -2.5165957606679363
49.40880511343965 -155.08481262070825 -2.5865843721003188
49.32773520115683 -155.02617661168512 -2.588999503564997
49.268115082588984 -154.93921034271364 -2.5876295409661587
49.21629434244176 -154.58840334055049 -2.566610512139455
47.17713554232024 -157.28961520000846 -2.555558757068791
47.11099347596526 -157.3249635006258 -2.563629476217997
45.11956370469253 -164.83459316239373 -2.586494519980853
45.17004258662825 -164.75020153439897 -2.5781728010344036
45.16266936575717 -164.6582887487514 -2.5604048739081433
47.01266944522434 -157.27145574639638 -2.5643581162867823
44.99339809846496 -164.8572321012306 -2.573122797400843
45.045868776161974 -164.86617217626957 -2.5819381600671485
45.13864700623102 -164.6008409219876 -2.5466470010656237
45.36345923336848 -161.0999556626328 -2.5380443773145918
45.40206006808243 -160.98680647190469 -2.519677108198114
45.413461441640635 -160.927988319711 -2.5101335003749767
44.12038881398435 -165.42700996483984 -2.5236241636347794
44.052794252825535 -165.50080683779467 -2.521465293739263
44.09989732018273 -165.3995262589107 -2.5167634929372413
44.072739294439444 -165.33116965820636 -2.5036411357116357
43.9686097327481 -165.53102195878955 -2.5109809033063297
37.24528497909918 -191.69314179572268 -2.52891186486458
37.172125441504726 -191.63435557861266 -2.535895473732011
37.02396093620908 -191.51709062177179 -2.549265844229455
45.02661780524869 -159.34872263959073 -2.572725402344268
36.02745819630149 -192.89889127666888 -2.506308186913352
43.88578625429919 -161.45753883101233 -2.580204157086566
43.88229722947737 -161.0866575288196 -2.526651647248268
35.8820847483707 -192.75263267144868 -2.521024036377563
36.01018883563175 -192.2888277085812 -2.5440427103336583
36.13403898504847 -191.83597467583357 -2.565966862953057
43.779079571910245 -161.08770021536762 -2.52499384565208
36.09694786564806 -191.7045132812568 -2.575575653885293
36.06441858042954 -191.5615785338134 -2.5851020229632864
43.69821010316476 -161.1605005940042 -2.533948308504378
43.723990474726875 -161.12771366006984 -2.529737679570215
36.03635536312434 -191.4160425107757 -2.5951404927094037
35.96420913315983 -191.3509030493778 -2.6015276727308527
35.555371364997505 -191.71493392108184 -2.5956720371280078
43.18088354138708 -161.0692279632745 -2.509428072179089
35.446848837480715 -191.7175793320567 -2.5999084551887996
43.046136511028664 -161.13670823520485 -2.5152184725355564
34.483644292975455 -193.91636058717614 -2.5068683840356383
34.24025697143527 -193.28968432247677 -2.552560418525311
34.37236639446019 -192.64410057309686 -2.5853089514339587
34.24482453833901 -192.66820521216758 -2.5888293938900864
37.18509794983512 -180.41637405734878 -2.5462639441974364
37.12851092985325 -180.3474697412709 -2.551014830650834
33.63428130818052 -194.16007305828907 -2.5244170762783797
33.62963366333929 -193.5322236805725 -2.5607002398923413
33.761833710135676 -193.10074984163577 -2.581168213214731
33.558912049573394 -193.04242737905162 -2.5916824346456204
42.515792625329006 -155.03966725585857 -2.563933615560342
42.40981613358383 -155.19888124052875 -2.583554237951522
42.41991569159898 -155.05849273372326 -2.5695174342539624
42.3051109367093 -155.09781722723818 -2.5777745169896473
36.94589710410839 -168.64337648890645 -2.601187670625374
36.529447486194115 -169.84105097632894 -2.5641339473632234
36.84468934593505 -168.61323357709426 -2.5930346376793194
36.59370388875687 -169.27111747294904 -2.573276413851227
36.581358860665276 -169.20837900786256 -2.5725151332991
36.61999090004062 -169.1192814422484 -2.5757749757375
36.648571399220124 -169.01014538710703 -2.5781601683413786
36.666583889233394 -168.9234895322083 -2.5796189414968884
36.695567533521086 -168.79492352155322 -2.5817528715097384
36.38027849905463 -169.95875769832824 -2.5513233719621917
36.384164172691285 -169.82571370691275 -2.5530868983382997
36.423127582186474 -169.7748019783088 -2.556582397924781
36.69182194569808 -168.58669669448264 -2.580790067596956
36.26408255557368 -169.93789986234847 -2.542627265968669
36.25929290196774 -169.73976030772343 -2.5442177267547468
36.21317494400792 -169.6817835712837 -2.541135835800689
36.25486754738006 -169.60835667375287 -2.5449260762074664
33.62300391184327 -179.21839568405264 -2.5809938789264466
33.42923526050121 -179.15955528663832 -2.5805183269441248
33.32692708411952 -179.11311451831523 -2.581063274743927
33.37881537444625 -178.98994035777605 -2.5888111969649517
33.40183578327853 -178.8910244758643 -2.594675706180296
33.36044745954793 -178.8391322068667 -2.596596693700649
31.180531481963484 -178.9373948220805 -2.541704051031304
31.24933890431016 -178.80562206887524 -2.5496879388243947
31.237512267378403 -178.72881187432654 -2.553056172387823
31.18989583068235 -178.67362290203803 -2.5544145016809567
39.65864114406373 -144.6232582385112 -2.5121293385412837
31.109586608471602 -178.64087157791246 -2.5539096781075683
30.974470791634374 -178.64074292119855 -2.550389361893886
39.501167752930186 -144.45562583720854 -2.510071784330549
39.3934570522559 -144.41904982649368 -2.5138517602973387
39.2074083313164 -144.39533017399333 -2.523132134941588
39.254866289162045 -144.29398916174796 -2.51354760796841
39.0951293930204 -144.45789723732528 -2.533938928203394
42.984665334523285 -127.51569983606385 -2.505193084021311
30.382259919733208 -177.65111068544974 -2.576783153130865
30.43318029875411 -177.54126743712732 -2.5827304568104177
30.44012286897612 -177.45476268565983 -2.586354114986567
30.381781734028774 -177.36461603209588 -2.588161882064009
38.54043695501382 -144.36974290966984 -2.5599802244824197
30.305972435298283 -177.28316823796314 -2.589042330228442
38.54758856282208 -144.18130338274844 -2.5468212541175186
30.221553921437057 -177.24398374846888 -2.5879341023784344
38.41542015248014 -144.29374741757303 -2.561943571172094
38.604697726457346 -143.63734396469965 -2.5069048251413704
38.503299455855235 -143.63473526095947 -2.512515143897059
37.05167441481612 -143.27187795184133 -2.5703402128313435
32.303944880047226 -161.6963265489404 -2.5640686697948727
32.072123375216705 -161.6817936992417 -2.554331637871108
31.911537157240048 -161.75583970423145 -2.5523840442774537
13.171475492972547 -150.26723409032584 -2.510510973304525
69.3010383735259 -175.4491419803835 -2.4152197947602687
68.34184094405782 -174.53362905629965 -2.455226343246972
61.38367005349606 -198.22410585840314 -2.4704334582775425
64.43861585563526 -159.43544133780009 -2.5038188886346564
64.92763625101291 -152.86416070714816 -2.456839501027779
60.371765336956955 -168.49120766972186 -2.4219003426709573
60.390567344994686 -168.41090474756305 -2.4191530984340517
60.47524355396021 -168.3763540401171 -2.4106726228076347
60.345593795395644 -168.4475728095196 -2.4239147162627495
58.74622329834361 -159.85651547212672 -2.4230371580072934
58.78706146718457 -159.71535823873566 -2.416031477138004
52.13815034185362 -173.46002618344474 -2.497481841544553
52.16619513461375 -173.41120509455453 -2.497766365466557
52.538737675187164 -170.73631679164305 -2.4614662099886218
52.71313226780084 -169.81045936570334 -2.4941183440950434
52.06420351304982 -172.01929405727543 -2.4253438372197547
52.463943488461645 -170.7067173074939 -2.479143934261216
52.663677563318494 -169.82766763525512 -2.5038412450926364
52.7514920104569 -169.50214431416407 -2.5039581615005466
52.90970875835102 -168.6902591946046 -2.502468717442847
52.94490942120504 -168.64403937920164 -2.4956428552715484
52.941918830268044 -168.58792487553077 -2.4979420935295957
52.28501351391541 -170.82435114454157 -2.5046307282450444
51.73264277076459 -172.66114008596958 -2.4084425239782954
51.59603780620506 -172.62983367359038 -2.434231452345465
51.79935311615719 -172.01562805502724 -2.4721513977129908
51.75596393531347 -171.98599210448864 -2.482893007744883
52.36420659167562 -169.59699513265713 -2.4259797541170602
52.429841031879135 -169.4648086154982 -2.419761618733032
52.560737846063205 -168.80341714827634 -2.4268919566941465
52.56939099101363 -168.78387233974144 -2.4255472407008565
52.63167231788382 -168.65973537327812 -2.414426883100817
51.445484508740286 -172.97444406323407 -2.4158951074316164
51.4515625516578 -172.93585861128108 -2.4198270022808357
51.54881193811448 -172.67499110666395 -2.436436246946437
51.54151041017158 -172.59539317978613 -2.4471699180490596
51.68712883319574 -171.91659796080495 -2.5026713987210103
52.13155985750433 -170.26839670426432 -2.4193488982087237
52.272906391233064 -169.52631139421342 -2.4545982786362925
52.5380037070026 -168.8102692076604 -2.432649309999984
52.49694237743557 -168.71349941437973 -2.448168511508263
56.15616639174395 -153.93508037656423 -2.5046979636037046
51.42161696300803 -172.65090472248497 -2.4594083354938454
51.432386523958826 -172.62713814611556 -2.4607065642785706
52.129502925381075 -169.72645678844867 -2.4731740622887037
52.162879429153385 -169.73180221755376 -2.464437396688402
52.23213187846263 -169.61978101259285 -2.4571239989874583
52.26220668369254 -169.26960022395022 -2.4769378304161265
52.27198751646844 -169.15754074495547 -2.4821919896515148
52.26189856938243 -169.12176713151212 -2.4872439789447296
52.38730584334738 -168.8153777108304 -2.472389337546334
52.50928392799203 -168.3149310312726 -2.459982258369325
51.978851698092136 -170.0287253462307 -2.4802758404544214
51.97530962994864 -169.9167263831493 -2.4924348002939105
52.12692428597838 -169.37840725040198 -2.503176842773624
52.24612490663237 -168.99426568302707 -2.499481512561939
52.33032817076241 -168.8232573307274 -2.4871039277718134
52.424576671941395 -168.18913718148946 -2.486408968732892
52.456569410065626 -168.1140795058834 -2.4793160155175062
52.54854098533854 -167.64936867051932 -2.457877769658479
51.00157284484137 -173.47731708228773 -2.417358275269223
51.22797844372207 -172.71612407812611 -2.4813015892898336
51.48887165528718 -171.43290225234472 -2.4125236396512744
51.715066773493945 -170.68304208407227 -2.4656368254233705
51.845640097383665 -170.1521382735534 -2.49840544727156
52.50295765839172 -167.63339359995854 -2.4703993103903152
51.55019583313192 -170.73020713216312 -2.4950277160307994
51.562163741090814 -170.67467500882154 -2.499654196672389
51.9882223870667 -169.2189824175368 -2.408857033034974
52.14813814370581 -168.5082894314409 -2.413095383198575
52.142024823481705 -168.44649036172578 -2.4181323193883886
51.50009226984389 -170.7642054953364 -2.501194428660055
51.546263769214654 -170.70233653550738 -2.499506895027246
52.16639095133032 -168.04501374342627 -2.425799750417583
52.160049559841625 -167.94522786825016 -2.4299841889389695
52.08748272906702 -168.10044626298532 -2.448812498140857
52.11307917867694 -168.04377386366957 -2.442442024574665
50.91533211296397 -172.0601757763622 -2.423580152953269
51.50579226779384 -170.02542884999067 -2.4469210200682614
50.89418641361253 -172.05762660889317 -2.427468068800039
51.41488864748875 -169.95962471552886 -2.4791858665108997
51.600109537662966 -169.0168244298679 -2.4114378880089222
50.72200405202632 -172.14803867110004 -2.4416222048525524
51.83030439425876 -167.90579619689822 -2.4101086787251385
51.837437823080926 -167.8953789573429 -2.407844020879593
50.626864535807876 -172.24511661838105 -2.441065378771081
51.31703855927424 -169.32569015727748 -2.4619105557907943
51.36268406998163 -169.31604022702206 -2.449284180383144
51.35930673615868 -169.144042711794 -2.4729087554192715
51.54669058340567 -168.50089497543019 -2.477548556584288
51.699832993910114 -167.81020741700416 -2.4579408567390906
51.70938014360958 -167.71456989775322 -2.455909121330522
51.229617006652276 -169.4434520773082 -2.471449151984077
51.46837113748515 -168.52789333150562 -2.50182499848437
51.64806075165699 -167.67705311223935 -2.4778356785881437
52.28866024987885 -164.93677674014916 -2.5051403747130085
50.94175773452481 -169.98552836927016 -2.4626845257727545
50.95360445345155 -169.8088959301909 -2.4910726172638245
50.93902869579837 -169.77758662749707 -2.5004763646256425
49.97413974338554 -172.80749356304315 -2.4403808359356955
50.08667998947917 -171.63192834388934 -2.46083419535915
49.651043834824726 -172.84982422469255 -2.4728601834502038
50.16264758759516 -164.4367758221563 -2.4609247828074547
49.75687837192355 -163.58258862543738 -2.446051551406658
49.8168351361277 -163.54650094568495 -2.4285671801171897
49.68047906100142 -163.57586262277988 -2.455207397360743
49.63298621833875 -163.53742762521375 -2.4523498483975645
51.30216766255385 -155.3985569187772 -2.4462160906789236
49.867093613890745 -160.3483438107559 -2.416964289894577
49.75693276618702 -160.3351778148275 -2.425988464637661
49.68612444968011 -160.30834080827697 -2.4291040315893384
49.66912255510612 -160.24593558475283 -2.4218793503142453
48.98582525192539 -161.29617889160315 -2.413602518309084
50.579770667942846 -154.02879224903572 -2.412474446507513
50.458096501885834 -154.0569774189635 -2.4249241515309894
50.50595773333664 -154.05352473195722 -2.420615812439313
50.41185976840583 -154.05481171933567 -2.428773790022807
50.36846231481038 -154.02298737934078 -2.4301625572545076
50.332163286432 -153.94605536757248 -2.427804961861555
48.51894021390005 -159.77787366761086 -2.454515160175119
48.47886898262486 -159.78556323289214 -2.4586857202681998
38.49757727737142 -191.57361707352518 -2.480901027428902
42.30136328854698 -173.6075840346821 -2.42757019011636
42.32578235685271 -173.500131125555 -2.441399298493391
42.27297767769116 -173.42586297184081 -2.4465313715122843
45.41957555239537 -160.8576546987987 -2.498725243494066
45.42311777537229 -160.77994152710946 -2.486118767532752
45.41129667113649 -160.69773153719132 -2.4729337173799184
45.43128272871835 -160.56128525595992 -2.450530353385254
42.17978187197227 -173.3684666735963 -2.447017878736391
45.40177694988738 -160.55979004450919 -2.450633845725528
37.015972374336116 -193.81027613404078 -2.4084919580986837
36.91689311168222 -193.7861849722864 -2.414083177562531
44.02989570427136 -165.29306778521595 -2.4917114630506196
44.69022494208655 -161.95997635660257 -2.4251728522658316
36.752193099541344 -193.66857378356232 -2.428610811571766
36.714530715438045 -193.5153473083253 -2.4400106418447614
43.58851853049536 -165.8698687889093 -2.4818957392138525
43.657270490284084 -165.69066186999538 -2.4757294082585655
44.50959643482604 -162.28668890191435 -2.474763007918659
44.55241041903562 -162.2313980221165 -2.4671202722193746
44.58852417812048 -162.1496931249235 -2.454516678658873
44.595494075297644 -161.98818444759593 -2.426687404200334
43.47766268809314 -165.9312806617386 -2.4681609492668803
43.54293944214796 -165.8795745914682 -2.4747982372478483
43.51732773853977 -165.77021385616223 -2.4596343935100187
43.622841947790334 -165.61127041739948 -2.461302468068106
44.53820999945394 -162.00937000127846 -2.4282155039123
36.56752822588698 -193.59527021736707 -2.4411455784251443
36.50129474953411 -193.50515393806162 -2.4498359744169638
43.467755037009645 -165.90943795167505 -2.4643925544045446
43.48770661706965 -165.72229203243054 -2.4496369730026823
43.50600038328271 -165.6987338639167 -2.450395558051626
43.557340207020914 -165.5489031744266 -2.4432681365887077
44.29225163060245 -162.22445886433076 -2.454536909527917
43.37754862043504 -165.75596526055378 -2.4337918252708945
44.21457322672521 -162.09639922764296 -2.4294325691111682
36.38643426571114 -193.0555908191039 -2.481922840553832
44.084572144442674 -162.05570739164492 -2.4165989500207807
44.11328749940657 -162.05221702759667 -2.41734176099744
43.87823500086132 -162.226283747005 -2.4343524627910655
43.8977255813829 -162.21122454017473 -2.4329462561926034
43.97645580241605 -162.07031910066343 -2.413806817490588
44.006210458172 -162.00300649109087 -2.404077832529976
36.10228434885481 -193.19157107799032 -2.4854927840926613
43.80871122355174 -162.2055692901057 -2.4273196914167894
43.88813820520525 -162.09246712681525 -2.413053862373995
36.01192905633143 -193.15411474447913 -2.491796797085589
43.127999306065824 -164.56921023856836 -2.475646449878456
42.9601782469143 -164.70428431231332 -2.470422603850139
43.040828961506115 -164.6220808552437 -2.4710222108237083
43.056828886874435 -164.449266563476 -2.451811108137562
42.90573151421349 -164.72682169530103 -2.4659977174133463
35.702444741723795 -193.33105039981223 -2.4937443095647307
43.77670011874815 -160.36908328069595 -2.419229830222319
43.8062115951032 -160.30812658403957 -2.410416787597005
43.68705557493595 -160.37087468782164 -2.418407408165946
43.2908108994213 -160.8841945774117 -2.4860425270537903
43.226659856318264 -160.87647983553103 -2.4835268670079014
43.127214829286736 -160.94152203655995 -2.4903079545741624
43.155812769998484 -160.86170224726607 -2.4798273099348718
43.0310807695634 -160.76158415507416 -2.462830790574779
41.23676103610442 -161.54284361020422 -2.499647559233958
40.91308178108572 -161.027184635907 -2.424100447622605
36.88660559152165 -165.00863303087766 -2.4979100508949754
36.85565829285667 -164.96174932915858 -2.493138588678247
36.681131729465754 -165.11583110542108 -2.48732467470741
36.79579282044399 -164.90803610399064 -2.4858122010503507
36.81248076322686 -164.56689491274764 -2.468867475093651
36.78508155175416 -164.60383121401543 -2.4688054537041677
36.770248585102266 -164.5130943369973 -2.462644883853879
36.79357071793713 -164.4123036849281 -2.4587109156375693
36.84128416082252 -164.31622287405273 -2.4567315048445697
36.517414029195834 -165.14927201535227 -2.4762438163738762
36.590659839217864 -164.6033434129942 -2.454006854055043
36.699010136836485 -164.45291413588828 -2.453889234473066
36.440505059025014 -164.78784194908454 -2.4523113211915906
36.50103688726412 -164.73554268045768 -2.454226683748871
36.51585994011804 -164.6521965519009 -2.4509316450525542
36.12215842878509 -165.3450121199321 -2.454510665202851
36.194248205037624 -165.28994864696122 -2.4576648354851383
36.137029494365684 -165.21255206259298 -2.449676810390419
41.29465390064086 -144.76045630379474 -2.422435941258933
35.98266810387473 -165.63276435054027 -2.455893343661458
36.0245242827364 -165.59386423529781 -2.4575670426811946
36.08307597492262 -165.1359054238929 -2.4419011696870885
41.10841990863793 -144.95849887848777 -2.4477242038310747
41.17623039957623 -144.91274660787175 -2.4403112709521393
35.969351240495314 -165.36513245301379 -2.4434764679173666
41.02829527167468 -144.97282833684008 -2.453581980129228
35.82867966879178 -165.47552156385564 -2.4372224981024075
35.851202010605576 -165.43463378800897 -2.437255323435764
35.71742806233746 -165.50472320828993 -2.429740386699121
35.6887554903251 -165.3646348192462 -2.4214884548095643
37.39554037159814 -157.91747789951657 -2.419052862130029
37.42438114492488 -157.87744143325725 -2.4155568102346967
40.02246088284239 -144.148570701816 -2.458058916728581
39.867867770510074 -143.97369687022373 -2.4554314047736265
43.87014332903159 -126.74598191743232 -2.4095792645171086
28.724336480617687 -179.68425167039828 -2.4434356855502157
35.928297764226556 -151.10494339502912 -2.4013504272581763
28.52575211212557 -179.71189697738248 -2.4368738780794295
28.57717422851467 -179.5850062582817 -2.443849007456391
28.49818727973906 -179.5390921865608 -2.4437250441473513
28.475061833528017 -179.45772133736597 -2.446590310806873
28.45312866172409 -179.3776859095467 -2.4494626355952116
28.453628819458874 -179.2366111410729 -2.4554741218094525
28.44977921817891 -179.0988556647387 -2.461151726013717
28.370270104283925 -179.05271723906358 -2.4608226314890738
28.04340094198085 -180.20133734243015 -2.4020066983916895
28.34732626327724 -178.97228857549283 -2.463448619784665
23.90520850711878 -172.44813157428084 -2.448465950090686
23.855607565728544 -172.28057606149665 -2.4469878241286915
23.82167326265481 -172.37693001691258 -2.4451506791249633
23.95533685070113 -171.209224399331 -2.4524373120612912
23.983088807640918 -171.02938342650373 -2.4533341356895164
24.028608837231683 -170.93849723721303 -2.455094044099864
23.61950798061189 -172.2381729639933 -2.436957574354032
23.790846548179097 -171.49967713472293 -2.4454543466729914
23.58901282023484 -172.06522044924452 -2.4361064340439444
23.55142397198307 -171.98197553363823 -2.4346837086452044
23.633144967089798 -171.61193951279932 -2.4386121723687246
23.325620546113022 -171.93378655414122 -2.4249724034056044
23.712363817795957 -170.72023411492628 -2.4405050633814738
23.739006088347157 -170.6302560910689 -2.441302019106989
23.74984479381092 -170.54086887564873 -2.4414064125618964
23.810449414517407 -170.35959237935586 -2.443177109717129
23.280593241924418 -171.8508428228744 -2.423154520182287
23.66805595280931 -170.46455207545372 -2.4374039261643503
23.377329671142252 -170.94186397148528 -2.4265053410077324
23.63478896471287 -169.94510586725355 -2.432700974641068
23.325973794698047 -170.86097414687194 -2.4239676579580616
23.557987924298658 -170.03939432279532 -2.429980295788699
12.937792325288463 -149.69049211244192 -2.477668318898556
12.87829221436364 -149.5053962470326 -2.467245883910617
12.69165780193996 -149.7280987151989 -2.4795516215370226
11.864665572446498 -148.3600809520711 -2.40064050864331
11.110159304688608 -148.2970106521412 -2.396323543779833
70.42936654646007 -175.97567292158715 -2.356059654468746
69.25601183252199 -170.90908507897018 -2.3328534134963705
61.124442718386774 -168.77533881415158 -2.3532851983658007
61.02227536530019 -168.84898036458597 -2.3638932981275826
56.27309830224818 -181.72436659173866 -2.318818048050411
59.504211042798595 -158.99054464036277 -2.3331476419790294
48.27720893083676 -203.4149772410256 -2.309867704072591
48.15195257337146 -203.56157193636298 -2.315202812086409
59.21237883804691 -158.7992493122622 -2.35559666100868
59.11771879741682 -158.45246218364565 -2.3561316490040602
44.335887497306814 -212.00709160198915 -2.318047471280911
44.18819312254872 -211.9183753019142 -2.3317044031116687
44.02012926026251 -212.06014946864542 -2.339967707637277
55.75195856644922 -159.9246310279399 -2.334706491687996
55.751630296979606 -159.76591887395205 -2.326717627403709
55.71242316120409 -159.75663602996048 -2.330731783981113
51.99171394932197 -172.8432805319469 -2.344305544227008
51.892988311953566 -172.72418362682683 -2.3745426430159045
51.83743201522936 -172.6731167257958 -2.389823693802822
52.37216111812278 -170.40210820983242 -2.348891101558615
51.680935124368965 -172.9854553407916 -2.3777575839749012
52.33220320396345 -170.41213744309152 -2.357228428885378
52.31295718715401 -170.32324152092696 -2.371000363228341
52.30183464244223 -170.22238987524005 -2.3839819699387577
52.48454122779552 -169.81276351533015 -2.3778797386757096
52.51496985813577 -169.6409975713658 -2.384480887128045
52.74414885501268 -168.58572241908226 -2.3871999891221325
52.27897232921155 -170.23504440039312 -2.3880965663664404
51.741619996446886 -171.71412604680512 -2.323286582161967
52.38396730039865 -168.76227504399336 -2.327105639324331
52.4063521609524 -168.75585496888053 -2.3206978853411027
52.43923515491824 -168.63574531026947 -2.317670318971386
52.48040425495408 -168.43904214600673 -2.3148531443989517
51.37624093924308 -172.27080409364478 -2.3106842987041425
51.467277844244805 -171.9434261943779 -2.3430801078962613
51.478950587831235 -171.89407932133105 -2.348140825193851
52.02498801392744 -169.73596697111196 -2.3451499200095185
52.085267803255576 -169.65813003047032 -2.337080265382243
52.12029257293334 -169.61262137133775 -2.3321874956639674
52.23621186466935 -168.9980071918034 -2.355061275051379
52.2774146519944 -168.85419703804533 -2.3531538677300263
52.28734537590242 -168.80696385798205 -2.3533267876296504
52.312705568722485 -168.5245326984262 -2.3620672355006693
52.40358054071005 -168.2450461234277 -2.3461923258698407
52.4683617141229 -167.89613116541318 -2.3343785111676962
51.40680740187851 -171.8801111320861 -2.3636040751288574
51.45327088813976 -171.67101438860297 -2.385428525691113
51.84747134765112 -169.9556652424194 -2.366959396650965
52.138847999447016 -169.16219765523792 -2.3703339361609643
52.19056739317381 -168.61675385193513 -2.3942452644472096
52.210185121669056 -168.57570884764695 -2.3905569594080154
52.25583171337279 -168.47993082493733 -2.3817028700434255
52.271651184827995 -168.3357551062274 -2.383465963785019
52.28588781615508 -168.27270558609422 -2.3815627263828354
52.28115994373858 -168.20508734812577 -2.3854657342261225
52.37125588453224 -167.9433490934709 -2.364033882750785
52.442648437084486 -167.8596720001895 -2.3428947133424023
52.41541267719974 -167.80404926614113 -2.351936571850077
52.44560080905048 -167.59710862214646 -2.3428501344546016
51.27405502563424 -172.20549049392145 -2.3389168340739337
51.322168858106075 -171.91448248409887 -2.3742065853167027
51.36155969061234 -171.87633599475583 -2.3725532440563053
52.15975957291931 -168.63401711078015 -2.402574247467586
52.173219399777565 -168.5767969056149 -2.4017888776590457
52.19918560054167 -168.47661769159134 -2.399184303330192
52.27102949392947 -168.16287152699735 -2.3899717741860824
52.29891186399071 -168.03111374524707 -2.384871551494002
52.30938238891392 -168.0068639485471 -2.382145213628944
52.339225850406 -167.73114842928777 -2.3763075985638498
52.362357386624396 -167.66382885586438 -2.369162207461434
47.80170708679107 -185.58856516367405 -2.328697482330423
51.607709520074906 -170.374331402879 -2.3716581505754384
51.62285304943798 -170.2390607014373 -2.387295785236523
50.966919068150105 -172.61906657178443 -2.326486151493234
50.94596646235201 -172.45405856676413 -2.3561784893947104
50.985206376038114 -172.16505377899168 -2.395218580583524
51.80071414716052 -169.1969599844622 -2.3268618805909855
50.87330905246103 -172.36061151364936 -2.3829369673893024
51.121269022318614 -171.228322973103 -2.345258936143402
52.027649654588444 -167.684686491845 -2.3439204771019257
51.020093648138946 -171.4285815700163 -2.3303599405556437
51.0505986755271 -171.17540821605715 -2.3694334881130485
51.95914487595513 -167.79022610233488 -2.367057924571191
51.006459450764865 -171.13493882008743 -2.385751226406303
51.13833204700482 -170.53026093628344 -2.3097770550219794
51.30942734219434 -169.9613508385199 -2.3665226865400113
50.399543384848776 -173.02515665603931 -2.3460496127569814
51.099463085422045 -170.34279821632305 -2.3553101231651485
50.21101693548208 -173.1010225343937 -2.359134933113751
50.4542048169332 -171.81162685061147 -2.364264371544544
50.49033722660581 -171.62712917568737 -2.393844901812417
50.2273909509108 -172.1635885464685 -2.3316808961669864
50.01091662176658 -172.2188870209915 -2.353200030262398
50.01028694734562 -172.12156264976554 -2.3732161937469343
50.022701520379876 -172.07301402235953 -2.3813128958292946
50.229661932543856 -163.6000794106312 -2.3763636872780483
50.906122855936005 -160.5254142259773 -2.328768905026535
50.010753579217265 -161.70462656469456 -2.3816665649479454
49.88857180137465 -161.6921133753321 -2.3934590023659714
49.99379102952922 -161.4923361708549 -2.3464761598471586
48.522036975410415 -158.7439976410615 -2.306761745579635
48.398344921662 -158.6849773504535 -2.307779652220567
48.307608464350906 -158.6455706878379 -2.3089375163674792
48.202367664688396 -158.69635979857924 -2.3238976136986427
48.095934362573914 -158.67306805038717 -2.3282377204041955
48.01926080780729 -158.64064923848002 -2.3290509724598083
51.50063508992057 -142.5059189507701 -2.390767098941313
38.401174103534174 -194.35111473918607 -2.309349126332254
38.28645952898373 -194.37582125809251 -2.3136743233716697
38.16485148644686 -194.14232767765313 -2.3344347508358916
38.066061615903436 -193.85838023141952 -2.357178459214778
37.80149352750753 -194.78535353937838 -2.3106391328137597
37.84614618192049 -193.61839290389577 -2.3823833298721455
37.002423324141546 -194.08579236591248 -2.3916460990826947
45.03407890541324 -161.2502647647823 -2.305326273877727
43.55230195743436 -164.87262506362225 -2.3585636489925674
43.43502813983636 -164.8484242447659 -2.3365039010986814
43.23733441344385 -165.38031595791225 -2.3698792374689237
43.2522816241986 -165.31130297072383 -2.3645616327228733
43.34968340913038 -164.8529143918567 -2.323408101942725
43.22070568096724 -165.25650936657186 -2.3528819309974915
43.88447282520754 -162.01406654828907 -2.3999857641854287
42.726767946931346 -166.0665750036356 -2.3454870608994804
42.785253300646495 -165.91996374408328 -2.344017188017505
42.7036392156757 -165.99577088318335 -2.3356729061152137
43.46621466281445 -161.9180047446003 -2.362587947527487
44.02591228594746 -159.81939687081254 -2.3375083939596166
43.39282143817252 -161.91511802099555 -2.3581008085232287
43.224397770162625 -162.00552334119908 -2.3627649870043896
43.281094629541045 -161.89475296606096 -2.3486085221476434
43.16217372717701 -162.03708299888243 -2.363994901047179
43.19225705948865 -162.0292395781734 -2.3645585177979997
43.203308258279826 -161.91242546233596 -2.346951165815211
42.86687532232088 -162.19889618575422 -2.3700888356361745
42.87769372768335 -162.11985882858934 -2.3589491279673505
42.88333728438264 -162.07021263346357 -2.3518403640811134
42.876967476561575 -161.9905014162842 -2.3393397183466353
42.8680223932761 -161.8882349019523 -2.32318145677631
42.606067015339995 -162.05975634791875 -2.3322186087327803
42.555993256479105 -162.07135361722138 -2.3305922618855237
41.08447999543423 -160.6290583548973 -2.3826079594957013
42.45845194504536 -153.07512382176955 -2.3722977798745437
40.484050626435874 -160.24504935647266 -2.310942197163962
40.52362531587126 -160.2304193994099 -2.310716337274147
40.346021726124626 -160.44419104555695 -2.3294651332328513
40.392521548790526 -160.2635193342403 -2.3094357919032547
40.306718870261655 -160.34001254399462 -2.315178034529942
40.00801131241512 -160.52932140030848 -2.324660563073997
40.050213519760334 -160.4912936409024 -2.3220800030356514
43.03779935140433 -145.60671906119364 -2.370286467220184
42.90863698213712 -145.72489835185164 -2.386991987842513
42.77908821405454 -145.5402427916341 -2.382540480819139
42.7166970331709 -145.61081538962702 -2.391452992056859
42.63256960233261 -145.59650233330677 -2.3959495007324527
42.76437775908173 -144.8727900057915 -2.336741867467482
42.541374931488846 -145.56369709589856 -2.3994633902205558
42.418935046841355 -145.41131193325802 -2.3967546008456906
42.12137141253189 -144.9499577456304 -2.3836068675118267
28.017353271549716 -201.34873011253717 -2.3097128135718625
42.13059648185211 -144.69578992071072 -2.3652302048642104
27.77052006221399 -201.22812068456096 -2.3248386503893745
38.753757353154235 -150.98598582539063 -2.310239664452571
38.66959601776694 -151.03795599766875 -2.3179070540184803
36.543436650017746 -150.86172779459756 -2.364160109418582
35.932697761244754 -150.27961949996723 -2.3279560855164476
35.85165428644101 -150.35483729425232 -2.3367686220821753
35.94970355385101 -150.17779027318534 -2.3184443572282722
27.826094003780444 -182.14037049972524 -2.3031141105595463
35.760121679578305 -150.4161111279416 -2.3445567663164075
35.635428986488606 -150.43565732634016 -2.3493746841748444
27.670352506507857 -182.08907288845333 -2.302200227887751
27.401092478268627 -180.80214947364667 -2.357712401545255
27.447936321446374 -180.670076480549 -2.3649388964963056
34.894139496328805 -150.62683526276032 -2.3836038177997967
26.734455821075326 -179.7893784806432 -2.383043816127868
32.476000667856525 -149.77161488570914 -2.3604463236793327
24.379906764766535 -178.08239913256367 -2.367552324902261
27.136032965955724 -162.30790632768912 -2.3870496044892695
27.15793828097562 -162.2341405916924 -2.3845440446110944
27.042009982984542 -162.36694029862696 -2.3858924723651036
23.76539547748637 -166.83334839871904 -2.3926845589708687
23.663826910326733 -167.00627203894328 -2.391860525834448
23.66352482668314 -166.9171751470464 -2.389922757377745
23.753608660366684 -166.74860686313457 -2.390251829116967
23.750126875403232 -166.6649918720869 -2.3882051307967442
23.70537486634061 -166.3194385280232 -2.3779887409160656
23.59837032160731 -166.48764250873202 -2.377233567311018
23.663711366673112 -166.4030466857066 -2.3781377874380953
23.50274525405221 -165.78920625714463 -2.355216513558192
23.395697438479402 -165.34415320074635 -2.3379339623355824
21.29122128953934 -173.27451846227152 -2.3330244854902142
21.34732998221728 -173.16334216153797 -2.3360321884925432
21.043075436996787 -171.5548550132767 -2.3254973228642877
11.842653606409563 -148.1860096432569 -2.390406947859559
11.265957267146078 -148.21214668331052 -2.3914642544195197
11.076281123269105 -147.62448778619472 -2.3574688850443106
10.562919067458367 -148.18230480544105 -2.389018391832532
56.32251488968087 -185.22170999448278 -2.2108624507826846
56.218425931672556 -185.14938057529207 -2.223381285012638
56.155692128095225 -185.16982056973907 -2.229423423538285
56.08087646618633 -185.16476299496262 -2.236897699633044
58.08997486084847 -175.35310817375864 -2.263173019821866
48.650209323929055 -203.55424125208899 -2.275508530917819
48.525021813996425 -203.43630373824962 -2.2892532897879243
48.40246346589968 -203.41585648974922 -2.3002335934178375
56.74071731591789 -161.26312630195704 -2.281751108315551
56.71864254773827 -160.5933902638302 -2.2540254032545324
56.71132825428098 -160.55086201225328 -2.252925496743246
56.605384456687176 -160.54719955479882 -2.265311440869117
48.67608712801242 -185.6855187056756 -2.2530257970671004
48.737849670656864 -185.62527136207004 -2.2524441161095283
48.583336143657 -185.69766253263091 -2.2597734748074165
48.45690467324062 -185.75104003259827 -2.266180216950448
48.36305664105918 -185.70821728062313 -2.276754606657359
52.21169734909895 -170.26715432771516 -2.2307738769544443
48.26669534328548 -185.69673551073132 -2.2850674008891416
52.093895215871655 -170.21188203280775 -2.2690193481913075
52.583456524336675 -168.5099810647284 -2.280007447283061
52.554532245375874 -168.48080449709386 -2.2902142308655487
52.752314735525374 -167.85143713538122 -2.2459247775480966
51.43173309854373 -172.842949699257 -2.2131947646119245
51.40674535652773 -172.67169960760896 -2.243943111125712
51.435347715495325 -172.62888332772252 -2.245607175180959
52.03217445460748 -170.19077682211193 -2.288056388936604
52.05022772229548 -170.04133938981022 -2.30214785069337
52.58015787089132 -167.8472116242704 -2.2999433892760415
48.04351345012958 -185.8151677379851 -2.294192541698348
52.273108497027025 -168.80901471188005 -2.2088222825355883
52.31113935826289 -168.55851884629658 -2.2136870107491458
47.98140450808843 -185.74331413303779 -2.3042479255696358
51.1490618474855 -172.78412815575606 -2.2701805741321435
51.17921824559206 -172.7270586196594 -2.2742196851606256
51.23282578842615 -172.53895906475114 -2.2946695034690907
51.919603486988436 -169.79378932841433 -2.213586948036105
52.080228214100146 -169.14158286459204 -2.242555686706423
52.15676756392925 -169.02977371420235 -2.2284893317614407
52.14158494272483 -168.9789712390945 -2.2382071603007954
52.27324894344291 -168.54668631268143 -2.2274193218574463
52.22101854520398 -168.49621208429468 -2.2484472261698336
52.32482504328447 -168.4244104278633 -2.2170181067536143
51.10515779720863 -172.73577631485077 -2.285211290366359
52.023215582571915 -169.09826732971064 -2.2655435530534467
52.03011267418098 -169.06735577985222 -2.2664205224298506
52.083221891869144 -168.60057115657318 -2.2885955236399314
52.15187226507746 -168.54979217835324 -2.2686558788552604
52.17158497566099 -168.43442058785593 -2.2691174205427025
52.08311392012254 -168.57327628552895 -2.29052568984636
52.10573463231342 -168.43505695550184 -2.291675919367857
52.09137219839735 -168.28265195728983 -2.304992505442552
52.12668548431339 -168.24696478122797 -2.294482408118295
51.02012451409341 -172.0866371798794 -2.2088325289966577
51.098940444128715 -172.0077423659045 -2.208466903155499
51.13863177705154 -171.73249950609176 -2.2512741915053964
50.930369023574 -172.12948304608287 -2.217520135125617
50.906504988270115 -172.07859272118648 -2.231708316924893
51.12930755783452 -171.55007236035146 -2.2862851495769476
51.46376224409384 -170.12838321595206 -2.2952169653980343
50.8527236318776 -172.11271240517726 -2.2350645788120924
50.445848263805615 -173.24911542855318 -2.301819137394573
50.715314086144076 -172.26544527372096 -2.2302860053997913
50.78908000377212 -172.1013814423387 -2.2488270947700713
50.541280470648026 -172.41615935104977 -2.230450625444149
50.599000979942566 -172.29215928059088 -2.2451392681136593
50.58725140596252 -172.18968909911916 -2.2672235635183027
50.79588381801832 -171.397271188523 -2.21121234611884
50.85491469082428 -171.23203550595312 -2.234089460739646
50.4771267177743 -172.34801054438535 -2.254538208510054
50.41692659487994 -172.31311586630346 -2.271377473294514
50.50421688693846 -171.598256950972 -2.226008589161256
50.469743817243305 -171.55702020601072 -2.242156236881324
50.020018986906706 -172.85445151589386 -2.221314818245718
50.020018753344296 -172.7877124369731 -2.2351096438744227
50.10623528275805 -172.6331040668427 -2.2545560176512724
49.96460512476944 -172.84351972153794 -2.231348780945458
50.20566219468387 -171.83292438742924 -2.227063841911913
50.22170980943177 -171.75796614832979 -2.241767468391577
49.808747546299884 -172.85500096642397 -2.2499830507394303
50.04090392357221 -171.9552535834276 -2.2259166869364124
49.9982128725341 -171.95466346729614 -2.2329518238462933
49.86485555349909 -171.95822806762024 -2.25311264066184
50.22536836544805 -159.59655173927902 -2.2746948709840895
50.262805920243636 -159.54573905621555 -2.2636530908934245
50.210563977711516 -159.52501483452286 -2.266141681338697
50.19328721653411 -159.38872557313218 -2.248754243048041
50.140324218321894 -159.3685449949107 -2.251310392606274
49.51107303265941 -160.88742208378142 -2.291396803250498
49.46131275121389 -160.82445651218023 -2.285169309849846
49.41022382305668 -160.76675831925118 -2.279908065042446
49.49874812800108 -160.69644730028713 -2.258705976472899
49.18737999410517 -160.47403784985067 -2.248806385908071
48.67667192335083 -161.29709678874806 -2.2174725598151657
48.604791104999805 -161.28324104592699 -2.220170019251193
48.48741035555432 -161.36094564234227 -2.2458338428297635
49.469009271240466 -155.99014506132315 -2.242453882660206
49.511491062625765 -155.9256027295433 -2.231962757696167
49.56000272012125 -155.7798800518278 -2.212184370804472
49.431888697236275 -155.96157588623433 -2.242591463781251
48.57983081052746 -158.7296065663664 -2.3002209010880157
49.29592372288345 -155.90505557325068 -2.247983606157466
49.38304499987983 -155.7700309190944 -2.22620233715761
