ply
format ascii 1.0
element vertex 823
property float x
property float y
property float z
end_header
109.04144709474443 -189.04666508882966 0.19261175638088007
109.28747257331355 -188.13304547328616 0.16929999227639653
109.32325514635522 -188.01943951426432 0.18106053368806097
109.35267755718345 -187.96307030945633 0.18648622104951318
109.41073383100344 -187.8952522342953 0.1922362226738933
109.41358927409196 -187.66506928792364 0.12602446509745446
109.49016758606285 -187.6004255609992 0.13030360691022028
109.52720807144073 -187.49597214269232 0.14147127540364232
109.53795915733586 -187.38431475537234 0.1548379533807056
109.56595727254596 -187.32853773484462 0.15989312709268141
109.52838566895953 -187.1739173979607 0.10001755181241312
109.58511580463333 -187.1159992014077 0.10264104416482553
109.60782426203242 -187.0321685768731 0.11186701382349509
109.69167786369819 -186.89911150925928 0.12037462981744868
109.71893587222247 -186.77916702263263 0.1320743307411725
109.71572162480615 -186.76375530541122 0.13423744607531898
109.82587496723168 -186.23258833938453 0.10195655508200632
109.86729208674281 -186.1584850436385 0.10239811372847168
109.88906357725287 -186.06715749891808 0.10694771295327779
109.99068883432072 -185.7569119271436 0.11198080966089
109.95909209821251 -185.6237996520951 0.1242082739088147
110.00660883777145 -185.5975820864569 0.1173818780815789
110.08111448587049 -185.36398712901033 0.11288199778803898
110.16092337628992 -185.06544956514827 0.10388094534106854
112.10557857682215 -177.60817932628333 0.19916524710057215
112.15059712110254 -177.38566862059898 0.19254643575663458
112.18293778571935 -177.1077139144752 0.18462698712491618
112.20534010196866 -176.98914840815632 0.18101514875225166
112.27695915665139 -176.77006231152882 0.17405682124427935
112.37357207674644 -176.49665406934025 0.1651295939043935
112.42535879988786 -176.31040992603158 0.15932772020333041
112.50087231148325 -175.98700440482986 0.149308284691633
108.39596811997512 -191.25169501594897 0.18281653236462775
108.44651064642474 -191.17423778631436 0.18842700381613894
108.92370611637489 -189.28919914126058 0.1701254839458668
109.04474450234022 -188.63002211143908 0.11535794218069512
109.10484434932482 -188.4368020374684 0.13770437008501488
109.12831850219315 -188.33435100273172 0.14944114896750488
109.18576461598613 -188.2205100873869 0.1615539884112225
109.23470331355594 -188.14144125808608 0.16952583749378536
109.28206175082077 -188.02032128056973 0.18197893778182175
109.28744360893297 -187.88949309579087 0.196249549044935
109.33973188585088 -187.7144357043463 0.12322676421347328
109.33890977958987 -187.6477267088803 0.13229446398562136
109.37382889700352 -187.5533157508265 0.1429971890952163
109.44025493468405 -187.24201666453465 0.09820918013085539
109.49612927990898 -187.20825950720263 0.09803471865419902
109.53244342608862 -187.13514024777845 0.10517867968717642
109.85328810465936 -185.83262563870224 0.1305272829486624
108.17447563987486 -191.67968093420106 0.15310840633753992
108.29755795695634 -191.37552610721215 0.1733657063580766
108.84327888954464 -189.17196327358155 0.1794609391866404
108.9259002155621 -188.765309814129 0.09960751358899175
108.95346307655072 -188.6746361104564 0.11044073074820215
108.99662319560824 -188.59835826594937 0.11937256145066072
109.03900382026141 -188.4986775388921 0.1309405663536176
109.04876667903827 -188.41284894174981 0.14100742464857433
109.07481825212679 -188.3427458923495 0.14901846518536477
109.06794264466583 -188.24184187134836 0.16089556868013385
109.14342631858935 -188.096202142293 0.17646783042600778
109.1214420248493 -188.03362410980466 0.1838625419959591
109.20185155401767 -187.93681196752408 0.19305879348557428
109.1712064046033 -187.7802896716689 0.12196113815445725
109.20618988431168 -187.7329743534414 0.12704028829310152
109.2440594926262 -187.64627888488565 0.13723516855675774
109.39548249643288 -187.25763964211293 0.09986374033219833
109.41112499392193 -187.10622494913042 0.12084513905485145
110.97800129034103 -180.9074164400655 0.10421794430052239
111.00429105820665 -180.90328773098798 0.10290523830688819
112.40473283978727 -175.33384735492425 0.13154829268356388
108.09719147336894 -191.5803420483573 0.15647573498392248
108.15103410037233 -191.48154701504902 0.16345847024950746
108.19598118094294 -191.33640851441876 0.1726829721639315
108.25251795193661 -191.03239659262383 0.1910340218885608
108.6840648636488 -189.52205842821473 0.14610975035252027
108.68715927155141 -189.47169794244707 0.15065431406942262
108.73738466476478 -189.3620222973473 0.16117977358763114
108.73240078823969 -189.22896376410785 0.1729088902008153
108.76357025033951 -189.1573959524643 0.17968336242197022
108.77441445874338 -189.10727800057708 0.18429970681539395
108.85022289501588 -188.75497171514388 0.10093346095925756
109.02166995422515 -188.225771942892 0.16324469631531033
109.0673374046474 -187.95985306160534 0.10045736371831682
109.0809909982984 -187.8801717566854 0.11143086686301346
109.11130608506257 -187.7818740866656 0.12425229023947054
109.17699710046114 -187.64555115658453 0.1405432190948176
109.26625357820717 -187.33952268240103 0.09800626031821932
109.66968461288499 -185.80774514410416 0.16307330266165518
110.77136829412994 -181.44508237795998 0.1403361970516618
111.79696053050435 -177.3034402702304 0.1952068824764131
112.22204139235377 -175.60405773530587 0.14124659471662754
108.05555881084953 -191.57091018175805 0.15582305059456186
108.6023403715398 -189.39334297558887 0.15619516460489952
108.57674118519377 -189.3323959504768 0.16124726109161489
108.74080908738532 -188.73839928393554 0.10279791714018965
108.96337183929576 -187.97424667472734 0.10163086437143462
109.05302736078254 -187.7757929433929 0.12742343621767752
109.06249392165994 -187.73182883207252 0.1332799211943754
109.24368662318591 -186.89798136444193 0.09887260203621134
109.52253489678793 -185.7373469898381 0.1320241451653366
110.62417922737485 -181.5062425166965 0.14999838212246322
111.76291142118919 -177.30068712810854 0.1954844989262107
112.08930258468287 -175.77095191565286 0.14744009607673322
108.32104198924223 -189.87263783405652 0.10761264309017504
108.3629521682085 -189.79058184627536 0.11594956022078204
108.40847706105372 -189.68786893129084 0.12615229259628988
108.423795766646 -189.45366402487767 0.14752950548798593
108.4821873904958 -189.39859053952213 0.1535709642669479
108.53993920430945 -189.31504316426236 0.1621205588649285
108.90431073499167 -187.91089193918356 0.11259087273565938
109.10610891873368 -186.98547456691608 0.1661397361203735
110.51044652828793 -181.55767450030015 0.15757209861770338
110.53685170918484 -181.47333281363348 0.15212922053243003
110.54002555792523 -181.35132058573168 0.14568062686521735
107.88654528219583 -191.16775713447836 0.12497245605172688
108.30594732621907 -189.8702874334293 0.10753813472097373
108.30129570509406 -189.7625022457989 0.1171084875646983
108.33152934177149 -189.7110402348974 0.12239344216921505
110.40053896869514 -181.65175950222905 0.16708823968592565
110.44734289924259 -181.42216386067096 0.15314171729321663
107.68774250198251 -191.5205891561485 0.09935626744599851
107.74303567853998 -191.39887392845813 0.10791637572271004
107.79616883886784 -191.30167637778393 0.1148931762439557
107.8372926910122 -191.15784902691973 0.1247593284963043
108.14965641189707 -189.96379865725234 0.09532364177437996
108.59188931500175 -188.12454830438588 0.17729170693687593
108.64998039951908 -187.9733327596322 0.1080490389257718
108.80079575015584 -187.48861246016827 0.10356779932535537
110.24108288169938 -181.6453875276575 0.17318956304459887
110.31448740103848 -181.6176666794111 0.1687984554343945
111.34599788213214 -177.38809020559404 0.20229074959339427
107.64009938030249 -191.44875936570756 0.10292806281132413
108.44158223348646 -188.2159374137867 0.16534796713449124
108.53684538417242 -188.0146645543566 0.1027676974401979
108.6690889791212 -187.42655633268024 0.1909075413555973
108.75045412247542 -187.3028992426203 0.13891398004502328
108.74192091251895 -187.16213836428557 0.10001775036291219
108.8259092349043 -186.73126674872145 0.17611770616439532
108.88813092667041 -186.4927451726289 0.1357080985505364
110.18316242239194 -181.6805562168086 0.17730253861989892
110.24133155675777 -181.4834769747352 0.16432173039299108
110.25753919923262 -181.40646332474427 0.15949972926293562
111.27561618344724 -177.31110573484978 0.20047002601850758
111.27769064581007 -177.22549110606695 0.19788197769277985
111.38403471889627 -177.1309120828313 0.19421590943463155
108.35469055908419 -188.2735400378905 0.15738725751833985
108.40673367709704 -188.01912957721382 0.1893311657899878
108.44568533404318 -187.9733802497072 0.13117127449152574
108.54803683424193 -187.5334321305289 0.10486350352086629
108.59834937134927 -187.431828624993 0.17420975271158212
108.63710421743096 -187.18734613719687 0.10225933323355227
110.15189114178129 -181.5449693748423 0.17097989920140017
111.18214313146447 -177.30119208150543 0.20085342863049105
111.22295994501272 -177.1981327492332 0.19736901128045514
107.55042733971634 -191.08443803417126 0.12423950158228089
108.31538228253811 -188.0522659735797 0.1405024476741197
108.3454825744984 -187.9021565453695 0.12103740622146339
108.37236588740087 -187.71198437194028 0.15104934623496177
108.4978391044513 -187.49483383995482 0.11347483879785761
108.50510566844397 -187.46861515015095 0.1181819398030404
108.83066489527562 -186.1546321748273 0.18614619190566714
110.03751820547875 -181.24485537241168 0.15744144919893946
111.11625937416217 -177.29876577164666 0.201181562476523
107.36136165966607 -191.2459049005874 0.11035038311048417
108.33268001914246 -187.77280048588332 0.14151631887266697
108.32973536654214 -187.6930599819883 0.15409114242141803
108.33369196980522 -187.64683391841433 0.1614061309000409
108.47814567586728 -187.1813976422161 0.11219414438795294
110.0235488453684 -181.21564426705154 0.1561375567036946
107.8926849908703 -188.3948864754366 0.10091002904171634
107.98521585291051 -188.31317276018459 0.14585911726481426
105.75065413518182 -196.25257525934015 0.14417411451258857
107.5744306465161 -189.36299153188853 0.09940406815959879
107.61004928567847 -189.19357862203864 0.11665889250014455
107.84314706210553 -188.3984752748687 0.09961451445223457
105.44214132330127 -197.05327950766474 0.11662431234262521
105.67048507190123 -196.35153397601158 0.13994977449514284
105.65547081252342 -196.22799170645175 0.14330796662501433
107.5132300355392 -189.3248480963829 0.1017021136517004
107.60459611877478 -188.9555221874651 0.13981629859609357
107.86907671522358 -187.8437029737303 0.17406473218128266
108.98535978174579 -183.27434108133676 0.12466218054818451
105.14358822524567 -197.8311098221874 0.0902278579106077
105.42045112182639 -196.87477910648187 0.12131106164008301
108.88983924531391 -183.38336767660041 0.1436070892801278
108.92644395169485 -183.3374088823062 0.13583558085845648
108.98405751361939 -183.25609581034198 0.12250056326454808
105.31965847922577 -196.76616365772225 0.1225779459229438
105.28784913430061 -196.64589859511088 0.12526630191622298
105.12286077677157 -196.6511624788266 0.12229440527700453
109.42752009624274 -180.24204318320807 0.10439732131486373
106.69339061650406 -190.28081426252942 0.15586935887684703
109.26491621048217 -180.25302692629614 0.10600493922860041
109.30999283338296 -180.23405459175356 0.10451865847101116
104.85184404158505 -197.2154064667293 0.102246723531179
104.81994403538707 -197.1718488860805 0.10269813421906554
109.19886441657057 -180.35758237441124 0.11338747096464843
109.22469179818711 -180.25613769632253 0.10632673033342244
108.77456797704137 -181.36480612433073 0.1833509641513885
108.80619376617773 -181.28994292039334 0.17818968517832406
109.04136386469663 -180.37531060616692 0.11473692443929806
109.08589683912318 -180.23543401060115 0.10502630233143351
109.16167904855031 -180.1942780449912 0.10217830551083171
108.66712955927328 -181.44476595477647 0.18856655949986043
108.87994506287345 -180.78537607188792 0.14306999249900149
108.88637084060349 -180.48531291522644 0.12202500630282345
108.58286507367177 -181.58337219394755 0.1978553283172966
108.6053547239173 -181.27741487195914 0.17632129781824596
108.84312519592619 -180.42405077174942 0.11749956956721619
108.40806425224375 -181.6024411484099 0.19751109827256075
108.44969382205802 -181.5609090554899 0.1950353557421199
108.50925622685905 -181.40739000690627 0.18470478125523232
108.54748003636222 -181.35274308113696 0.18118235221512782
108.70301625642784 -180.59372013100025 0.12854205934526816
108.69896920922189 -180.50816365717446 0.12242222704056652
108.31438664159936 -181.56275888369018 0.1933349385964838
108.33780184348342 -181.48312040963697 0.18796103530113878
108.388483465205 -181.41585146100516 0.1838559266423146
108.37215841368489 -181.3062977914483 0.17573910126895087
108.28258108437176 -181.44511134421373 0.18431888018688503
108.27171949126297 -181.4134181844418 0.18182764586318884
108.17593724536512 -181.52585934764497 0.1881625686098782
108.18748716621542 -181.3684904756589 0.17697285345346903
108.0571647593012 -181.61253590691342 0.19151219976597678
108.05976613557468 -181.5577858703794 0.1877170877971329
108.06494239853139 -181.44922422942912 0.17979239734530075
108.11294428195524 -181.35577976085355 0.1744619688663648
108.13120611184 -181.29886878175952 0.17072836415858247
107.89110307959106 -181.64017933639434 0.18758326998965874
108.00998817077878 -181.383066832823 0.173085883333947
108.0114671060393 -181.33427595018202 0.16970040185380733
107.13346582235035 -184.18852863801663 0.14810818242292614
107.24022532032076 -183.93835498545852 0.12324261018589286
107.84864864866763 -181.42480464636068 0.17025354068865498
107.93833412310175 -181.20182005065215 0.15726597835462847
107.984660625412 -180.9094321661281 0.13753666338432266
105.91836300845428 -188.34282095412232 0.1278281952555166
107.06763625858827 -184.1614215465371 0.13380999653619424
107.04952890582909 -184.10369629215174 0.1223301985138498
107.79294619921549 -181.16117353164807 0.14856631342857535
107.81511740657412 -181.10996539245156 0.14581022716933842
107.82984348552583 -180.96614875085007 0.13570121183199765
107.877824086757 -180.91611166350606 0.13410249373350058
105.855892261437 -188.31106114621954 0.12682291073812094
107.58463157468204 -181.60265997834648 0.17138353523373714
107.71375234247606 -181.31598825249426 0.1564353978372536
107.69369323660365 -181.19904304624475 0.14713244751842497
107.73572363659238 -181.04322045177062 0.13750635005143438
107.76359187340113 -180.87748534852494 0.1264473715943994
107.86139788160911 -180.78245264939045 0.12349063106918187
105.82708053128738 -188.24820869454638 0.13034935400652664
106.78517994194974 -184.3621885383069 0.1708306202659252
106.7798846359656 -184.3296194601209 0.1668697431697368
107.18839490767232 -182.89589152378298 0.14171340983536368
107.65941987905096 -180.944007217589 0.1268279295738501
106.7412320560944 -184.35209143574974 0.10067829257047373
106.72850155789571 -184.2789075666989 0.15307818051351668
106.72201448277538 -184.1950339629236 0.1439853738295563
106.75569814166755 -184.05947980347986 0.13568258894826082
107.37276660034728 -181.69403331818583 0.16683222285382374
107.38658200187092 -181.5838093976029 0.15964160889241463
107.45873739916884 -181.3843103518735 0.14914569252627496
107.50799088169238 -181.27170749802715 0.14349023221603388
107.51480231710559 -181.19808369110928 0.1384955685198049
107.55501421393511 -180.96703192299117 0.1236904399864521
107.56756061478312 -180.90419480781338 0.11953629978304028
107.59544409566263 -180.8166034680237 0.11462219378298188
107.62306023123165 -180.701183215517 0.10729957420164055
106.55062364333196 -184.38027857931357 0.195015220280357
106.59505488189652 -184.2764712539622 0.12943683311302082
106.65603902813456 -184.18746835227168 0.1545624298700079
106.6919855213587 -183.94057222740935 0.1492649199738402
106.90738475798524 -183.06342608870384 0.1330593100756507
106.91039087634192 -183.03149558571354 0.1302991208764626
107.36510379873715 -181.283175328725 0.13685216945371975
107.4196056346318 -181.21491940507462 0.13484413611121154
106.49375309075025 -184.34955993445655 0.15032836849001027
106.55687316959276 -184.21732964240215 0.18624861454165265
106.78412872992725 -183.05050677053146 0.11908565474551969
106.86632794201424 -183.02300723218718 0.12506512380038134
106.85014006839194 -182.91453448245332 0.11280478055138335
107.26505103084023 -181.4291551013674 0.14168410684274754
107.27985994324281 -181.20958527732284 0.1265672192830687
107.2795434597968 -181.08894444470712 0.11801463398227435
106.36748213893098 -184.4028405464639 0.16624572835046073
106.47806199295707 -183.89096479443373 0.1525040677312535
106.69234382802762 -183.21124679414032 0.12396774097730925
106.68124767588185 -183.1459466810119 0.11673559168790307
106.74690995923923 -183.03866901257098 0.11411762945788403
106.776003007617 -182.87537814906037 0.1014729384732791
106.8125684698823 -182.56001505181717 0.1884372684777018
107.22716690293707 -180.94114530403596 0.10435234753306483
105.9617025369794 -185.63757785997822 0.10175371675187705
105.9232703581001 -185.52988956380068 0.09836175223284846
106.03656379674422 -185.45669305534201 0.12255304846687781
106.22821266822166 -184.4256618575381 0.14449648978408708
106.27548120042735 -184.40999825429063 0.15154531865102594
106.3460189521041 -184.26937401495624 0.15572214916376959
106.64224072298757 -183.08782031893907 0.10710889424646955
106.69638980035853 -182.8683919267028 0.19814468104136745
106.82480493085495 -182.1806326082714 0.16426690089722076
107.04398901471592 -181.36400068889836 0.12332449872324233
107.06030682722339 -181.29180837840454 0.11926866799591426
107.07171743852508 -181.1832310157967 0.11210823761179728
105.94507931651235 -185.09178304876542 0.1099845643146698
105.96184777364881 -185.01468430185113 0.11300849901152843
106.3745825664688 -183.41340088208648 0.10191871255370177
106.40165796632878 -183.32866533222116 0.19497735213113349
106.56722400108836 -182.7977773331181 0.181751766111845
106.72049062892255 -182.36863414082293 0.16814970059857848
106.6899261549351 -182.2463182169718 0.15770173839013385
106.86322683948691 -181.56995313892017 0.12521549177939006
106.9383273409175 -181.44135792264967 0.12169559574704694
106.99699744281554 -181.2839844598406 0.11441560961307151
106.94550039587143 -181.18678552244305 0.10430741274477118
107.07623636886855 -181.02750097689884 0.10147585075558202
105.91721767673722 -185.12336258446499 0.1409495425332229
105.89421995656534 -184.98665523694686 0.10015185842939858
105.93011096351832 -184.9377317206671 0.10650249171971496
106.22521726145571 -183.703667683191 0.10225862283779072
106.35597985376857 -183.36156234238481 0.19156715004828914
106.31588759828789 -183.21362116381758 0.17933232906587607
106.47386631191343 -182.77072816848928 0.1710035359365263
106.511809364845 -182.55700671248073 0.16169167330482678
106.56096561395367 -182.35290580053658 0.1532948897571926
106.66214706996229 -181.88113223520588 0.13106923629736547
106.78976192713017 -181.51642354675144 0.11625985771074554
106.30174512660565 -182.95708183490189 0.16404152181394327
106.36347377872929 -182.87120271019492 0.16580853666651754
106.35615627393392 -182.78855089438633 0.1602272024415208
106.47877111088197 -182.52497244815382 0.1565415985712538
106.43568741855002 -182.50106952835628 0.15106197210911881
106.51360535325234 -182.269018724673 0.14387753016111313
106.70458527845054 -181.5021207562273 0.10890294294592232
105.63931906001632 -185.0697671055155 0.13470948177590197
105.6942127358025 -184.86998746163565 0.14453849690780185
106.18348621548759 -183.2144253518164 0.16444824891825427
106.22833205032666 -183.0974366597173 0.1636717951534543
106.32171126140463 -182.61532273963533 0.146750678883259
106.38588988586058 -182.46510164116071 0.14419428438110032
106.37197037476277 -182.34839211668807 0.13561245686087775
105.55640425895324 -185.01186397872766 0.12249197633239622
105.64300507886976 -184.8624204058795 0.13673046494739685
105.70529127179086 -184.64552985645335 0.14551429742255959
106.12414360509311 -183.07451531540258 0.15063793686438576
106.18928367103113 -182.89771583778028 0.14870779380692264
106.20860529205233 -182.66346895357964 0.13788633544678705
106.2513999164486 -182.63149516032013 0.14056712562549153
106.18122688469482 -182.5418371892659 0.1283116116580417
106.29758629143794 -182.3374999958381 0.12797334447993294
105.52325549003943 -184.9771690118632 0.11769566972871173
105.51119859852083 -184.91230187105432 0.11629773950976263
105.54839896022037 -184.79392054978769 0.12242933226516042
105.55594746134237 -184.74207928602627 0.12355626016170604
105.58713212588084 -184.63364470184584 0.1278380116922665
105.60695814652306 -184.53525405256175 0.12994915807337626
106.1063992515713 -182.78535877336333 0.13380109008036187
106.11584269296596 -182.71382943435893 0.13098517755498415
106.25486816024886 -182.21881238484687 0.11653319750127267
105.42716600923978 -185.04135320860695 0.19155130139186355
105.45843879111477 -184.88322639398123 0.10840271407600105
105.42163695104338 -184.69211774751213 0.10313545702413038
105.49981607717898 -184.57737461905145 0.11440890600472226
105.5525720941262 -184.49313092678543 0.1214891067045909
106.09328210644422 -182.40859044003824 0.11150148715669111
106.64442001775026 -179.98023489345346 0.2014591497055129
105.39222075422018 -184.7304254350969 0.09874196276473773
105.40217582033635 -184.66127596844856 0.15243151487985093
105.42448974196502 -184.6055162738817 0.10332433667862057
105.5086790528738 -184.29602088335906 0.11231276229296822
106.57902114016832 -179.9600713597557 0.19653360034364917
105.18854822018196 -184.87768382316432 0.16589672190767107
105.22546312440952 -184.87790423083982 0.1703274275496036
105.28134926796176 -184.70555599981614 0.17947248867045443
105.31221864521427 -184.68605099891093 0.18333500107998207
106.29442456414313 -180.59622275490713 0.2004624193934319
106.30976773098455 -180.45551005242157 0.19652246440328608
106.377710899816 -180.2473593964035 0.19400511787430497
106.52416359657175 -179.90315313228558 0.19112424700308206
106.3020213995408 -180.33269495967807 0.1919230176679693
106.3097643830231 -180.18880696738202 0.18740029118856014
106.4539701553809 -179.78855605525388 0.18269238910980226
104.84494462781936 -185.45192530410463 0.10952501023751723
105.8866672176835 -181.35022565453949 0.19402962471170138
106.13615763752017 -180.69355983174293 0.1925843285506809
106.25394082454764 -180.0677904044804 0.17975193241683157
106.23526004003887 -179.85486167737696 0.17118603831122703
104.59472090059536 -185.5966213828874 0.1899084269004666
104.61833006693325 -185.4729849762737 0.19642539871216638
104.62312852860228 -185.45041175464854 0.1976355356590019
105.51166132948677 -182.01758056455571 0.1792748729341136
105.90756139715143 -180.62809227598314 0.17359034838640314
105.98435337862547 -180.20285386430123 0.16543358683279508
104.51195768952164 -185.76083633463668 0.1764827771699382
104.58285133452311 -185.46016530374234 0.19378796232396434
104.82046705824388 -184.28431698534968 0.12919729462684393
104.8595627743137 -184.2401948649066 0.13398355481235344
105.47259584583931 -181.89047972399695 0.17271792261678218
105.99597322350112 -180.05307451737696 0.16155893278181904
106.00455169949777 -180.0143214317908 0.16064157788287087
105.9939077162395 -179.91683539316 0.15688629681737784
104.31785687456536 -185.8944012913636 0.15432557648530565
104.79389632249851 -183.9083807663196 0.12726018987361443
105.2081096489863 -182.44272264543255 0.1585517414300449
105.32886488747975 -181.93686769172052 0.16038753214859655
105.68036240381628 -180.49953231775106 0.15219558774743486
105.85620565410134 -180.02494763146814 0.15041318854439803
105.9086099415297 -179.92260734780308 0.15106213718750677
105.91304631984661 -179.8724640895493 0.14948783092901555
104.22174392868591 -185.91499933006824 0.14516588094199429
104.74578954436475 -183.86790244584773 0.12177669385045717
104.75309501839274 -183.82979029013444 0.12259354838038666
105.0817568409405 -182.49663994177754 0.14664232626915155
105.09771732465947 -182.47016483454414 0.1476936909108417
105.1530024824695 -182.16523286949217 0.1481181367383361
105.21118345809346 -181.96237429446072 0.15002922498804813
105.35416492505267 -181.50718642355577 0.152858650114973
105.36175898523638 -181.3880717475653 0.15060061432025013
105.51155725388938 -180.913628687476 0.15091479381188275
105.527802023379 -180.77958174029675 0.148451274525057
105.6560900246345 -180.51663435365944 0.15094342137555536
105.67636087981504 -180.18077675451448 0.14205887893512187
105.73804752813075 -179.99970974833104 0.14095267381884705
105.76519995647656 -179.95739245786214 0.1416123713069718
105.04657711495861 -182.522058661061 0.14340676178750394
105.11462078075226 -182.09130429413912 0.14319847909611877
105.1744946269002 -181.95106878617324 0.14619857563098834
105.30829961481233 -181.3667771501854 0.1454848209211203
105.35920846517081 -181.06814856025966 0.14238360700146555
105.4313789055955 -180.7751555801228 0.1403105273776924
105.4936003936757 -180.64414169705682 0.1419033065203674
105.483981737916 -180.53361729338872 0.13770235414907642
105.61159243339091 -180.2639999587331 0.13981388876075707
105.60032689643843 -180.10410487454638 0.13390901296024535
105.68808623951077 -179.8093498576675 0.13144034651321324
103.94648816077232 -186.02247326352997 0.11689434684411307
103.95194555255199 -185.98060466149772 0.11907272598678895
104.83504063789061 -182.6398843690153 0.12279702110914581
105.04190794524942 -181.8123566457471 0.1306544464164215
105.15415774917348 -181.61378486593637 0.13721176151031056
105.2404674787237 -181.11351059335786 0.13318812469849492
105.29319163362388 -181.02500717416828 0.13537228559281989
105.29524996519729 -180.93458045481478 0.1332940547645017
105.32089289089825 -180.8443156767515 0.1331758218083802
105.35422281084209 -180.74756224457897 0.13319992771541214
105.48489940082437 -180.3252244108295 0.13177218834594334
105.5962670626659 -179.86860977931457 0.12624861254395897
105.5991951961996 -179.75802685845974 0.12322522166895691
103.23591798913084 -188.44505627737956 0.12318936436890687
103.25437479121894 -188.35640069825814 0.1280754714232951
103.90358905155587 -186.00620178870344 0.11383836774115721
103.91683381385869 -185.96969288381604 0.1164892807761474
104.06225995707514 -185.41202562264675 0.15018983488026338
104.01626751651865 -185.3226352497543 0.14925269116304832
104.82749960943957 -182.3448368418012 0.1182987264907367
104.9160748550799 -181.92068053466892 0.12049015870001145
104.93407921234272 -181.9164092889674 0.12237668763940462
105.10849588020655 -181.1759509177308 0.12287933736406814
105.40612746248796 -180.22405670463593 0.12264664236968559
103.82140328514906 -186.0507893728943 0.10486282203163586
103.89911420432387 -185.5195035927489 0.13219922371558376
103.94888393958846 -185.44345488300118 0.13922773038357425
103.99296956730846 -185.3615200513256 0.14590433537272632
104.83753814163165 -181.97783224491343 0.11368322116604959
105.3189417043016 -180.08401196492048 0.11133164878855137
101.8938700055211 -192.71480431197685 0.17468450715157555
103.0034726643075 -188.70506408345318 0.100310775821292
103.69498919359606 -185.81540665713115 0.10337172918792426
104.6784199227363 -182.33346937499914 0.10261741023126103
104.8112430939289 -181.67776558682235 0.10579427589572155
104.81013390017793 -181.53248379608632 0.10312886304600277
103.65950176491445 -185.83938951356618 0.09934464958864991
103.61609661741618 -185.75235636481497 0.09894195879998868
103.91914755826735 -184.57263740207853 0.16322471906527536
103.98690991818214 -184.47423443807898 0.17153735494599018
104.93877080482545 -180.93857745100087 0.10217648285649872
104.94681598938556 -180.88167771268513 0.1015512924794236
103.23355262772964 -186.77201327393576 0.19065132775482632
103.83709406238673 -184.55145204126998 0.15674639718289846
103.88401075253327 -184.39931959676585 0.16461123525129162
103.93884636155151 -184.0641887053213 0.17691488461502536
103.21415644445928 -186.7767439901746 0.1895044550221979
103.21943317307866 -186.67280408588974 0.19375685855698627
103.68255979881815 -184.86271506505253 0.13480202384305842
103.98479156592839 -183.43681874135757 0.19240386231569775
104.01272755331372 -183.34674098663157 0.19609270215963373
101.6148732234538 -192.4927106659844 0.17571739066547123
102.65233496766459 -188.41717688454528 0.09596915905023384
103.46348804294969 -185.20614700363853 0.10509722771065799
103.49987619819025 -185.09488517651803 0.1118655870037821
103.61717045871865 -184.57338080807395 0.1372879907219929
103.69914017321275 -184.1516696324125 0.15473423526549496
103.77271955947721 -184.06375848284176 0.16290532879116967
103.7926837782279 -183.96321372192173 0.16674605769491788
103.88484951659115 -183.49863684823072 0.18317014644982318
103.97994866550644 -183.4167276569562 0.19229948075845027
102.98014272849332 -186.6213906125868 0.18334786641233594
103.05479320118513 -186.44944410512346 0.19371723050632178
103.37996431358505 -185.14388245614057 0.09988463890258428
103.39415746699301 -185.1217577836722 0.10182930119541167
103.4194362466288 -184.96794334429748 0.10886349833528933
103.58919418519422 -184.20465288165354 0.1441596031773898
103.68322121322512 -184.05580709529838 0.15552464886668116
103.7290732415416 -183.9485890018777 0.16168794744681084
103.75085307664092 -183.8731987817489 0.16509146102280403
103.78878037497769 -183.7206434010345 0.17125475173000307
103.8207126033602 -183.66594772632422 0.17493035875156104
102.86246525508497 -186.8109222152661 0.17002649939873754
103.38222352309447 -184.9387071684845 0.10653602387913882
103.49116297381613 -184.26502668411402 0.13435861493808532
103.61215823231005 -183.83279524887402 0.1542557734956827
102.41900593091239 -188.12267992564475 0.09680174540232525
102.39216576210275 -188.03547966606575 0.09899788024923156
102.79160314280965 -186.62373120237515 0.17354276586932035
103.42903062624816 -184.22920640178327 0.1299411043672187
103.4476197396107 -184.20044998110401 0.13220537530814655
103.47879736438645 -184.07488052845233 0.13777902406856127
103.51488894634325 -184.019812899252 0.14209122018728007
102.31696209534083 -187.99852801905524 0.09677678792970248
103.20065794879619 -184.50702253851028 0.10326793037629678
103.35598515750873 -183.99652317705937 0.1291576710776082
103.39320239086707 -183.99294330134978 0.13237417416894975
100.5169764533383 -194.60065054821425 0.0987453134613561
102.27489987199324 -187.89179509552514 0.09886755448169235
102.32316855218836 -187.83857401157985 0.10338988065295832
103.37969259098382 -183.41780301471474 0.14285264966674016
102.16686490971861 -187.7183783811174 0.10008714275720443
102.20359766961172 -187.61573301126592 0.10591102854988815
103.36510615084387 -183.42981677733755 0.14139764365213306
103.47543550702666 -182.78178953739132 0.16073077312933085
102.13409718435169 -187.64053394206763 0.1014809986327819
102.17269416614516 -187.47124039535598 0.10976275142876091
102.24638364379044 -187.13768680448243 0.12580758393982114
101.99308036006133 -187.5759840888351 0.09665027459476491
102.12490326315141 -187.11700546842098 0.12029094056342071
102.53236368105986 -185.67672523979346 0.1953722625692777
102.99432979025663 -183.96354844406096 0.09921691832968194
103.09954731508581 -183.52295624757136 0.11753219994791092
103.13411556255024 -183.26789394223485 0.12518076038611078
101.9631549267296 -187.48752691216492 0.09836075199083047
101.95828866152723 -187.37329807930783 0.1022841632934901
102.03306319285382 -187.28514422009482 0.10937400923867982
103.10539365188372 -183.20194063633687 0.12398393179527423
101.9138024209855 -187.3536846976034 0.10062375944444188
102.9680110958372 -183.28003241042688 0.11116713642124232
103.09512646747548 -182.67522552877546 0.13152362174804555
103.33334943613553 -181.42921046484193 0.16730604698652532
100.56367229902257 -191.77917174668397 0.1760205015794265
102.79169029246275 -182.51350634154156 0.10924781932650873
103.42569913373569 -180.1608697788583 0.18941109833045647
102.7652898423243 -182.5460078445989 0.10663334814281217
102.76400005397478 -182.42466514318764 0.10831794640750037
103.3539329357762 -180.186627881576 0.18394266280755278
103.36995337395614 -180.13170957048615 0.1857254741234791
100.29969611893117 -191.37500572211604 0.18202885741199978
102.97392897533814 -181.2827267351972 0.1400764695194104
102.99399293828972 -181.02235231608424 0.145262734910201
102.91748624242327 -180.999081611452 0.1395195483318237
102.91407394293005 -180.9148218498907 0.14057237080245036
102.91001278696362 -180.81178587044965 0.14137706361300845
103.09823718908036 -180.07905921085205 0.1650397739349469
102.78806942098421 -181.00769226473432 0.12883966012911913
99.82510803511903 -192.1446910036289 0.15272568765368133
102.64547807807278 -181.24327267719644 0.11357339909881478
102.633808728492 -181.17160292377508 0.11348108533729043
102.72405615290391 -180.99838551777705 0.12388270572522073
102.89905235874087 -180.23670400687243 0.1477443501968212
103.06198467671145 -179.79779268305225 0.1651021474628692
102.64240695470748 -180.9580193290678 0.11751420744464702
102.78389760333748 -180.33798223912947 0.1374291919423518
102.49022432514785 -181.01812136908734 0.10432685588128451
102.48466943846111 -180.93382646853718 0.10506104941279101
102.85712197138027 -179.75922844185058 0.15003872475109942
98.9514381248183 -193.74378860443477 0.09379815946905934
99.44023750030624 -192.10040642500758 0.14685669227909218
102.42055044922749 -180.62486346497522 0.10430696850271179
98.81635541687751 -193.3101755363101 0.10301273988345686
98.77961550390708 -193.1798373923063 0.10589005237164911
98.69514032088668 -193.170464897089 0.10457984755375402
99.86391623166408 -182.29353243202925 0.17493752764870465
99.89995351567876 -182.145847079607 0.18175914658995745
99.85694091082135 -182.15998410132735 0.17904321461310432
99.68215031855257 -182.48234612451296 0.15924332732291407
99.60064728295032 -182.0833742388678 0.16846411158537097
99.41592654425256 -182.58179663732528 0.142174065520794
99.74199618297554 -181.438456692734 0.19708742510416907
99.45605980150576 -182.05598004637616 0.16191429983808694
99.05954414001238 -182.4207732944775 0.129276204594841
99.01758802832993 -181.90782627476446 0.14436333339264434
99.20443868171847 -181.3701715508887 0.17178926286789517
99.09316019867404 -181.50200128669476 0.1617627648173686
99.11059210703813 -181.36219922333183 0.1672875110291239
98.85756751792664 -181.98847130267188 0.13343371306931032
98.83507052069076 -181.64725256177533 0.14364987933967885
98.56053852375858 -182.09201318186797 0.11466330975211739
98.79145354422928 -181.24646474001324 0.15471457218107332
98.79651995263931 -180.7353152541076 0.17185623279588877
86.2410015200336 -160.83163960832113 0.21405204265507244
85.74401630857615 -160.7903054196692 0.18724082390362623
85.55219324200979 -159.86679789197947 0.21080549375353014
112.85855145216175 -179.92374300302671 0.2281841654756056
112.8894025850659 -179.8073753065891 0.22552014955380756
113.03636606866192 -179.22120304940435 0.21182697353826224
112.54958394426455 -180.70611144174615 0.24892698283830333
112.59382431911224 -180.62406810072034 0.24628820183388647
112.61198031511638 -180.53402979729563 0.24459868089256603
112.65166164744397 -180.4917808749864 0.24271556210400003
112.65995587114423 -180.35719539890042 0.24077840371096507
112.66575955434215 -180.25788806388672 0.23929218167191676
112.75054556958511 -180.04715562193863 0.23352744122571445
112.82780280075 -179.63183376280966 0.22502614710057947
112.88256948577751 -179.52152001525292 0.22146367384565474
112.98249849570178 -179.35518083742306 0.21571815978170028
111.69737285439197 -183.63275956633709 0.29143222841800526
111.80605005879384 -183.1947278450726 0.28938684266476944
111.872512126991 -182.99684139420359 0.28708633322229693
111.92768923635336 -182.79580246903288 0.2852690204708864
111.94971102845967 -182.63012846716427 0.2845961570725317
111.96252514224585 -182.57664755710294 0.2840641661496907
111.97836283198349 -182.4976108489899 0.2834549642075188
112.02826548063186 -182.32027542198463 0.28106853338499316
112.11938109648338 -181.94995511138794 0.27601150731466034
112.15595314381545 -181.8124270563602 0.2737908644855651
112.18764376597977 -181.6890103244682 0.27172313899476075
112.20910813754725 -181.59985326636766 0.270302139187507
112.2372472807534 -181.50248619362907 0.26843145300108484
112.2634692384079 -181.41962118825523 0.26674210272890336
112.38427651552384 -181.1360738394775 0.25951608825536826
112.45708679641659 -181.00135199438867 0.25546823594357826
112.43959340713906 -180.9377649368187 0.2554920022843312
112.43938906649433 -180.8552888368831 0.2546230078555667
112.63386537373617 -180.25610364727305 0.24047619484204624
112.68419043997253 -179.96580253435658 0.2346711649767944
112.73188457483832 -179.86982102446106 0.2317524186572804
112.74621866641188 -179.7720771331059 0.22975727219056563
112.91275556039821 -179.05341340655337 0.21283861957483316
111.42490486228016 -184.2668848985144 0.2974764589094696
111.4802043145495 -184.0876789027915 0.29740906205567275
111.51857208781239 -184.0081661467376 0.2964838314146047
111.5329836202168 -183.8857052726184 0.29742332060249116
111.61797332903646 -183.69834872271485 0.2950238908145484
111.61819036856656 -183.63522877750424 0.29570250754668453
111.61741714602317 -183.50517687302928 0.29698889635508524
111.75577360478017 -183.2815433819386 0.29140876297300505
111.71273582071522 -183.2337858865363 0.29395963085888205
111.7640370811 -183.1258064879768 0.2919059430897665
111.82926494158554 -182.9855590822596 0.28939124118671133
111.82153299781298 -182.80797628754954 0.2904827842381815
111.89081637978519 -182.7054985202054 0.2873628447848367
111.9361189027519 -182.61823764502796 0.2853552649002783
111.94980320305024 -182.5528132331965 0.28474686150590844
111.9812920209322 -182.43892053129358 0.2832990176568811
111.99226935865687 -182.34896958094978 0.28270771090111846
111.97370196793628 -182.25770943241344 0.2834642165285519
112.01492911743128 -182.12654961870973 0.2812612928422315
112.04264736274584 -182.0663368527857 0.279858427180995
112.06872100079362 -181.9770023238345 0.2783109633822264
112.10931566377677 -181.88048226035792 0.2760817485055372
112.157624200177 -181.75716262463135 0.27343119889169964
112.1700648948057 -181.6637837271907 0.272282574333001
112.20093998163463 -181.57930242306998 0.2704382288937837
112.25140791527284 -181.37237668244055 0.26686622593889286
112.27421703652979 -181.30539121005086 0.2654306793251843
112.8346023431271 -179.04024346209178 0.21493699379004122
112.81530464080203 -178.96821243284677 0.21413783836943961
112.92375444794102 -178.64833593913647 0.20511237841485389
111.42529622754918 -184.180103737744 0.2990147731419772
111.4880018328267 -183.96095120120793 0.29890720456727204
111.50624885115661 -183.8515892648721 0.2993618214749755
111.51474923392661 -183.80744959203278 0.2994505390914439
111.57370798151541 -183.5839681319614 0.29862388877020996
111.58576611613216 -183.50589898617295 0.2986985424569343
111.65635603287366 -183.23201887592768 0.2969151728409292
111.74625981467642 -182.8919895636421 0.29400352189316425
111.7468249949679 -182.84075791152327 0.2941730829557512
112.02352746048525 -181.9041507428366 0.27992380195322875
112.80752402496302 -178.65528258334078 0.2084237758271088
109.59757612891612 -190.45400049156405 0.25462383197473804
109.60927050116206 -190.095134383107 0.2741077609189237
110.63117996161881 -186.184383653048 0.2751277446433116
110.6433226330894 -186.1616321159056 0.2757509448587927
110.67363216245161 -186.0865597628579 0.27826014731623877
110.69215516563541 -185.85924650354912 0.2894607933908608
109.52580759619231 -190.18135313571332 0.2677874556155569
109.57683842950523 -190.10347070917302 0.2730234429653643
109.60350064769338 -189.86259971838982 0.28634835728006536
110.45107303211122 -186.47098308117967 0.2676217613914121
110.46634035774791 -186.43099381413626 0.26943122523218244
110.52163231123927 -186.26887788969748 0.27665503023677834
110.53529324156507 -186.21373489606933 0.27924182900224676
110.58239793737202 -186.10590950870298 0.2827944551736371
110.59068220494198 -186.03917551965063 0.2860996040912335
110.62137443451303 -185.9119194259022 0.2911422565613776
110.62571789481783 -185.8106700804684 0.29608889875694827
110.69162918325807 -185.68719322298085 0.2979531462523314
110.7129191663755 -185.67264294709784 0.297281705784358
110.90853379173215 -184.6311631721684 0.20801043672588368
110.98394866221801 -184.40467584328522 0.2030440068907129
111.00854265692396 -184.27928688185062 0.20132918944890776
112.44496497157029 -178.74326258618808 0.21961763423336647
109.52812903628846 -189.8457191208289 0.28579064394554243
109.50621756181395 -189.66713233367966 0.2949835829131376
109.91393692079706 -188.07360279560217 0.2695705541282116
109.95049120540155 -187.98125179098417 0.275968937445473
109.97776829334026 -187.95444631168112 0.2775799958208464
110.00100242144862 -187.76894379952245 0.29071223673046165
110.28019313316395 -186.8292599506028 0.2521198290160109
110.26429729026181 -186.7191915575671 0.26113614813786684
110.28943834255921 -186.65668296798256 0.26414550101701806
110.35007781821251 -186.55920511771512 0.26738258857993197
110.37223791169727 -186.50364771404872 0.2700149542596936
110.40396012552418 -186.37796790206053 0.27671881270354504
110.42147991247836 -186.2919857133717 0.28127776636375657
110.5365125760161 -185.97858263863844 0.2928522153177741
110.5566089849514 -185.94775636270168 0.2932955549051663
110.54387979660456 -185.7801265492802 0.24041041853015904
110.75557111296646 -184.904048651259 0.21821194482440892
110.8221621265899 -184.82694333862133 0.2132944525369222
110.85048916957841 -184.74068319166474 0.2119862371862481
110.86739661305172 -184.64255924620508 0.21168137879631233
110.86340674916734 -184.5533187659434 0.21296464505844281
110.92044099641528 -184.44793422340547 0.2085471761802437
110.95921572588968 -184.36387544207798 0.20546794391810339
110.97086025860042 -184.2529910440237 0.20473501720800463
110.96583901104628 -184.16903125125535 0.2052048241103422
109.16245813243447 -190.6743608429301 0.23332430965319467
109.21382956005124 -190.62659342938807 0.23710575987627525
109.21908410309841 -190.54540920934926 0.24167594499421213
109.45312298220617 -189.6776492834182 0.29335111705245065
109.82773481122322 -188.09828776222108 0.2687522177046901
109.89489525441999 -188.0183738366709 0.2739361543845248
109.92930535006028 -187.86979647573662 0.28443376811773197
109.95266920095001 -187.81779862482668 0.2879305853688169
109.96842096736167 -187.72473933451974 0.2943922409022411
110.01634105661026 -187.31514048142265 0.22611567026479093
110.03885485845967 -187.22613465394676 0.23279800230050424
110.08719147882998 -187.1116325894525 0.24014148509359654
110.13250083675189 -187.0376416548351 0.24389527721595938
110.13537750982452 -186.9564574521439 0.2503135525081679
110.17948266999312 -186.8383995688999 0.25707947499135625
110.23381964801267 -186.7554138843127 0.2602383154010943
110.26508451808013 -186.67422204184953 0.2643054178848241
110.26980075445627 -186.58736652785362 0.27012410443250034
110.27420449272911 -186.31652043546558 0.20021311831812286
110.30558149569949 -186.27509244158156 0.2003507623682358
110.3557343329946 -186.1468408360914 0.2046684724440997
110.33628567957132 -186.05798158766194 0.21237076799280585
110.39851534574768 -185.99164927838638 0.21056017776080116
110.40065834866445 -185.84404180243789 0.2189219886069163
110.4740282218804 -185.79544223548191 0.21435197869367179
110.4651072200651 -185.68642235507392 0.2207195880584013
110.48075827689696 -185.56398518214354 0.22474905807844797
110.50000928305762 -185.48243717079623 0.2262112643018097
110.5341459570342 -185.38806822911155 0.2264368573502052
110.570050485748 -185.28711123765112 0.22635722070822678
110.57423041158191 -185.21973834763406 0.22802893992751533
110.60159453158053 -185.09759077346303 0.228686638678175
110.61980941966524 -185.0342469019077 0.22844609004098804
110.75976659171275 -184.64114559832365 0.22167583734497018
110.80610420562762 -184.53217083826482 0.21838757761668443
110.97239573858505 -183.67322692074674 0.20116515991078326
112.19232029743488 -178.9263715827259 0.22966238074704942
109.10545483500039 -190.62425283798063 0.23478699798688252
109.1512611183336 -190.52652797345402 0.2411610520181423
109.3492282649763 -189.63629223575177 0.2934804681069917
109.71670438412778 -188.24424209808586 0.25872057261068726
109.73098378696052 -188.15501011350332 0.26547032969378576
109.74796193960171 -188.1025244198828 0.2693266783671611
109.79091968020839 -187.9851478931595 0.2778058090078688
109.86211352783327 -187.5484000782856 0.21145790322399904
109.87443438035113 -187.50758548548595 0.214827044032603
109.94104712325175 -187.35762645534297 0.22578131860256997
109.98014042049145 -187.32704108377868 0.2267033027032457
109.98644740036202 -187.2504499272996 0.23324060331189486
110.00540783682062 -187.13420169008094 0.24240714925596427
110.04419463920519 -186.9652119958741 0.2545329776473605
110.10916395877138 -186.84890223840182 0.2602001567618094
110.13044621974151 -186.48585850041198 0.19996129804999058
110.14743791526698 -186.41881174597603 0.20393948980466964
110.19413241361131 -186.34645483995214 0.20539384521241796
110.23279698415192 -186.21220188315112 0.21183326748980832
110.25349014042119 -186.14117970782837 0.21483405914877285
110.29628844223828 -186.05094762344632 0.21672994048199923
110.33482278162649 -185.93432869214988 0.22019387700788232
110.35268189459353 -185.88426035138772 0.22136303239706678
110.41902913623565 -185.64104026140978 0.2273818370608756
110.44784866235202 -185.5155198211636 0.23002467027002885
110.46566213338753 -185.4770872462428 0.22980662185898204
110.50782148228782 -185.3652510753937 0.22983607401874073
110.53597762388536 -185.17743851865552 0.23293277976108284
110.55744563905283 -185.0393410718112 0.23430423612991308
110.54870261428066 -185.00027126869486 0.23598111495921487
110.67183374423061 -184.57116005526098 0.2303749285506543
110.72238979139675 -184.54136540603156 0.22596212444217584
110.83830373478598 -183.7862366352661 0.213545821936755
110.89265053920515 -183.61136607701775 0.20682628910669826
110.90153497090176 -183.5439642031369 0.20513945931356342
112.036510801555 -179.24006246222783 0.240196464621465
112.16998908833915 -178.90725094945455 0.22969271572026595
112.18314790210057 -178.78443044020995 0.22667662839256034
108.90328546756996 -190.94747949945616 0.2123652911151666
108.94447471498806 -190.75958184217106 0.2236929656256783
109.03855738289151 -190.6289549253963 0.23297286983310841
109.03162928264695 -190.52382423287523 0.23862639889930082
109.18837896368166 -189.69063884548066 0.2872985712418725
109.42040258590026 -188.81145462785403 0.21477891139255068
109.72903555049622 -187.66019368303307 0.20592182456943947
109.80304094888201 -187.55793781080496 0.2130215675546328
109.85851004928553 -187.46304771149244 0.2197326988250426
109.84178014722657 -187.3713317740389 0.22901358076050926
110.10719503545937 -186.4772039766003 0.2027937879693131
110.13161220638702 -186.39611396838933 0.20726575317515966
110.19011124864028 -186.17608436788424 0.21845675731653474
110.82182165976135 -183.45972810147293 0.2100104748579432
110.83189082477216 -183.40439227412293 0.20817690470342268
112.0425253854319 -178.9022379435837 0.23245884748081164
112.06655711202778 -178.7564859768929 0.2285944285869007
112.09879303420279 -178.5943229322152 0.22405917299765532
112.10183919693627 -178.47729243509812 0.22120149515271847
108.8542658536101 -190.89294613350904 0.21425018041609986
108.85901698341371 -190.72486163691605 0.22350010949079657
109.08532780485218 -189.83981101238393 0.2770562338810672
109.09943389013291 -189.72993223423097 0.28329502745131246
