ply
format ascii 1.0
element vertex 822
property float x
property float y
property float z
end_header
-11.769030155388133 -185.24971883463274 -9.183982540978683
-11.69509806119537 -185.1321042593861 -9.155322219672202
-11.648775351302742 -185.05657558613603 -9.18480132300526
-11.613835916229414 -184.96143657256542 -9.154520188677504
-11.598735413572566 -184.8463171868634 -9.16831080024325
-11.565682208365697 -184.77719870838658 -9.149224112947891
-11.552590527906833 -184.65576793968643 -9.15914647496275
-11.484650507718085 -184.56514911305513 -9.139481609296668
-11.474728333297211 -184.49679130817512 -9.129679658195707
-11.408872280328115 -184.30687270650597 -9.176144014229012
-11.38418389106943 -184.17794614573071 -9.159145823465801
-11.349241238068963 -184.0989445246096 -9.134327220592812
-11.289548789040767 -184.0097239061534 -9.11676179036156
-11.282557660275607 -183.92511153269714 -9.135806560532094
-11.246454839000465 -183.79514699887596 -9.14963034178232
-11.238125586134617 -183.74255435242213 -9.144641317600051
-11.174196563239065 -183.65524491328495 -9.109428546289731
-11.145868338003654 -183.53722324522303 -9.10738855521426
-11.113018655517795 -183.43549704402577 -9.13129839489558
-11.090180664431976 -183.35375614556773 -9.135305387751808
-11.063734131189362 -183.2620872366349 -9.126975046171811
-10.96732104647052 -182.95240394612284 -9.171492294410987
-10.847115139400039 -182.59532722696514 -9.150871211111106
-10.78695094068518 -182.47576882976566 -9.128203641786289
-10.75086105262777 -182.35560729041552 -9.137184746963445
-10.437494844716067 -181.42752775649058 -9.10443478897253
-10.36820933853351 -181.3036467350517 -9.1267058508945
-12.023628707584544 -185.82813323407908 -9.201876163778525
-11.9986470818868 -185.80367826253456 -9.18310437494751
-11.990131614247435 -185.659137042111 -9.177704391656288
-11.919444160130482 -185.56298907935064 -9.164343902760443
-11.906243669353028 -185.4611676007548 -9.179601760199645
-11.891962703181933 -185.38621003420852 -9.17933373898515
-11.797565334329917 -185.08781202795325 -9.170020286933083
-11.712352174058712 -184.9881182099359 -9.187109273978363
-11.704208990845638 -184.889962436408 -9.183504424965147
-11.684040546967534 -184.84177115010164 -9.145472293837825
-11.640252740789828 -184.72594077017985 -9.142796699724354
-11.611700142062007 -184.6386989830478 -9.137661724589647
-11.591599995766847 -184.5359357755719 -9.159850367875915
-11.555502680348761 -184.46768638866604 -9.187778747050427
-11.535990371064452 -184.34967926176756 -9.190665175667144
-11.4817804066472 -184.2983578358136 -9.192487332133211
-11.444137275482046 -184.1457654163313 -9.152824968462848
-11.439855274501385 -184.10590988115894 -9.15237465382677
-11.380113672383729 -183.96852476728054 -9.174288483317525
-11.323633908357381 -183.9019411902848 -9.153672996657377
-11.293917946231996 -183.78335986263772 -9.162588396661436
-11.293699830696948 -183.69920104410338 -9.157914491192033
-11.249873176003103 -183.6260272956977 -9.146100122541993
-11.222959203981201 -183.51871929177108 -9.132985222499011
-11.154517861963175 -183.37858555588153 -9.104810915913403
-11.129052025864722 -183.31071250160423 -9.1488242991265
-11.137183543832817 -183.24332730247878 -9.150478309667275
-11.119252985249943 -183.15465597236349 -9.142145914530563
-11.078574574950752 -183.01672492157527 -9.160279189724053
-11.02965844361361 -182.9757282814022 -9.164684197038616
-10.909093867557193 -182.61293205441763 -9.126157294094217
-10.895237908912879 -182.55814084490123 -9.137114266169776
-10.852255344736548 -182.49838162358878 -9.113428958019508
-10.833749941037963 -182.35359040328456 -9.104970747912903
-10.810994427338821 -182.32563954579868 -9.08606668077263
-10.746442614419339 -182.0184983937418 -9.08820310824002
-10.488914043936381 -181.42508025100358 -9.104164646698923
-10.494280889784319 -181.37334615737717 -9.137517939926711
-12.093631008965364 -185.6929939001328 -9.198057792899888
-12.067221388215742 -185.63790184183134 -9.18428550150323
-12.065123866841974 -185.59099216521628 -9.189489711359316
-11.988667064098921 -185.41519228797375 -9.173396504676855
-12.000591156039567 -185.38119162490287 -9.187800252001576
-11.739512503145425 -184.7950641242946 -9.139461814998986
-11.6548144942239 -184.4110658584367 -9.17430605441189
-11.529571630193622 -184.12831883096942 -9.154020353874909
-11.488530223229112 -184.02151604982964 -9.178646489904313
-11.356848466372172 -183.62213922024355 -9.173870014654755
-11.334410540152781 -183.56588332699772 -9.178193863854728
-11.238663845799259 -183.24958233387312 -9.159212745729013
-11.218483627485613 -183.19044703236372 -9.123413981117224
-11.17753840646893 -183.0858967273978 -9.1279120219774
-11.13285483233019 -183.04063108417483 -9.143801704353896
-10.978666205282863 -182.50863258359232 -9.155441285152424
-10.910493179725844 -182.3268127345086 -9.128589032950961
-10.937142937335693 -182.27570871053888 -9.113624713220661
-10.833444397609792 -182.06210464293014 -9.10794805088264
-10.843258960945166 -181.97861038294158 -9.081417864519125
-10.72881780714139 -181.65215495927865 -9.114477433587473
-10.693117708444833 -181.59023299864236 -9.09615880613274
-10.646859187734917 -181.47100809479116 -9.111201117920748
-10.624642867930902 -181.42103453077215 -9.11387494114182
-10.533413280910016 -181.26433712434934 -9.153514418321706
-12.140664229439558 -185.5859601402117 -9.172824725664611
-12.20365384262419 -185.5363690546392 -9.168466375809563
-12.042903598053496 -185.34982023363918 -9.16684982846227
-11.241996990355712 -183.06164162836916 -9.186260503990864
-11.090725614022139 -182.4907782058963 -9.166878238244358
-11.008673585308097 -182.2819778820927 -9.101760724422167
-10.9604620600381 -182.26196012805255 -9.109705066295616
-10.939002943689012 -182.09661818312145 -9.104191179802402
-10.904511944788954 -182.016126255117 -9.12188347805947
-10.903372274816666 -181.92282785967743 -9.097225476596053
-10.833138912224834 -181.85954495529546 -9.093631261937798
-10.797705183128063 -181.65819857052892 -9.098113813387915
-10.758376873750127 -181.5057480839759 -9.121407343164318
-10.739644732928877 -181.43830998728666 -9.120923270452971
-10.726530688281137 -181.38808084972723 -9.143808900591255
-10.680367555661546 -181.26557957249196 -9.124933047360985
-10.66015226392479 -181.20731536656027 -9.117449342270268
-12.223288709678956 -185.49904788091732 -9.160114140617848
-11.095881968747369 -182.26115084420374 -9.096650565147844
-11.006110821000338 -181.9832353239788 -9.140249409397173
-10.966028910487456 -181.91221142612002 -9.121131452137249
-10.924678764605847 -181.83522004880982 -9.171023964950116
-10.81321685143142 -181.50153523114656 -9.110472368967377
-10.80752405386712 -181.3953339290584 -9.139277705836728
-10.788521016608954 -181.33475221343903 -9.1426410276364
-10.740200412002121 -181.24089547596827 -9.113941761120497
-10.716558358331769 -181.18097782099142 -9.141836578723876
-10.705598706545153 -181.01281127381262 -9.115099677925526
-10.674785328699892 -180.98105625567723 -9.144674142675058
-11.17694436519692 -182.01228660397464 -9.136230433690901
-11.125363020379174 -181.9281560602972 -9.178982843415124
-11.04952261156092 -181.8942468090388 -9.098357493366388
-10.89636318606217 -181.44491153039132 -9.136738868627633
-10.872395459932404 -181.31176588639522 -9.142607798740599
-10.834590021873634 -181.18832564276548 -9.118871418102731
-10.81022445261274 -181.1144249342276 -9.106480858561849
-10.78098047779297 -181.0148075122375 -9.134611192090011
-10.680992137833584 -180.63709852073367 -9.096301312811235
-10.636986282692478 -180.55453929908248 -9.10810312089979
-10.906864387126369 -180.95986557801652 -9.139542803302612
-10.859227675817628 -180.87009488470937 -9.157164717791996
-10.830397393401292 -180.7496607286794 -9.122271188194953
-10.775859998882146 -180.6842316342794 -9.10394529299078
-10.759332528801368 -180.59272454274264 -9.130169383936847
-10.708760301387898 -180.5018644739379 -9.124289659199551
-11.520520093728326 -182.46559671471127 -9.182506354959509
-11.057545565101881 -181.1221016160338 -9.139540871803998
-10.990452222667635 -181.06252700289423 -9.133772632300305
-10.95601523725184 -180.9367540336693 -9.154765008373962
-10.850698396928808 -180.6760244821456 -9.160615319054148
-10.842918398761338 -180.57690709623134 -9.161519364012115
-10.853477072206662 -180.49203420412252 -9.167177776844241
-11.764578739452917 -182.86418015307447 -9.185058219238284
-11.657336613853767 -182.5116517009641 -9.165120118007827
-11.098987534983097 -181.16155420479654 -9.111622764847366
-11.090425169378985 -180.90770821627157 -9.14686202960739
-11.005859811727325 -180.81391991167885 -9.165629679708612
-10.975010549558995 -180.75596266897472 -9.165212709308475
-10.905746858885523 -180.55136367456174 -9.134378556404805
-11.753979393746219 -182.54316150174745 -9.16433687017436
-11.71953790145434 -182.5223697473952 -9.149200550142485
-11.156121766538059 -180.9391946037116 -9.145926078249863
-11.039806524417754 -180.39252143541464 -9.163292436860564
-12.49836715251581 -184.35683586773902 -9.169480534981714
-12.354593437932664 -183.94443280105054 -9.140401411307177
-11.910111288823703 -182.58181722458977 -9.144719662213289
-11.837308278395795 -182.53640166178081 -9.163297228618791
-12.90697171301004 -185.1630475184412 -9.106900414031927
-12.65369368236585 -184.4376948826793 -9.117105938683746
-12.576432617037629 -184.33616447637817 -9.143121865025584
-12.427293572198005 -183.92149666115475 -9.124978347338876
-11.958242620288683 -182.5849320237316 -9.137930335726896
-11.935527484292473 -182.50992832609552 -9.126075912731604
-11.452222429523248 -180.99522101150342 -9.17427955945778
-11.423074915685369 -180.926775642032 -9.16498730290858
-11.37709113777433 -180.85438013438954 -9.163415902402853
-11.289423267784011 -180.6314073082791 -9.122533242972233
-11.181532822101598 -180.48043315327263 -9.160730397670829
-12.764582909338836 -184.46348158163013 -9.10405958770486
-12.668822219749238 -184.41833065601995 -9.10930559609805
-12.665660172031467 -184.3021879913868 -9.103003354457858
-12.649646326031931 -184.14330005974765 -9.114047817073024
-12.177684508493458 -182.87571944466333 -9.095735945446483
-12.106630577180116 -182.6289713465676 -9.116253608831547
-11.508715851481202 -181.0620903949455 -9.167980118123863
-11.476536531747673 -180.95241465583933 -9.157264342708006
-11.309470988999276 -180.2833711794112 -9.116012155087413
-11.264796069219125 -180.1275163329745 -9.101512118343875
-11.105157138623056 -179.9248500003067 -9.123701226376635
-12.80565718090443 -184.43208191691596 -9.099311709203182
-12.710714969983666 -184.1250707629808 -9.102891245534723
-11.653983193788747 -181.1441171305896 -9.140932037145152
-11.62871838001223 -181.0295946972758 -9.113056556668722
-11.365904278334199 -180.2681169923585 -9.105905355893624
-11.348484175163875 -180.22173167288727 -9.099913994906657
-11.278410891010935 -180.12172635062655 -9.120894660035342
-13.101683587024928 -184.8278282525862 -9.103438126059824
-11.876923493426842 -181.29075407095186 -9.080779782088852
-11.813887687653626 -181.15639510585368 -9.083060331863035
-11.741302393371654 -181.09948753244967 -9.090682401160267
-11.700613225401703 -181.02000818493735 -9.1091759423325
-11.536847568477626 -180.45387962102114 -9.083392971713192
-11.499265747066568 -180.3877424810264 -9.082623660286554
-13.534259691212018 -185.74279442477422 -9.196955456553926
-13.121013945431498 -184.815228974513 -9.105835027543721
-13.158884401793921 -184.74897057888242 -9.105353347369274
-13.021234636925989 -184.2623087903678 -9.103934715153024
-11.612688710558134 -180.5132109495769 -9.071890844487992
-11.46446095425297 -179.98826844750448 -9.079363884707508
-13.688239958421066 -185.9855981444653 -9.204376914495912
-13.635880091616077 -185.99215055674603 -9.201131723211669
-13.59380260964066 -185.72731253968757 -9.19006048033626
-13.572625376996088 -185.69606246053542 -9.186934869590095
-13.471237766155504 -185.35937107382443 -9.183014222997537
-13.4434405276745 -185.26245409265283 -9.172713875598163
-13.432254109555958 -185.19035354750434 -9.16870850756029
-13.228213277025457 -184.78556008958037 -9.105625099276091
-13.225781632573463 -184.712489683377 -9.109206065967648
-13.225429362173585 -184.6199591474296 -9.110297460148713
-13.232048724141098 -184.54873802595534 -9.099860315603186
-13.046741529256067 -184.2442868187365 -9.098481711048754
-12.9861461923843 -183.85383708526484 -9.099770102365426
-11.503742440879638 -179.87641012804306 -9.091142130535202
-13.527644445723014 -185.37029574108297 -9.192912888653492
-13.52921912028452 -185.2344403832001 -9.18385029234793
-13.49701395828402 -185.1429709785762 -9.18130477509028
-13.46011570763653 -185.08103365332948 -9.173299528411112
-13.304610226533917 -184.64872949481693 -9.113289015524716
-13.285510578095764 -184.59527358467807 -9.109835017688491
-13.278429180289328 -184.475857865401 -9.105844399144502
-13.238890178609651 -184.40445336905535 -9.102291455284954
-13.235376716896418 -184.28241021655472 -9.10273569695836
-13.186434444325693 -184.2203625046105 -9.102883000250797
-13.17437398708453 -184.0918979020864 -9.104193574144142
-13.13655860652329 -183.99569827386546 -9.097729039851606
-13.090339367340494 -183.9333771546078 -9.102458047950162
-13.025881662842774 -183.81741483839198 -9.100121431967516
-11.97750089712547 -180.91422237089296 -9.102155634393615
-13.647189021587511 -185.22112012647796 -9.188076049702799
-13.591363807377174 -185.1133330100447 -9.186242059928379
-13.579040820062751 -185.00710094139214 -9.190485677152651
-13.53978971723642 -184.93084850325855 -9.183147896545483
-13.539528085117249 -184.84119879286428 -9.168594080598647
-13.343428900135187 -184.4547315794885 -9.11329164567861
-13.330183022895692 -184.35551324788335 -9.105227324187934
-13.298369061964674 -184.26825694396973 -9.10758177032886
-13.266851370557623 -184.16041795435498 -9.097175284624726
-13.20558381715936 -184.06465248340928 -9.101684256927951
-13.19638137579775 -183.99196780921145 -9.103200929871871
-13.160919831401294 -183.92327052967238 -9.108876207898998
-13.133567029252733 -183.77598307533927 -9.105029382170354
-13.125792040253478 -183.71600364839247 -9.105104273569253
-13.080917820052939 -183.56325867433546 -9.10388287644375
-13.064485625350594 -183.5214269711299 -9.099102040691951
-13.030502083646443 -183.37050925009052 -9.09791692112529
-12.95425713365806 -183.29797579932938 -9.096773165074058
-12.971713053739286 -183.24941235811073 -9.095083125476382
-12.177822331120684 -180.9923241825927 -9.077301569530364
-13.680565322403469 -185.1568935618113 -9.177587956386304
-13.711982925877587 -185.0581538684899 -9.165949807586701
-13.644787570228058 -184.98879358512843 -9.187708879461464
-13.625807868578644 -184.89238948904145 -9.184534571541468
-13.58062270188864 -184.81992713778658 -9.167120894205766
-13.446148715336777 -184.48900749425286 -9.122578543713601
-13.457486084483296 -184.41253021044147 -9.123887742340496
-13.41519684538972 -184.33274543403283 -9.112589864845724
-13.435594925070419 -184.24359733715912 -9.112456850740438
-13.350322295909917 -183.98397242153942 -9.098554008197496
-13.346851824859863 -183.9763234518313 -9.103532199532205
-13.262481331599629 -183.84509555183476 -9.105109579800128
-13.214205236351324 -183.76703721078235 -9.102601878662528
-13.179403543770471 -183.6986895932895 -9.108215438363457
-13.11555537456298 -183.56856214814857 -9.099029304244496
-13.12974216185646 -183.4931907110243 -9.098560220052082
-13.075542491917467 -183.38747639989714 -9.103710980074199
-13.040729678940219 -183.3041641572568 -9.1058100184613
-13.046902362048789 -183.16483867826125 -9.102050905677144
-12.917394184757987 -182.76648789332754 -9.133021658922019
-12.883320420573954 -182.70341507881923 -9.116157451202797
-12.847639813586838 -182.61602000165954 -9.10277973730785
-12.806726766759136 -182.51713501773582 -9.104181003190037
-12.777571708749273 -182.44771813217437 -9.11227144536987
-12.7547326410177 -182.34498094071265 -9.109654370482275
-12.684340026960394 -182.11961338706305 -9.083639895612675
-12.656699178363539 -181.99474219229677 -9.085083161756279
-12.588940373057243 -181.80512764949867 -9.115081869638155
-12.12939911502779 -180.77573194063558 -9.079619009935612
-13.810128485634028 -185.11658738947986 -9.193512874579008
-13.792880476028653 -185.0449853173643 -9.192242728743926
-13.727811749373867 -184.95455740540365 -9.181341908888681
-13.722433375109986 -184.8562491933239 -9.181270470680428
-13.693778025236707 -184.77082126759703 -9.183319489753693
-13.67793153286196 -184.6109400729179 -9.167020432641445
-13.661862310443386 -184.5680223124911 -9.164886795541728
-13.508262692029964 -184.3834126767534 -9.122441525156091
-13.520589601419788 -184.29994227572544 -9.11656998492414
-13.50542450032234 -184.20680115543718 -9.113048917169492
-13.460170183426234 -184.1047575413419 -9.103717579165457
-13.453999699012975 -183.99510788127174 -9.100915153362957
-13.381760224814931 -183.91115958509496 -9.103824481434001
-13.357509543025524 -183.8310852874125 -9.10336003873648
-13.343446680537195 -183.7437142207327 -9.100792344655178
-13.313692362460541 -183.61823230516754 -9.103545868166341
-13.28074440031873 -183.5009318574784 -9.09743204164216
-13.243861047363696 -183.44436912698143 -9.098790015008914
-13.20085672030205 -183.3221440329477 -9.102298344819673
-13.164247923310114 -183.26097455411167 -9.103636072544926
-13.122576608728682 -183.17381655670903 -9.104771975304898
-13.11643078953578 -183.08338191234844 -9.100759607305902
-13.008400082819545 -182.76294160728324 -9.125996667322516
-12.97255000719121 -182.66728629552563 -9.129740253712603
-12.922711919388899 -182.59127927110524 -9.134149950634919
-12.888169808848673 -182.4914628413878 -9.135306822867964
-12.866138379850616 -182.40458702102126 -9.134738328891086
-12.810112307411773 -182.31725771302334 -9.141365912376646
-12.803635398053878 -182.22327461266258 -9.153322222992502
-12.7548177725435 -182.11987759975005 -9.122006666599818
-12.729516722746208 -182.02100264047775 -9.114410384227238
-12.690124050802144 -181.92256929549058 -9.11868606949633
-12.64769496324548 -181.85443325932206 -9.12141855648829
-12.612220636549226 -181.62610682426615 -9.086295253095047
-12.591722879234142 -181.57936512662513 -9.096119094378947
-12.325510679079425 -180.78124673095155 -9.078561299130225
-13.864090334058774 -185.02857315639216 -9.197627382386322
-13.765701628991991 -184.80049770558347 -9.182945894510834
-13.75592492789962 -184.74307404247037 -9.189112930271433
-13.750010528274832 -184.63128887807756 -9.181272191730054
-13.709641996097002 -184.5730450044014 -9.170337647975122
-13.568863453078942 -184.28572097359563 -9.11927141075969
-13.534412023189075 -184.1763892568975 -9.116120126988777
-13.499873546798192 -184.07679869151497 -9.1092451873966
-13.477699739780677 -184.00287190950027 -9.099562764896188
-13.405981905776256 -183.7990466055348 -9.107090740601626
-13.367964492868516 -183.6721534747346 -9.099915992970526
-13.338646499233121 -183.61782774440795 -9.103109566438828
-13.29750743588157 -183.5042111506512 -9.093835488975786
-13.276893232506332 -183.433076028986 -9.104805904750124
-13.244843216270489 -183.33367048509308 -9.094232292874514
-13.213378802898538 -183.2372266200533 -9.097941886307542
-13.159187497984622 -183.10842489329843 -9.093453324362327
-13.084327346519153 -182.73352836200957 -9.132418027846676
-13.048079293059102 -182.6577729559 -9.138078729221052
-13.020485802639291 -182.5680542048721 -9.140414383929556
-12.968559359137078 -182.45681598630506 -9.140660530415756
-12.947065796350303 -182.3608365371322 -9.14246372848876
-12.927752781802376 -182.28340553131082 -9.146873793635706
-12.878518747955038 -182.165462275316 -9.15535575634701
-12.875889033290859 -182.1291490239055 -9.152019718927994
-12.832742216311706 -181.96103483690874 -9.127579630445934
-12.774551781965325 -181.89991125360876 -9.134462798883485
-12.722589500054982 -181.81740361650077 -9.135333928460046
-12.689056696474625 -181.5980875838665 -9.128314874619695
-12.643732480357562 -181.5401611999697 -9.135939476187925
-12.651882604981513 -181.37917310635518 -9.122671592551763
-12.605715839641487 -181.31923762179827 -9.110352669056596
-12.565032869874218 -181.21394973582906 -9.10370510295507
-12.538649972506665 -181.14742177350203 -9.116147817861636
-12.526455006676159 -181.04611154888352 -9.112753915142942
-12.497192496570477 -180.9679124227923 -9.128134711765945
-12.36637434560448 -180.5686222957171 -9.092770082379635
-12.315600939121783 -180.45808551923122 -9.102275816492376
-12.30057004647978 -180.41761222045923 -9.114933331320211
-13.963515428361237 -184.9586017751439 -9.196528092073883
-13.948779063275394 -184.78058925216249 -9.191774467466939
-13.829774841386497 -184.6065852124689 -9.180727137788566
-13.808017670268974 -184.51561581390385 -9.175912242436803
-13.171510204683663 -182.70468222363695 -9.135890181967781
-13.145631118072961 -182.6215685218224 -9.139513006266535
-13.110541852359608 -182.5350942288318 -9.142267168167246
-13.059224183689109 -182.45258697979506 -9.148389929907918
-13.059698178338888 -182.33366374647412 -9.141088832931713
-13.01893124483549 -182.24643672879628 -9.144871094545964
-12.970903509655393 -182.15347962739233 -9.150854882098995
-12.880735096447257 -181.7305785087275 -9.134511664165029
-12.832137014527609 -181.68347003793733 -9.13804940003925
-12.770634078898233 -181.59653433766204 -9.136702864895845
-12.760485282940541 -181.5025049680504 -9.140912196780222
-12.683968314562243 -181.41469668248385 -9.129964986601184
-12.654235588163129 -181.33152540529784 -9.128461128692821
-12.613283610430184 -181.22919046861438 -9.12744848191847
-12.586305417843985 -181.11233220572277 -9.102130849929422
-12.567079221535547 -181.02370168142755 -9.106956846383431
-12.521107745463887 -180.90836880391427 -9.128790697145224
-12.505013164547671 -180.8294176091262 -9.119861122266906
-12.469578796162995 -180.72128166980573 -9.120740217576618
-12.452587155978122 -180.6219564120166 -9.131666486551838
-12.411263051486607 -180.53527342246315 -9.144338933555403
-12.393308392767663 -180.41465522189898 -9.095138132905044
-12.375610041260245 -180.34202931219843 -9.101078334765212
-12.339774531242366 -180.26062141694538 -9.098965304763157
-11.996068109631569 -179.2766073751435 -9.063972795273322
-11.993157768628361 -179.21978950714652 -9.074680010452461
-11.929753635599063 -179.11018139743098 -9.071832141471521
-11.876488631540978 -179.0030026722436 -9.068755207007131
-14.052396240498174 -184.80240597736798 -9.191716031438233
-14.01330895136055 -184.76969036772059 -9.188788682322791
-13.93932343313987 -184.54224923208326 -9.17936234905985
-13.916862589417448 -184.469882522502 -9.170567467774454
-13.28065119674972 -182.67890881743457 -9.144599543159096
-13.253802007856173 -182.5905289330388 -9.143644712362512
-13.20668109357022 -182.50443689181384 -9.144841274169709
-13.188651855266283 -182.3764156315336 -9.146771225734136
-13.147882677645525 -182.31156042418513 -9.144654738137946
-13.087275225406367 -182.22182018922257 -9.138122531188824
-13.08034108566014 -182.1042382897579 -9.143763165566043
-13.051015140785227 -182.04424212554065 -9.1502325325087
-13.036638617034923 -181.91734303214136 -9.147819249943666
-12.98381474602918 -181.83734098941767 -9.132034053074905
-12.927865258886595 -181.75105877990106 -9.13468954049364
-12.83233461316754 -181.57634963630042 -9.135457563691796
-12.811886500779774 -181.50296833633365 -9.128123327219374
-12.503402764116798 -180.62807961579355 -9.13098441876511
-12.485080801692291 -180.3746616176124 -9.073081268384541
-12.409942294116927 -180.3181852312657 -9.094124959922356
-12.40663214156564 -180.240500685179 -9.08173836415448
-14.39428693882518 -185.4412443478654 -9.18871570227357
-14.136298105741076 -184.80106180127885 -9.187536538909841
-14.100901468702949 -184.7383726608885 -9.180556396801698
-14.096793233225384 -184.6268684481501 -9.176064818470142
-14.00584650091726 -184.51446640723688 -9.17696629550816
-14.005864101096511 -184.4426658967931 -9.16344901672985
-13.983186796177355 -184.39047272393103 -9.153992158756061
-13.399136871320067 -182.6945070651031 -9.150922934460311
-13.375540361738196 -182.6461402648502 -9.148534833038207
-13.324341269475463 -182.5600942794041 -9.148097551781031
-13.303403567263551 -182.45637149483647 -9.152558408717574
-13.27861295325931 -182.37964965292562 -9.15003644658442
-13.257238566310903 -182.25601098801326 -9.158128005056325
-13.239857031105506 -182.18966098387526 -9.153325900303418
-13.155080762903264 -182.07020281699266 -9.149282297395422
-13.129596649005062 -181.98787178455987 -9.15359697391494
-13.103580538153654 -181.9045459107081 -9.15089499273393
-13.075368981699262 -181.80692070682355 -9.145028605930126
-13.04507960071097 -181.750438935222 -9.137035387941346
-12.5055275051706 -180.29583294003024 -9.077386605019159
-12.483988322346182 -180.1946102769126 -9.083418765560657
-12.481108908308766 -180.10127543824478 -9.088297605801236
-12.42888718852967 -180.02937124835213 -9.096970266061374
-12.402189159975954 -179.92514572749081 -9.107841885318201
-14.461012172387294 -185.50802941944494 -9.19538612036171
-14.444224213115199 -185.4514628139958 -9.191979332918821
-14.418280890176066 -185.3923129151299 -9.179344495055577
-14.239950639140845 -184.8751432034402 -9.17639873001681
-14.221720272942619 -184.79333336909025 -9.173990555840927
-14.172790847003577 -184.68568481174782 -9.172865012682204
-14.166258461797169 -184.61982572877022 -9.170575215567073
-14.105379883641902 -184.48055622704544 -9.161085539429827
-14.075996684197307 -184.40639161893478 -9.154187295486762
-14.07659940643766 -184.35604184619788 -9.14706591943771
-13.50923184924118 -182.6696942830547 -9.144439024957958
-13.468224092336175 -182.61871737199198 -9.14981781741894
-13.428589777870187 -182.52867728065576 -9.151915138357392
-13.397222957859714 -182.4328736594628 -9.148478209029658
-13.37326360899294 -182.358197324884 -9.1531106731287
-13.319320823208686 -182.2282924874826 -9.153647020059354
-13.306051341504782 -182.15756725939124 -9.150933137363172
-13.25799593261025 -182.0367637362006 -9.148570390821995
-13.21309215607112 -181.95245719641622 -9.15503631054491
-13.199172381706205 -181.86608254744985 -9.155992336070776
-13.169199101997528 -181.77491287516307 -9.15145652274328
-13.118927977779622 -181.66836506039473 -9.149430278815593
-13.121467373242243 -181.580154481829 -9.147478818954122
-13.103002786338665 -181.5035316858815 -9.147035737444558
-13.045403697859967 -181.35481089678098 -9.157252131562585
-14.332709267831122 -184.8118865248323 -9.173755215639822
-14.321489189863161 -184.77195363763295 -9.164800705299243
-14.302716990969795 -184.65505789013778 -9.158974688175975
-14.24469927307114 -184.5689250006237 -9.151767538476046
-14.22703075655627 -184.4761427565457 -9.147451855256923
-14.182978840660567 -184.36166679462144 -9.137792116043011
-14.159074000608339 -184.32737325193494 -9.135224039621196
-13.595809841439758 -182.6447223404912 -9.141658268549248
-13.556670249903418 -182.59748447542427 -9.14594169109005
-13.518193330911537 -182.47612082835315 -9.147127130415356
-13.488244576809201 -182.3979389820958 -9.150969427010196
-13.467410340108138 -182.30934223967958 -9.151536337504638
-13.417566582987423 -182.20361073540604 -9.15319866240331
-13.404905025528864 -182.12212267664387 -9.157353547621033
-13.34749466494121 -182.01803024970488 -9.153815102117822
-13.312431204496658 -181.93112247787312 -9.153775069973817
-13.285065200527084 -181.82461058583053 -9.156417240938547
-13.255812331734056 -181.72926403585683 -9.14900110749806
-13.199592885242804 -181.65621200634578 -9.148074433428317
-13.137537792705784 -181.53730058143347 -9.141725875290291
-14.361177363512201 -184.71963707084896 -9.151952682998425
-14.333640822281557 -184.6170996681454 -9.152102323402907
-14.339200538471369 -184.52770916830258 -9.144804510925518
-14.311274156940655 -184.43274180835058 -9.130962779048598
-14.273227340249907 -184.3443518919589 -9.126355021930838
-14.264655704713082 -184.27944046599552 -9.13030827414875
-13.687118615645764 -182.62962047898554 -9.13046789471229
-13.662608730264086 -182.55793318492132 -9.131044721974293
-13.622328389151038 -182.45512876953254 -9.140050523133954
-13.58670664004591 -182.36251355485794 -9.14394670559457
-13.554389981383201 -182.27437086753287 -9.144856367992844
-13.520778377127064 -182.1800955819602 -9.145438371316061
-13.462497969025518 -182.09330310975926 -9.148977906661685
-13.437821881992448 -182.00016731118845 -9.150208113008686
-13.398488007118667 -181.8692373344851 -9.140987928345691
-13.40953602588197 -181.8243656919762 -9.144859471218881
-13.336787043179509 -181.69802027783788 -9.14964017302028
-13.295751767004923 -181.63673109124676 -9.153370330828468
-14.535387830156823 -184.6855975041589 -9.113890505522589
-14.505603995069933 -184.58638073792062 -9.113642001726895
-14.436942149224343 -184.47191960445534 -9.107956283563515
-14.38222428413777 -184.40029205380506 -9.121603468454646
-14.36994755464406 -184.32197804459378 -9.120278786582704
-14.345737754571626 -184.23449340051437 -9.114087993997163
-13.789718504579263 -182.6923379214616 -9.11848833151877
-13.783306719136068 -182.6120360542047 -9.120804648884606
-13.746349255923269 -182.51804568469188 -9.122817110081424
-13.703099580606969 -182.43251697451848 -9.1258676028467
-13.67471387859356 -182.3521961304692 -9.127507835386444
-13.678194088014815 -182.24216703115746 -9.12483002753986
-13.613448153399716 -182.0054177690383 -9.116302981084411
-13.581257711691595 -181.94932296600768 -9.12768423089543
-13.549459509278048 -181.84102941998904 -9.127398280441454
-14.563033429838017 -184.6456193643737 -9.104432845766917
-14.519172670204139 -184.56138487633967 -9.106043531678333
-14.502852669157003 -184.50569634188724 -9.101808530371175
-14.457501634774571 -184.38788231495565 -9.103468857211512
-14.421179679282963 -184.26640949518915 -9.099888760135178
-14.412843156867886 -184.22733745279177 -9.100980191614742
-13.899810033521002 -182.65287878176 -9.108627071422335
-13.875874442210625 -182.58087284826266 -9.108325652107403
-13.847106331217185 -182.48812286740556 -9.111787020386808
-13.807750735804563 -182.3942193548853 -9.114161060666143
-13.771190152441834 -182.32293881622917 -9.114178072591173
-13.74724976054476 -182.20998699287563 -9.11578306637431
-13.723342833361903 -182.11268320490316 -9.1044339915695
-13.670939848815824 -182.00607172169683 -9.110927696512343
-13.63161835396045 -181.93245563316947 -9.11845291065922
-13.599093577780707 -181.84562765774007 -9.113337637694224
-14.530635535249527 -184.260558431419 -9.095827698560129
-13.978493128133314 -182.62125497365014 -9.094901148569829
-13.950101072639171 -182.551773504886 -9.097907302083254
-13.92955402329685 -182.4550415495697 -9.099484699737284
-13.89549046995338 -182.3641575793552 -9.100940535350004
-13.864178210591561 -182.2721231010307 -9.10109654491228
-13.84087569736702 -182.17203612208198 -9.101247226669653
-13.800817386549044 -182.1092083936657 -9.10192090925982
-13.811160154894102 -181.98712711184376 -9.090477642551086
-13.730729213870184 -181.9228103303207 -9.103541701442646
-13.999169576619149 -182.48709239552906 -9.08635088983322
-13.988285911554549 -182.43529611042237 -9.08434056100261
-13.933997740678073 -182.29850650860425 -9.088143590698511
-13.930623455323223 -182.24934870328104 -9.087063357816783
-13.895813509069516 -182.14736880782678 -9.087408253467071
-13.829343250579452 -181.9814403529539 -9.092033215292663
-14.86266775347628 -184.360833126319 -9.097767886415943
-14.793871101388234 -184.28168695016385 -9.096187439776672
-14.936566015442517 -184.32055797075097 -9.101066573214101
-15.03498560835891 -184.36082862624588 -9.102117394801258
-15.004751375185961 -184.30188341222214 -9.099519830571369
-14.796718132590481 -183.63058934758277 -9.093466614379752
-14.784011645459664 -183.52807046728353 -9.091515968368487
-14.729148043684466 -183.47705655384433 -9.093631700829633
-14.7005651372549 -183.37103935843746 -9.092716849512499
-15.329507182512991 -184.80377928550263 -9.13069689268636
-15.289587650752878 -184.73528853354068 -9.122697138146739
-15.233293629346623 -184.64327079670477 -9.109168356369615
-15.207775114157226 -184.56033687372863 -9.107961448397344
-15.189892203426945 -184.49016606511762 -9.101287338614611
-15.130889329868229 -184.34002414166076 -9.103436275040897
-15.144507344405342 -184.28887647548564 -9.103591801058096
-14.911191916780272 -183.69858489243754 -9.095475152576483
-14.88291283691913 -183.59946020616692 -9.094253286946158
-14.852657769668804 -183.53467566987524 -9.093627031432673
-14.832304399569068 -183.4055723095408 -9.098292527408642
-14.797408208034396 -183.3098058678796 -9.09041528728268
-15.449494064305757 -184.8712243732541 -9.132578572475834
-15.373282812169915 -184.7865513109154 -9.128216863418784
-15.365356223208178 -184.71486501737854 -9.114456401673971
-15.309111199315932 -184.66115679802584 -9.106583140066684
-15.303728176335168 -184.4947882903855 -9.107346707407588
-15.264056199304623 -184.42536564095104 -9.111282833324863
-15.203009924481194 -184.34487433203003 -9.109750532981138
-15.0320081101897 -183.7515773380237 -9.096095501199684
-14.994870311228322 -183.67331112574414 -9.096700857804162
-14.951957398788982 -183.57939739129552 -9.095443378202548
-14.932533271956435 -183.49391205323778 -9.096277914942059
-14.89563732025932 -183.388400470031 -9.099620148543984
-14.84789038717596 -183.3265109961713 -9.092815569285925
-14.861694282471891 -183.18517091451244 -9.0929553329413
-14.80994880165111 -183.00741778798132 -9.087201362352044
-15.657933150030274 -185.21511659140083 -9.149919027085083
-15.623795482896716 -185.15213531791264 -9.149471474756188
-15.612142725304457 -185.03808019083897 -9.15330382490774
-15.519965000779395 -184.96288790653315 -9.133989878855049
-15.526718298098086 -184.8404728814185 -9.140872479841375
-15.498125720414818 -184.7710341918317 -9.130924742309004
-15.474729128182602 -184.7084318226229 -9.119551190027801
-15.38531900333284 -184.49181050682125 -9.108629339895577
-15.369456461411584 -184.3678533649293 -9.120151856321705
-15.307052702281736 -184.3260929877298 -9.115100123303543
-15.160965682008674 -183.80221053665517 -9.10729321767556
-15.126412174353629 -183.72652562207296 -9.101907286461218
-15.080784475970267 -183.63219952583339 -9.100035887890154
-15.03841838983001 -183.54395942696684 -9.101165804534915
-15.024835632053778 -183.43764407269464 -9.100272296139131
-14.990142881765008 -183.3720684360447 -9.097656642242578
-14.955030604850066 -183.23226598245503 -9.098839025084471
-14.910969062815209 -183.1853026648185 -9.094328113778126
-14.91274657068171 -183.05337177542648 -9.094608889681544
-14.840340422164084 -182.97604082604025 -9.09155650463254
-14.825965476409383 -182.9223019284689 -9.089659359817468
-14.78397553746554 -182.78175271184523 -9.087307819857593
-14.800545394311996 -182.69153064129227 -9.08778538679457
-14.741026647897293 -182.52542214192275 -9.084298583523548
-15.710025078760456 -185.11087986900745 -9.172770209613532
-15.668630084003016 -185.01496530248278 -9.158269812460816
-15.659611014200376 -184.91575607012828 -9.138347571420638
-15.559653659707214 -184.8173537913046 -9.138957394380999
-15.601214267128954 -184.69643133179977 -9.138736450394283
-15.573172289631431 -184.61918362823502 -9.137574924907117
-15.518428193645756 -184.52352972245816 -9.117393999434425
-15.466441864702732 -184.4532590111335 -9.111315300637306
-15.445705963768617 -184.36833892394063 -9.122109158037171
-15.201986643269391 -183.79749646399998 -9.116605638173194
-15.228402513132096 -183.67427446348253 -9.100004717908254
-15.18162581058925 -183.59914661879247 -9.108696730529086
-15.155349935975524 -183.5587998026535 -9.1028917545648
-15.112572721111064 -183.41118094554062 -9.104032714298368
-15.067412349380946 -183.31942160957985 -9.10055888712916
-15.046943256911376 -183.24296728688856 -9.098858579737165
-14.979335289105064 -183.02296848092612 -9.104387587467649
-14.903891556697035 -182.9300696702912 -9.098048422797326
-14.919121920956986 -182.85184567229825 -9.095387571032944
-14.87792156581112 -182.74935332351524 -9.096149262072512
-14.8568165147519 -182.67273634406374 -9.088291102997129
-14.821132940357444 -182.58465400954785 -9.08797332883126
-14.781860305416666 -182.46888390916007 -9.08905921227716
-14.758518927449698 -182.36585091065155 -9.089103345211933
-14.747987437715853 -182.2843841542251 -9.085411854036808
-14.727721352867004 -182.2135427171042 -9.083454561959348
-14.709658785180379 -182.116929481569 -9.08401655695446
-15.77314621151283 -184.99941646787678 -9.173766947883767
-15.750276981305808 -184.8846925451627 -9.158799625676883
-15.711238603497627 -184.78706149257383 -9.16142979310278
-15.662255927936787 -184.7208722842228 -9.156823798061431
-15.30424040442367 -183.73208651447354 -9.110031052128427
-15.316926404439847 -183.65790411987595 -9.116993038609182
-15.282225961023393 -183.5929837123969 -9.113433625858773
-15.168592242059187 -183.3702827121375 -9.108760866434885
-15.157700252513168 -183.33470912192695 -9.112202591248202
-15.124547125489705 -183.21857925722162 -9.118278994892426
-15.12405914920474 -183.07467735845003 -9.105531742942343
-15.0939409246282 -183.00510330106718 -9.110098237011833
-15.042989117185043 -182.8634249379118 -9.09457376145819
-15.02578789511738 -182.84066449228786 -9.106817737362245
-14.945169788370432 -182.61823767953155 -9.096941217925599
-14.928425794894512 -182.53921527794893 -9.101849650099334
-14.880461698977191 -182.42012812834133 -9.095249866695276
-14.865803205980347 -182.3414781003436 -9.088050758073633
-14.805164345918511 -182.23235388378265 -9.09373589882345
-14.789273992917062 -182.1425788473772 -9.096346925032208
-14.770718402249242 -182.09164484869407 -9.088487050266544
-15.844437010721066 -184.91864726872333 -9.191080754526956
-15.816950855404388 -184.89562891571518 -9.179895784224456
-15.42036507410102 -183.70520390178973 -9.13570953170099
-15.397244444228903 -183.632395162633 -9.12621913802707
-15.40272011582754 -183.57606517842913 -9.116095847935574
-15.188593984191975 -183.09280508694616 -9.124631785988766
-15.158366186002914 -182.98571428014674 -9.120676056034885
-15.113726797883373 -182.82441543582075 -9.126032217248108
-15.038372567472363 -182.5737909805719 -9.09795618813585
-14.992936112192126 -182.50944635599834 -9.104693154379884
-14.924730546622827 -182.3792853719672 -9.097445078754198
-14.929630273063509 -182.31208805678236 -9.092990248069091
-14.921836646169274 -182.2412610890133 -9.091365377942271
-14.878666108276718 -182.11164068491883 -9.098712807391665
-14.848269444264004 -182.02712921360992 -9.094669300431018
-14.846939880143031 -181.94936154380082 -9.102374748823731
-16.40313004550088 -186.0417454370181 -9.165391912204306
-16.091821608035605 -185.17200416693638 -9.160361677836141
-16.045928087650122 -185.10429932964757 -9.147340436677077
-15.503982138879 -183.69324448389665 -9.144934223047722
-15.116762014965035 -182.47346748036426 -9.105751847582331
-15.039426832692007 -182.2408425617409 -9.09308461781228
-15.019439226027055 -182.1987168472796 -9.092577336155186
-14.91457574354838 -181.980774938376 -9.10301756774295
-14.893798152324614 -181.90900072956592 -9.097564097629254
-14.894344555646379 -181.82923978671047 -9.098756826450249
-16.503959556273053 -186.1049959569783 -9.18356292343364
-16.462088138381368 -186.02702440920496 -9.175762490489737
-16.44912604927844 -185.95394863429846 -9.165405556621554
-16.187418286928715 -185.25935454832967 -9.171586029983759
-16.15423145504565 -185.17356219546315 -9.164897211257248
-16.131752009532903 -185.10985403069884 -9.153569422860198
-15.150872981124618 -182.44362160375215 -9.115950214089205
-15.070787216990007 -182.12135836298876 -9.101638509230668
-15.081924641897366 -182.07254960777783 -9.098982323611056
-14.978818130368843 -181.85374343905468 -9.106615660168718
-14.955261882832634 -181.81262334139302 -9.109248359213709
-16.56012536451596 -186.15903667350787 -9.197606472917823
-16.56505203536196 -186.1269676347719 -9.191758292059697
-16.54875185945827 -186.003703813322 -9.181505719810335
-16.347410108628907 -185.37142177540628 -9.169360131772512
-16.33326225762594 -185.3524360662066 -9.17109732705658
-16.24748873656097 -185.10752697104206 -9.171592075484035
-15.113642783424519 -182.02720132468048 -9.105428028666083
-15.040462587975899 -181.78145882752267 -9.110726008031552
-16.718676056851656 -186.1022956658778 -9.196526817413579
-16.679327555707484 -186.05576593141436 -9.185165547386402
-16.46138102329089 -185.44920415840426 -9.185895277439357
-16.460443552313055 -185.37765638317632 -9.171310478826928
-16.4378001148061 -185.2876226096456 -9.16346848557379
-16.345657661775686 -185.0858791993245 -9.177714158130795
-16.355310814602554 -185.0394582651171 -9.158128730124432
-16.833604346946206 -186.15958142118848 -9.1990785224489
-16.821552819412492 -186.13145685033365 -9.193085354023145
-16.56317189750815 -185.4797427147744 -9.201473278097243
-16.54925471436128 -185.3396244860732 -9.175018860849544
-16.487760930898173 -185.2840040004545 -9.168008982095587
-16.427929923576585 -185.08326991676643 -9.171267012317564
-16.43195475993825 -185.00897505057503 -9.156733572021231
-16.97564692843945 -186.21369165280572 -9.201778907979545
-16.917713935898878 -186.1998496263126 -9.195855797691152
-16.860296497348937 -185.86055238583205 -9.173164783990728
-16.807368704575662 -185.77162599806508 -9.183444163518299
-16.749910257803638 -185.57719524793274 -9.149026749360024
-16.742840383382635 -185.54052229741163 -9.147192222824472
-16.639463155892493 -185.3279299537861 -9.184434119841656
-16.59127534245276 -185.22175439468953 -9.163325016620888
-16.538765970356668 -185.14231855695488 -9.16592275110479
-16.518448047666023 -185.02681105701072 -9.169773910705644
-16.47560761624781 -184.93753112840213 -9.153898950903821
-16.452192695794963 -184.88354032491227 -9.147324666076951
-17.12711164414596 -186.31132422254694 -9.195260503182867
-17.087342808050842 -186.20066645257393 -9.110143347778497
-17.067190596438593 -186.12163728824711 -9.159008751215593
-16.996908681311027 -186.02285157723583 -9.180764542759741
-16.942548787870464 -185.97936918471527 -9.161824828058721
-16.879199567018546 -185.85078241733856 -9.18317028546095
-16.88021787337649 -185.7505458514123 -9.189709154230894
-16.845714252364896 -185.66602399912716 -9.165257145493326
-16.82796448855012 -185.54581117567648 -9.1569392439003
-16.8038394327643 -185.48524808643324 -9.14595839143187
-16.740692952940538 -185.36074734704886 -9.178730531205677
-16.694132751237206 -185.32057742718254 -9.173295888976266
-16.636811550349215 -185.1078258082258 -9.174422886016897
-16.57151990645547 -184.97254309756198 -9.169802489343395
-17.305995795186693 -186.56405217382652 -9.124092576851197
-17.251742009672384 -186.49516126331727 -9.120561144971399
-17.243544918600385 -186.3310820118276 -9.121409293756304
-17.18094863269405 -186.28908803791973 -9.161453784019017
-17.153458656404922 -186.2189707564783 -9.154406184672874
-17.081716334301888 -186.11643886201892 -9.158909876578395
-16.94718898273122 -185.75677048315595 -9.179311709911774
-16.9323121323652 -185.5135108961997 -9.161038791883602
-16.88389060253985 -185.4377418140503 -9.14755290018552
-16.824434544143955 -185.3588070804424 -9.153476381957276
-16.74477771258717 -185.1811531185286 -9.16981494000359
-15.486814138801735 -181.39859539520666 -9.13799877443644
-17.482065658543863 -186.72113524598925 -9.135538238300843
-17.361372036946342 -186.63325811733213 -9.136372799697732
-17.32266186464151 -186.33710956912813 -9.142873291869325
-17.27140770532567 -186.278380606619 -9.131230695329558
-17.196339152953993 -185.9547013390482 -9.114539701935296
-17.13869118822485 -185.91219040114126 -9.111833913057378
-17.153798786290263 -185.7898772300047 -9.168272590830124
-17.115475312904216 -185.64744521437558 -9.161239131187878
-17.065077926559226 -185.60598549765825 -9.158603544841117
-17.002496926370895 -185.5399351707358 -9.168325503147992
-16.164244453597842 -183.12835432247067 -9.100585081719421
-16.162678714410916 -183.0913750174773 -9.116124539721069
-15.871903003261954 -182.16639441425042 -9.089222794856413
-15.860578430436897 -182.07398736991155 -9.09454805402516
-15.546761362510079 -181.33430267586084 -9.136440026386744
-15.539174503740302 -181.25203885760757 -9.142865588162405
-15.52010007388306 -181.14063595394714 -9.151595344113412
-17.418477548438226 -186.48034601461418 -9.117148600003107
-17.416999476215885 -186.4758963917936 -9.133948634765726
-17.39482481872723 -186.31605661208943 -9.126289452242359
-17.332596690603577 -185.9897310735226 -9.16625842777705
-17.273995268572943 -185.9610433822536 -9.151615949328066
-17.24203740567036 -185.82617217725462 -9.175919958534633
-17.20632221469546 -185.76000844131363 -9.172972592430819
-17.122797107413103 -185.44181159878235 -9.133158970947163
-17.08932432072526 -185.38573304611612 -9.135072060985276
-16.757843822650464 -184.3904311558561 -9.110663708887348
-16.733667066445424 -184.32724452404062 -9.106004313619321
-16.706069714424935 -184.248019117487 -9.110499403144338
-16.63548762057204 -184.15205976126845 -9.10168231236547
-16.629471033362208 -184.0466849402688 -9.098789433090204
-16.621153236006563 -183.99359714110005 -9.101359004452997
-16.24409876942409 -183.06048526916575 -9.117462289010723
-15.940161479731591 -182.13995200897747 -9.108185547695992
-15.90490222075546 -182.06878946453097 -9.109255407548064
-15.908338802773478 -181.980326098763 -9.095220037678825
-15.869510585673616 -181.86371031896883 -9.090270847611997
-15.84851890627795 -181.77756509774267 -9.102256925093767
-15.84313641429407 -181.7206125463437 -9.09968630623606
-15.717672725253866 -181.3706673707958 -9.110478958090567
-15.646246371284136 -181.29535345203925 -9.119962900121836
-15.602091902367489 -181.22336463785243 -9.129471034485839
-15.579726880655262 -181.1202678779245 -9.130369316611564
-15.566294233400349 -181.08438798508467 -9.151658962271995
-17.52921619812919 -186.34724547547873 -9.13735481758077
-17.517278133380035 -186.31255283031982 -9.127301020659328
-17.463761780614217 -186.19571680384394 -9.11136348809967
-17.37163732274888 -185.96994334536242 -9.185607284824416
-17.351930667843746 -185.89296507206387 -9.187904387207913
-17.367518498143223 -185.81259046105035 -9.173720344145327
-17.299519586274734 -185.74864667467583 -9.164600990587765
-17.25621386177952 -185.62157451037018 -9.132054041213982
-17.212625246652134 -185.55960277350096 -9.14308709327494
-17.207144934734828 -185.4005075161747 -9.130349251279124
-17.154542835007938 -185.34680885387456 -9.129982824392123
-16.823555586551574 -184.37737533886465 -9.122232520504252
-16.79733596518104 -184.34046484433637 -9.108236050142764
-16.72617934525606 -184.10938409257963 -9.104186782414573
-16.700219242245616 -184.01985079495483 -9.1069467526716
-16.70263974226298 -183.9245892533947 -9.104491149328725
-16.380294950894974 -182.96098275134523 -9.087669382092034
-16.060856536952336 -182.1175012917185 -9.121430899794545
-16.02744568759645 -182.0294051772683 -9.12312435447164
-15.954820926298229 -181.94359382342594 -9.103460779004056
-15.943469348355688 -181.86483819947995 -9.095695406143264
-15.917198469863123 -181.7462693671145 -9.110195766200704
-15.911478078669251 -181.6738495382765 -9.093005685112745
-15.825437827650598 -181.53576411182712 -9.091941926183564
-15.806401777590768 -181.50284688983317 -9.09490596546604
-15.742664925700184 -181.28090208613344 -9.122100193495154
-15.726341806418851 -181.21368755141788 -9.11860246393637
-15.682859480143058 -181.08828986650593 -9.122032855501738
-15.668673213735874 -181.01242781062217 -9.12461281245622
-17.669776857068985 -186.42883099511553 -9.138590901201784
-17.608391972554664 -186.3650638995011 -9.126436806463227
-17.44018813306539 -185.85696560954136 -9.175187831361137
-17.401537255379466 -185.80147117974383 -9.166206744972007
-17.255602180393307 -185.40502704530132 -9.134515152301622
