ply
format ascii 1.0
element vertex 839
property float x
property float y
property float z
end_header
-46.78319462072871 -77.58604859357189 -6.328578214470324
-46.60036492336614 -78.79033798941312 -6.402063392577416
-46.98429843555307 -77.31166933361999 -6.331400722672647
-47.04238864177455 -77.35802698066836 -6.321105686329281
-46.90229025032605 -81.40569449867479 -6.586390696401895
-46.933529724419344 -81.35699051308714 -6.58702663544411
-46.93755948063046 -81.1343703689853 -6.5523943706592185
-46.97764073258246 -81.07751867945402 -6.541951097551619
-47.01164630916088 -80.9417147154959 -6.517384910348152
-47.0548041146821 -80.88233647875886 -6.517054332458536
-46.753762172415975 -82.3192057600281 -6.68216611481642
-46.7598691854619 -82.2370126956806 -6.6465562409798045
-46.79233853384542 -82.1401120827688 -6.643061973275655
-46.79854544246698 -82.02193875874215 -6.653021920891194
-46.83809838315775 -81.9507531591706 -6.652382576539238
-46.876576347532186 -81.88154091809452 -6.651531897905599
-46.95220842936504 -81.44668964266589 -6.5929179853564746
-46.96616520192714 -81.36952163635847 -6.57636126666245
-47.00488672081129 -81.27320947932915 -6.568705273769981
-47.03730176222989 -81.17208365241743 -6.5683831098130225
-47.06105841308638 -81.07845599281599 -6.551845167223238
-47.09302306557034 -81.00313707350266 -6.535904569099129
-47.12751317711178 -80.9319363613882 -6.518897755491832
-47.704987153981165 -78.89300936659687 -6.384866439311644
-48.32731073912632 -76.64923723950278 -6.247279073896606
-48.33998685574097 -76.55744121749996 -6.249482952957701
-46.87808679423379 -82.05471867466822 -6.620631055318871
-46.96084004323221 -81.76631583446103 -6.62043187412108
-47.12935433740855 -81.06869760903562 -6.554799889495291
-47.14101750682776 -81.03076465242602 -6.543969566391066
-47.358539963690134 -80.28984080241254 -6.48662078806137
-47.36344512307455 -80.26677859266232 -6.478123606093551
-47.80653681127193 -78.88214236857112 -6.416331413468203
-47.80840505030588 -78.85729776263737 -6.3941019965844985
-47.91859399865881 -78.53338314559774 -6.367435051553065
-47.9370218253938 -78.43629445383532 -6.358541410478725
-48.00233388566087 -78.21634376276629 -6.388887029654034
-47.993693711591824 -78.12808602562748 -6.364355645112786
-48.0720902596822 -78.0038923628013 -6.355143993958688
-48.07689642502187 -77.9898913010392 -6.37978741210974
-48.14958228075555 -77.72790851425269 -6.31576568010925
-48.40471842252438 -76.6776949765648 -6.258591591014352
-48.45468553734561 -76.6110119431849 -6.27065964322615
-48.47099401476831 -76.42370880022541 -6.231745999806479
-48.55219312697992 -76.2301460564312 -6.218383717405411
-48.78084215728915 -75.44724258225001 -6.188843836200009
-47.4579936965487 -80.60387002183616 -6.575878291527849
-47.41280637725411 -80.47951508747866 -6.482064747513154
-47.61747159083268 -79.85680126287832 -6.522949830917546
-47.65704909409696 -79.80611050477751 -6.512125034990643
-47.933334268731464 -78.66683067539141 -6.4324853970392954
-47.93563488646812 -78.54486683876598 -6.378602477917964
-48.05343775083708 -78.24227836789042 -6.3888358396561715
-48.07935110859128 -78.1417758182401 -6.391842853354899
-48.108623925655344 -78.03491624480193 -6.38115385461224
-48.124374222497735 -77.98974440135709 -6.3627627548391406
-48.184496310848715 -77.85718356873444 -6.348374934578963
-48.200432546726326 -77.77953274683853 -6.3296904674472
-48.25681319751367 -77.72964747427064 -6.330518831923064
-48.487382337631246 -76.70323305723278 -6.283555914693007
-48.49934494875421 -76.63135091527373 -6.285877772687509
-48.5435843918777 -76.5443008304841 -6.244428234328809
-48.58845686766024 -76.45167286794508 -6.250514184007732
-48.69630064667068 -76.14610179673998 -6.24191628724741
-48.70862243306242 -75.93766044025047 -6.209640063940721
-48.7266506829145 -75.851354265049 -6.19815951578496
-48.74706042444697 -75.72775985707952 -6.196350324527525
-48.75722454718791 -75.6300875094354 -6.199494228676851
-48.768856690485336 -75.55723907580096 -6.195308858693621
-48.94439039763396 -75.15614781175792 -6.17761557339115
-48.95731924295526 -75.08318798336458 -6.182837342194817
-47.47223918287169 -80.61004225339963 -6.58380989882892
-48.22477180779427 -77.86487862426517 -6.333437866208039
-48.25239887635573 -77.7737716176744 -6.325301722827408
-48.260915109280575 -77.73107024907883 -6.325576184130159
-48.41994839511693 -77.38145083478565 -6.381488589663394
-48.42780278160561 -77.30607355825451 -6.368291713872108
-48.466727767520275 -77.22948069560474 -6.36911885613781
-48.49029781796443 -77.13502962857038 -6.366801809873755
-48.59963067242742 -76.73787230838889 -6.331233539060421
-48.62642266625114 -76.65576884624662 -6.28993056713808
-48.62828120298588 -76.55679250245805 -6.277610745384371
-48.736394591524146 -76.26142714231031 -6.254893632542839
-48.74990586772871 -76.17225280291325 -6.283671087151903
-48.81532229506208 -76.05573454146648 -6.276731350293599
-48.834382701842344 -75.97354532878546 -6.275382239923105
-48.84519509190821 -75.8674323121798 -6.266790568707274
-48.87949463379838 -75.76806980049467 -6.2717800250381
-48.90664000156966 -75.67402717714798 -6.26212606532424
-48.96450988753432 -75.55166420415482 -6.269067235772834
-48.97852178605606 -75.470203440511 -6.263429055220747
-48.98844012658821 -75.4299020000101 -6.2527093525337145
-49.01856140263089 -75.31035323309436 -6.241255019285442
-49.040067330943785 -75.22015112664529 -6.205969242962492
-49.023633037191225 -75.11574464999539 -6.19994041987014
-48.49789988240853 -77.44202357976992 -6.36121837376346
-48.53890485170765 -77.34140406054274 -6.354399735230591
-48.530258933438056 -77.22004423220724 -6.361708954226855
-48.599274822993806 -77.07224604087068 -6.363137325872614
-48.69920172856306 -76.74238740347211 -6.343700905918815
-48.697726046951125 -76.67500033265102 -6.315366560101355
-48.70449182377925 -76.59496964239865 -6.317903814242488
-48.82763350045032 -76.3646803929023 -6.3205645220819155
-48.796366904933556 -76.26283691210854 -6.304814372605916
-48.805550259566104 -76.17355274037794 -6.282015841691104
-48.83040386709807 -76.06778702215003 -6.280488434917393
-48.96284611458232 -75.60645825199708 -6.269521657819475
-48.97625928321617 -75.54513674744891 -6.260859138576521
-48.605274876157864 -77.4452593791479 -6.371137226655299
-48.62144074383214 -77.37964001994649 -6.3578184287144
-48.65126614386338 -77.26111595620377 -6.360099967308246
-48.675025619206785 -77.19896701731268 -6.357830635641592
-48.72620285854704 -77.13032585284682 -6.3665023495667326
-48.819202918906775 -76.61562021464742 -6.334527052036892
-48.83082170682356 -76.48518096719637 -6.321752216390992
-48.65812567614155 -77.48372593456165 -6.380351111343346
-48.69444197286832 -77.37376355206887 -6.374970655801963
-48.76132448183281 -77.21402396444905 -6.363905141720982
-48.995296292460246 -77.64204507609753 -6.391257973744001
-49.02767941889361 -77.57251225416108 -6.389102024311192
-49.07722658503476 -77.3985449357208 -6.377069787573086
-49.15187614219325 -76.97557054074534 -6.3506224967410985
-48.5439685196496 -79.68467568525766 -6.515035580124026
-48.53231150033512 -79.66798781381891 -6.516216148483573
-48.57363098019534 -79.54244988310504 -6.506518316823652
-48.59769885856559 -79.4336847192872 -6.498922449633635
-49.04569173965048 -77.76951830287899 -6.383508667280108
-49.075472092117174 -77.69058906473727 -6.379761848962444
-49.05098066855052 -77.60168970141359 -6.386213335793812
-49.08562186617261 -77.49929986897475 -6.378127870979549
-49.08194611840417 -77.39931138207939 -6.376166852779215
-48.44981051489805 -80.38287422305118 -6.542481817020337
-48.45760870402926 -80.34808283540289 -6.547843197512588
-48.44546364839721 -80.10595216834314 -6.542433991477021
-48.533633858261744 -80.01280653353449 -6.529820989467269
-48.53606681308637 -79.90593769993916 -6.52835982238704
-48.57020576000215 -79.84780204251214 -6.521329987813632
-48.59975504513189 -79.75127198944084 -6.5185956216726835
-48.616592983031694 -79.6432710880439 -6.508042504054171
-48.631973972211206 -79.55349706198531 -6.503654304932025
-48.67733929303909 -79.45192140569493 -6.465521602523087
-49.15423519162688 -77.78502913098042 -6.372521995076529
-49.16970348055738 -77.72239015545317 -6.378015265360722
-49.15208395773637 -77.61613330990258 -6.384119733168929
-49.179839717998746 -77.54041476383163 -6.376430984445809
-49.25789146789422 -77.44220487210778 -6.366623914122237
-48.432716094216936 -80.81245327629361 -6.546335524806861
-48.45280913236246 -80.76421809859227 -6.543297465240074
-48.4685173642854 -80.64170782140765 -6.550038776392508
-48.49448011509693 -80.54327880711503 -6.541381012406511
-48.50450063460675 -80.43464713528536 -6.5239172640742495
-48.52201689980443 -80.354729183244 -6.512066404769663
-48.53995668469969 -80.24962159458386 -6.530297393981096
-48.58108030467852 -80.14751616235299 -6.526941200597184
-48.617421986387825 -80.05448908495443 -6.502647536950551
-48.63311535457612 -79.95842590640981 -6.495099687783484
-48.654292801754806 -79.85125333568047 -6.496232281001058
-48.668939948553735 -79.78380872222009 -6.492602404679558
-48.69846684135551 -79.6789599207965 -6.49578152969734
-48.725735382038216 -79.57397203992349 -6.4707746024023445
-48.755604669623835 -79.4858148113995 -6.442999088861433
-49.22455651937105 -77.81100809645773 -6.366166644928281
-49.243111184405734 -77.77178924305728 -6.3786402591982
-49.238708039699276 -77.64509246915266 -6.376633013890615
-49.32533182214451 -77.55632391340853 -6.352468796750667
-49.344534455815555 -77.50377662064632 -6.345089183206888
-49.315382128036816 -77.35606785459564 -6.351772251921953
-49.38853497875337 -77.28520233058892 -6.346644283278095
-48.40454090526566 -81.03927480364145 -6.572246288594931
-48.41584250667077 -80.9126037147914 -6.559856474121737
-48.44867530201599 -80.79819657133376 -6.539955523032989
-48.47508302219657 -80.76693873909763 -6.52193180948822
-48.48046270699199 -80.68678319877937 -6.548222863805445
-48.589979593002376 -80.54042022035777 -6.5247113883980035
-48.605621824250434 -80.4795037006714 -6.5184602293731535
-48.624726869432486 -80.38417224603384 -6.517182757824928
-48.643256654777495 -80.2856132221139 -6.512118290385058
-48.62948836557345 -80.19282297089698 -6.5020907522884945
-48.694144480980256 -80.07821462607306 -6.479995948216166
-48.6991802713247 -79.98550310505397 -6.4746645617883996
-48.736643368834166 -79.87288417304485 -6.486171487451554
-48.775152703994195 -79.82725610380099 -6.488389227972798
-48.81347020174236 -79.6627634336624 -6.4707946945554085
-48.850025285265346 -79.61613696765406 -6.447542928855489
-48.84418361523892 -79.50027020936638 -6.4372073635978895
-48.872291008204606 -79.42065854517087 -6.409687548250171
-49.29974527376443 -77.73868363230568 -6.371516132767141
-49.326979093204734 -77.6630451716122 -6.373677296007919
-49.336517245009084 -77.6007153431068 -6.358068995833882
-49.456745257219346 -77.29517667495551 -6.332298020226809
-49.52465384907624 -77.23841400095448 -6.326165395299153
-48.593450140695275 -80.95922862896121 -6.5431364111692245
-48.579087828191255 -80.87067159505224 -6.513739409083983
-48.56482949353515 -80.8092212840648 -6.502563923472818
-48.67770410375682 -80.6623650657229 -6.501033570917425
-48.688514649031674 -80.61943373365217 -6.475684540940974
-48.63872894512079 -80.50241946777341 -6.494288849135655
-48.67403858108297 -80.37507470499614 -6.5148798969509905
-48.85604488535106 -80.00468806464055 -6.48251744083801
-48.86345141310318 -79.90331812012083 -6.459410175397447
-48.86914953088543 -79.83081975781677 -6.455808771156828
-48.883466249543474 -79.6869923606068 -6.4507955207610435
-48.89251247199653 -79.63761623835936 -6.436310526098144
-48.90748780781178 -79.51928698951275 -6.4234046590292655
-48.989085885491725 -79.4363631953191 -6.407918701768617
-49.59048457251642 -77.29315743404308 -6.285558364444651
-49.586543140009304 -77.23046937990088 -6.313672659902376
-49.65328281046678 -77.10427525901397 -6.292333698908856
-49.64285644386465 -77.03858553586306 -6.29519453970877
-49.6635394744961 -76.92297449498402 -6.306981559516848
-49.6923108909633 -76.8489826186873 -6.29271005209885
-49.74681421793312 -76.76370049162502 -6.259389280577523
-48.6380706536788 -81.06958541283296 -6.55767423349561
-48.641000063627914 -81.00788866373809 -6.5462622637530785
-48.6794469302623 -80.89972151186322 -6.52692758493553
-48.68069109350772 -80.78769534881908 -6.498553876438154
-48.690780776579835 -80.68870434326226 -6.490042602295915
-48.90985513269318 -80.0509128321146 -6.459605821838421
-48.93369663043745 -79.96185370702443 -6.448528405139147
-48.907838127915646 -79.88614144085403 -6.444824760183508
-49.52112840273829 -77.82143692124959 -6.30341460284062
-49.565248706203555 -77.75130636497346 -6.303371271385038
-49.61594834961641 -77.6814997836367 -6.311622879275367
-49.65837532030552 -77.3563840443422 -6.28729399269877
-49.68553868820208 -77.27378507402636 -6.297015598804407
-49.837612064371974 -76.62866236525346 -6.229078701039186
-48.630620703288955 -81.49381031300348 -6.559241187633598
-48.62990058549051 -81.43655774290505 -6.531534062039256
-48.72316644945712 -81.02660528067243 -6.550613464653649
-49.129104390103954 -79.6927901950529 -6.41731792155704
-49.27704979945796 -79.27981655663106 -6.388747242052098
-49.28208137408756 -79.20767947416886 -6.389309586361679
-49.315935593579255 -79.1273475994292 -6.39104210740928
-49.33767842983138 -79.01705600832838 -6.376303703990057
-49.371642567702885 -78.9179826904282 -6.376730626600603
-49.40814238778254 -78.8032203605368 -6.381004265203608
-49.408690477603606 -78.72831785368311 -6.359333255539983
-49.41977961717262 -78.67203577580136 -6.355037031432771
-49.48920968069293 -78.50418217374195 -6.339327013396889
-49.498186351800506 -78.44527425170058 -6.34415419160296
-49.537986059266736 -78.32850493775496 -6.355566751316701
-49.558978746483845 -78.25835021170886 -6.343685547407914
-49.65383806746984 -77.8524386783319 -6.330070420338282
-49.648243590157875 -77.78366794740975 -6.310829006998067
-49.657868348416194 -77.6525785571851 -6.313002952742311
-49.68948056358609 -77.57666537912344 -6.307820393116394
-49.75035204768616 -77.50333722966458 -6.31494575543266
-49.763996185344055 -77.3453003890641 -6.295766849984008
-49.77572619636405 -77.28350927313461 -6.2978639986607226
-49.8106141910531 -77.186465335499 -6.3068683171358515
-49.86093041653134 -77.12486244041887 -6.3198054730949345
-48.62518137798017 -81.81908769794501 -6.597029879714061
-48.63292087275636 -81.7274781731238 -6.582032252796085
-48.68633373776606 -81.62522257797183 -6.538725569784082
-49.30812108347286 -79.31308599904835 -6.3927434632174105
-49.36540324470313 -79.2057928635183 -6.4050241252337425
-49.345344956301076 -79.14851746141015 -6.396334697101059
-49.41413519655632 -78.92885049055727 -6.38102541744274
-49.45124310170645 -78.87181079992293 -6.38403491784031
-49.45872546404024 -78.71275091039264 -6.355835988741114
-49.55149072965651 -78.45764833533944 -6.354418923322583
-49.59144095716932 -78.37133234309076 -6.34765854623924
-49.60854366272737 -78.28204739335133 -6.355124923144441
-49.70711127117253 -77.87419300935098 -6.325282113451624
-49.73474285152399 -77.7938332417614 -6.330445742851675
-49.76303640832011 -77.6552991429803 -6.3288735711445385
-49.77849395256464 -77.61548150991794 -6.331277044539358
-49.80130063917204 -77.4645336359641 -6.324318195966064
-49.85357092744009 -77.39934862836658 -6.31492578365674
-49.86566131009773 -77.32321574191421 -6.310517331947633
-48.76265818600218 -81.76810995875013 -6.565881271250742
-49.11476897931791 -80.58939143802785 -6.492815014163471
-49.115429544678214 -80.56549595723693 -6.483428633841311
-49.41860841581963 -79.3197552013022 -6.400042852084015
-49.445677125238426 -79.26537684647528 -6.417021348497159
-49.487257014727405 -79.15676288310128 -6.393607762146695
-49.53877891865575 -78.951225608652 -6.36833638556184
-49.56119916381686 -78.8784988135442 -6.378968488832485
-49.58013157994798 -78.77963571111492 -6.375026329456541
-49.628114028519775 -78.67196376651081 -6.373727604754557
-49.65984107284998 -78.60720574344232 -6.352931995009071
-49.65768625600293 -78.47138534156355 -6.3834699467970495
-49.67077655996098 -78.39577890971184 -6.348158327637629
-49.703750510103774 -78.29819419663355 -6.363173661736022
-49.74727416766735 -78.20947023775135 -6.368889247495905
-49.78678437972694 -77.86469624460679 -6.332154034608856
-48.83138506405781 -81.94871899437523 -6.605413389908941
-48.82804103416809 -81.88552691107124 -6.597350726665449
-48.85592420459952 -81.78628014715727 -6.585039069543304
-48.882054024829394 -81.68903751725425 -6.579095807397646
-48.935268092852084 -81.5677001773572 -6.582822635682343
-48.95875387764353 -81.30736783827678 -6.525533861896956
-49.51756257763331 -79.34620386853145 -6.422121262365585
-49.54524860516766 -79.28736248161188 -6.415021457808538
-49.5531055870519 -79.21320738464001 -6.407752127298798
-49.59205211992576 -78.97071475474213 -6.378532079507424
-49.619736652934954 -78.88394871826483 -6.388291715484171
-49.64078956246037 -78.83426113777644 -6.404440038416157
-49.70165909858706 -78.6754060019083 -6.378215635053853
-49.70338967915751 -78.61886971780339 -6.353989622798251
-49.75049067673951 -78.51256642805515 -6.3820560175395284
-49.75403342951454 -78.41428997692374 -6.378888867639542
-49.79576060046926 -78.30934452152479 -6.377866408648685
-49.80154018536928 -78.23014288904118 -6.387602430716641
-48.911338798242745 -81.89881430141794 -6.616787444949245
-48.956220588257196 -81.77958593769937 -6.625162172023535
-48.965193132033356 -81.70871838297076 -6.615688156115059
-49.219848383146264 -80.81431917156105 -6.550198086220797
-49.58766784052841 -79.5869621554766 -6.470233841241429
-49.57696040573271 -79.5403238290497 -6.458350837538767
-49.57840156165231 -79.36284667778644 -6.413772224025313
-49.60697886376259 -79.31984344460372 -6.418731820890066
-49.71374591465123 -79.01927939176272 -6.422299187984405
-49.809401529453666 -78.80972112756243 -6.400149242564049
-49.825288316431624 -78.77314692526232 -6.404360956291972
-49.79835849859665 -78.58467332185967 -6.359289875135822
-49.85666971246112 -78.53555889226341 -6.389706899984137
-49.89545847716975 -78.4523813301034 -6.395315415877482
-49.89652138753203 -78.34028339063258 -6.387753517523304
-50.01078261023243 -77.88950787490477 -6.373324611058698
-49.25741510862171 -80.92631675881343 -6.56868501620703
-49.329127200685555 -80.87921927221873 -6.549004907640608
-49.31157546260848 -80.81059835380374 -6.5345630092274485
-49.41230933288352 -80.66732987705511 -6.55251701781257
-49.621623611781565 -79.60924598339658 -6.488992985596879
-49.69145382944801 -79.54289294918112 -6.4700950222226705
-49.76739694662796 -79.39852202150976 -6.485246214836108
-49.74246582988196 -79.37115452337815 -6.47054910365042
-49.7848368252254 -79.10645840570221 -6.445905447428844
-49.78498703371881 -79.07628885118213 -6.432915900268483
-49.86164572944365 -78.84025178180146 -6.412714269343061
-49.87521180676001 -78.79437897533121 -6.417850547345062
-49.937144080113185 -78.57844902711693 -6.413678935944291
-49.95989015121226 -78.4771186249242 -6.414206577312353
-49.95153118603435 -78.38014254618122 -6.410810471272566
-50.15679159000112 -77.77441399246159 -6.340728692527172
-50.20407989564613 -77.73085963792515 -6.342968340066957
-49.36689999191569 -80.95274771494175 -6.5775129157660706
-49.395223364160714 -80.94665312943044 -6.582354324506096
-49.4554079896895 -80.83176266975285 -6.5536351191994076
-49.43145233602932 -80.6783353563782 -6.551452916296686
-49.59676905051889 -80.32285710892253 -6.535176676870483
-49.74833389420217 -79.72607755905858 -6.497562412384019
-49.71658624904617 -79.69133406050389 -6.4963278350179685
-49.78395933621695 -79.5629057418913 -6.487850164015878
-49.79800488349395 -79.46197151566214 -6.48327268781644
-49.85704278262229 -79.35604150693472 -6.4808055755342036
-49.868951027405885 -79.29364522519302 -6.471195289472074
-49.85010793492692 -79.11890492962698 -6.466824443869521
-49.944918235677754 -79.1063093530038 -6.4657776552683
-49.94383194509046 -78.85021045301855 -6.433580427099169
-50.01281140338676 -78.77409690213966 -6.44220336497247
-50.00127578314448 -78.70524996396324 -6.417818172161725
-50.03978790418529 -78.55788473604909 -6.4275797833586275
-50.057800165345995 -78.4827603942406 -6.424762706546314
-50.06783438376182 -78.43711805166804 -6.426767085233741
-50.2620865466591 -77.79281107602816 -6.370433629392114
-50.286797830912576 -77.70949280869165 -6.360909816202883
-50.32499193314498 -77.68665577628053 -6.359018323508099
-49.48775860268469 -80.93461531916441 -6.573128080823622
-49.487956486297236 -80.86868716547525 -6.567013222992938
-49.82726884380611 -79.87841891199574 -6.509790319289229
-49.80064401264025 -79.76833659313075 -6.495044481104973
-49.8662275357033 -79.58711402129786 -6.492455099600292
-49.85901779104414 -79.49751281673943 -6.4795099281345525
-49.9957734574686 -79.32316780907787 -6.479826880034326
-50.077011707871094 -78.98032420806429 -6.454959081956879
-50.048408131043495 -78.89021280500863 -6.445387612675119
-50.11454852505548 -78.7062563779034 -6.434432038173167
-50.11665434153108 -78.55829794500731 -6.422814932207921
-50.3624824783899 -77.67558438852316 -6.3669367002304975
-49.60865180755582 -80.73649169093517 -6.559320316485286
-49.87997945640383 -80.02825007849836 -6.517364430580095
-49.89259444532499 -79.87871586487898 -6.509573482867651
-49.91599732825817 -79.83984912180091 -6.507492729425908
-49.921236972414555 -79.63639887843803 -6.495170881251388
-50.049300607139784 -79.3790593270589 -6.47286663770284
-50.04908324117147 -79.35534304951426 -6.473534248740833
-49.67117726882506 -81.0495888213844 -6.572745226305618
-50.16633227940201 -79.44546240944511 -6.47695173856103
-50.15671254599542 -79.83327649460968 -6.506077224014095
-50.14632288585284 -79.71718523560887 -6.497248155192574
-50.177379552728254 -79.68143995784625 -6.493105411762146
-50.16730555667127 -79.59492467126937 -6.477484995696263
-50.20690826968022 -79.4713980553732 -6.483043624544367
-50.27066192257864 -79.39533772498693 -6.47696947266306
-49.66127273988176 -81.88190041311844 -6.628353512106228
-49.631126570761346 -81.81512738892516 -6.612061222808201
-49.82124136712864 -81.44270403513137 -6.596949784406051
-49.815138674114806 -81.34430981753269 -6.585723834361767
-49.85137007891748 -81.23531341831374 -6.58738020249799
-49.8678765252023 -81.13622904587153 -6.567596736134594
-49.85321571277022 -81.05106698905661 -6.564930996113313
-50.104886958402176 -80.3455674378331 -6.526915553342522
-50.09250221203035 -80.28237965410999 -6.520860503463894
-50.15970283590566 -80.19093142209208 -6.51043106083272
-50.19551432005348 -79.96522355578503 -6.480658123877653
-50.215226456580226 -79.8834631892566 -6.494376222233063
-50.254321137160986 -79.75589148185703 -6.493177271486783
-50.23972736140136 -79.69672703192757 -6.490139834283134
-50.345253299941724 -79.48084920629167 -6.479793839745875
-50.35781962133601 -79.45137186342261 -6.479294549573106
-50.40990159937182 -79.22582210974012 -6.4678776703029754
-50.438984432891644 -79.11870305327504 -6.441542335588845
-50.4896341580111 -79.02095651382228 -6.443961401190178
-50.55424629342779 -78.80998948907668 -6.376927653404186
-50.83185818265545 -77.73868307916374 -6.369689364085058
-50.821794334382425 -77.67543159140753 -6.36957964590986
-49.73829071743526 -81.91185629902411 -6.630862299087888
-49.87150202090377 -81.6191465352693 -6.581774179212004
-49.87170665695072 -81.54508091842652 -6.585629002278051
-49.859286460760664 -81.43938887382498 -6.596960104795996
-49.90432000089307 -81.3633392834795 -6.583445631405306
-49.90877860253812 -81.16607773672426 -6.555834476559111
-50.15041598662556 -80.37728432893839 -6.527437438012075
-50.19148455504069 -80.28263642877594 -6.5126398874854585
-50.21499896838537 -80.20586016697631 -6.473302015712999
-50.29055717218497 -80.03502684068182 -6.463567168751148
-50.26774614351554 -79.89719704134595 -6.498166060869228
-50.30770949522398 -79.82247653965074 -6.494295672430741
-50.383744801024 -79.77344435124527 -6.4728493531273195
-50.379451182362246 -79.54715579253958 -6.479228204195438
-50.47365215953434 -79.42635573043923 -6.427056403631713
-50.4950984306833 -79.39071968692646 -6.41273508828126
-50.49065128823779 -79.25224686066767 -6.4418616062355945
-50.5146152245305 -79.12661160616526 -6.449449020119641
-50.518855841938645 -79.00505730303911 -6.446405330054117
-50.60183232834094 -78.82373018184093 -6.370110567469323
-50.59509567815553 -78.79248673682463 -6.3550439142188475
-50.68142163492048 -78.69950746645036 -6.3559237470863446
-50.90496441730462 -77.72231271769951 -6.368059146674329
-49.68660706072186 -82.56443205856223 -6.649413336234043
-49.69898680636896 -82.44076002619217 -6.620214789514252
-49.93104466379478 -81.73648247180448 -6.575874536068815
-49.92559952210025 -81.66806368324302 -6.570914459480755
-49.9385445773965 -81.56007944864405 -6.558927672151566
-49.958475352358796 -81.47071867511207 -6.560866378763452
-49.95936494089734 -81.40233325279591 -6.566216950605394
-50.255015762160845 -80.37384907365487 -6.509441452238089
-50.27346125830226 -80.32242768953932 -6.472492927766772
-50.31222091541129 -80.25137704479006 -6.457875879008598
-50.342954339974604 -80.0810873744253 -6.470890645701911
-50.35867162485775 -80.05960153240679 -6.4608634666429845
-50.39996667952899 -79.91805577345409 -6.434994569833383
-50.433549732771645 -79.84176063329419 -6.455391193915351
-50.53229990006442 -79.62625099512665 -6.427423791276648
-50.52454865921439 -79.58510826769695 -6.417824449521319
-50.53352905916943 -79.42609372903786 -6.424291135218308
-50.56974472886208 -79.37030984299713 -6.411618009795262
-50.57743060807513 -79.28771043120312 -6.40960260129885
-50.63058184960378 -79.14754003498001 -6.445248955495002
-50.611439786128074 -79.09870130266067 -6.41703619948638
-50.6921814436414 -78.85647369566556 -6.369230780654718
-50.73055052979865 -78.77879325283735 -6.360064082680814
-50.74483621164332 -78.68199737431826 -6.375469113229993
-50.804537028844265 -78.64339036288584 -6.374650916548434
-50.97281183931575 -77.69735361298636 -6.370563511614501
-49.78745216988768 -82.64920564148383 -6.645910169963901
-49.788253644826575 -82.569488189342 -6.607737013253497
-49.82815824465311 -82.47036355250124 -6.582185637053621
-49.8506649634398 -82.36229640315388 -6.562270307972093
-49.83864633416181 -82.26438277869691 -6.5659619912936185
-49.95947799746212 -81.96252116441812 -6.560595097672162
-49.973995998375706 -81.8866982163125 -6.60604493530154
-49.944641619045434 -81.79500779451203 -6.582762556511482
-49.97814493874348 -81.7088773458405 -6.581080194713709
-50.35527741526415 -80.62699256616719 -6.472318274602229
-50.356851731793185 -80.5489700270008 -6.472280778785647
-50.367278884474594 -80.46154814592592 -6.453125509885085
-50.366985318600996 -80.35235964648673 -6.458557022314296
-50.48241635691555 -79.94915922048162 -6.43373840252674
-50.47750359924808 -79.87599946057172 -6.418559887486078
-50.55557141944901 -79.7804651210781 -6.416598633150637
-50.55956654135826 -79.67128994295949 -6.417445860459663
-50.561952769924666 -79.60563805320534 -6.413815207694965
-50.62094211433159 -79.43447501769154 -6.422402298481422
-50.63443180701072 -79.39469723948135 -6.402510986094642
-50.650250513289386 -79.28281898320286 -6.415515469608143
-50.69176851887677 -79.1782056372874 -6.452604688384925
-50.80039061701239 -78.88984930085397 -6.374988559737051
-50.82119434501891 -78.83750818159503 -6.357040781044789
-50.809367423870036 -78.68883320151332 -6.372446064204164
-50.83163035775386 -78.64686587292874 -6.3539082663967426
-49.84895591952963 -82.83934611453378 -6.667491265035179
-49.85492539128851 -82.77030002839999 -6.634858586290967
-49.877997509029015 -82.67737835593616 -6.580434128989711
-49.882436788698065 -82.56505727958447 -6.5889856004966205
-49.863204752075205 -82.47811551106638 -6.587038542818095
-50.02685313953148 -82.18700940297806 -6.598520911594537
-50.016317586967226 -82.13282901421886 -6.585745250047914
-50.022632106336154 -81.99858318901451 -6.554152561160394
-50.07276200158602 -81.91414573893272 -6.557837731330472
-50.07999381713261 -81.82729110896136 -6.549449270479338
-50.36662163547133 -80.65712701702479 -6.470102046589372
-50.385996506550626 -80.5724679464436 -6.471079933931767
-50.42393942326555 -80.48230004595646 -6.469697101120759
-50.61606849457498 -79.76095259903136 -6.408881521254834
-50.66783772158203 -79.70716263924538 -6.405272227849426
-50.8072614007748 -79.22222376617641 -6.390853247825636
-50.88391625970953 -78.84242003388721 -6.3604547913184355
-50.937811577624224 -78.70688119748603 -6.344051887475211
-50.98033294785881 -78.67095533513456 -6.358355728213855
-51.083618485944086 -78.28358462186426 -6.329117566386651
-51.324334767404416 -77.36550456378188 -6.251141337973011
-51.33526825932233 -77.31119996426456 -6.248835088700436
-49.88733099595387 -82.9774642539633 -6.67762630303925
-49.87800370263299 -82.89020606595366 -6.668055348375229
-49.884038764901355 -82.80252206694446 -6.623062693372381
-49.9395758677458 -82.63135188081131 -6.599924437499348
-50.06719155530383 -82.30344887412976 -6.5876831583716555
-50.0499055763769 -82.25028147398646 -6.5980864572693
-50.102633823140394 -82.1344224427532 -6.555129716751803
-50.1237887002755 -82.04640020693398 -6.543397191081226
-50.151349403699115 -81.98102528196502 -6.53880393783987
-50.509703123169736 -80.71507803944812 -6.460484492498024
-50.73791029927293 -79.90802473615862 -6.413006185981506
-50.739039812331626 -79.8531414285605 -6.406711648952972
-50.87589136832866 -79.44539860937778 -6.393185945210794
-50.90985115533397 -79.22529933280683 -6.386841214161368
-50.972304154700524 -79.17248843794468 -6.361914720027419
-51.031998449952965 -78.67878622032597 -6.364860947180849
-51.19721929818419 -78.27752827175723 -6.319181396151975
-51.414235175802965 -77.24778512489938 -6.258450625522078
-50.01431035942731 -82.85095466842142 -6.64288794507092
-50.13050190989488 -82.47748781859815 -6.5863053381009244
-50.18500874007657 -82.23041550227751 -6.5556821224734545
-50.213871084941076 -82.17484195646995 -6.5716172660370145
-50.19026425390204 -82.06957189662437 -6.576354559787544
-50.78136825149519 -79.91276027382958 -6.4048843433546425
-50.826102804001124 -79.7512546606608 -6.396212546169207
-50.899809143694846 -79.65013500144443 -6.392354563266712
-50.90998003862986 -79.44843170790138 -6.379953035780967
-50.99697229180086 -79.23588177876896 -6.404267608477583
-51.00321932223773 -79.1939364319867 -6.367051546319949
-51.25759968983631 -78.27050601756238 -6.313318738746513
-51.27018841477567 -78.25182617470304 -6.327757920173685
-49.9760980186039 -83.22942557016854 -6.707729119129555
-49.99972037331653 -83.06723887288778 -6.635886756339016
-50.16107895489794 -82.5551106475201 -6.596524950056107
-50.23924993222894 -82.46221926095333 -6.576131233538522
-50.22125053203142 -82.37424297846782 -6.577046536136183
-50.26201362703556 -82.29939813436661 -6.566947846529927
-51.0901397870873 -79.18724467512855 -6.367937855601758
-51.37052537838084 -78.22710806099543 -6.313036607191256
-50.24632800402067 -82.76422368166742 -6.616062358617688
-50.213368198829315 -82.69144041512924 -6.5860053449326825
-50.32886869859224 -82.61425974366362 -6.589091760988229
-50.267941827533484 -82.46996091023287 -6.57611520297585
-50.34936233848231 -82.37255074943593 -6.5638427137664435
-50.36177056291475 -82.33821767474367 -6.559979005565993
-51.476836674266046 -78.19699868469183 -6.311924580211133
-50.28850951866744 -82.9235312898116 -6.608185985933029
-50.30241491227601 -82.80435587721223 -6.59931620612858
-50.38545219679147 -82.73481725460236 -6.596204378211315
-50.35820578027041 -82.64357084688449 -6.577968597124646
-50.3934109521245 -82.43263955326422 -6.569919934176845
-51.609063982803804 -78.16748867939847 -6.3156260351388385
-51.632970108367935 -78.1038927394943 -6.311652715842578
-50.41388544411956 -82.82903230215595 -6.614689399209411
-51.72633506717266 -78.1615931325517 -6.325661660585138
-51.74866499693351 -78.00874423384005 -6.296603904400858
-51.81326764591522 -77.96237829357828 -6.282540335663766
-51.783310209342076 -78.15225953480181 -6.335793620087681
-51.84590281161255 -77.98708496206666 -6.2953627964652545
-51.93336051125692 -77.90835884418469 -6.285430467330562
-52.006090469153555 -77.65876004453807 -6.259382921478864
-52.037394484432454 -77.54574267960211 -6.253314655357678
-50.6809662969811 -82.92975966820039 -6.587353094463226
-50.75881854341632 -83.04415615862709 -6.60657017697739
-51.3224459875741 -82.47369041326752 -6.549170476935664
-46.10514068836468 -79.4537395955558 -6.368111456255248
-46.31666049717656 -78.6339847345987 -6.2877648497657255
-46.365726608886604 -78.52193713781301 -6.287850659643215
-46.587906075550364 -77.70907505182997 -6.237687132377716
-46.56328854561487 -77.6872171413526 -6.242692298034595
-46.63086745309076 -77.38028112299368 -6.22713944096313
-46.77380203870732 -77.10029280929055 -6.271368701125998
-46.105544582279514 -79.54058518137373 -6.389818999883986
-46.145845951108335 -79.4821971202775 -6.364181867003368
-46.20254057223005 -79.39639754497028 -6.362148808597426
-46.3045967765445 -78.87389694285507 -6.323523121367812
-46.368579218210364 -78.84692769603927 -6.309503452695207
-46.39392643738891 -78.74663752002822 -6.377159923766554
-46.43923094854176 -78.53359065226688 -6.3003596631837455
-46.66631617257812 -77.73039196919201 -6.2317702864775315
-46.69866803930142 -77.70844518407738 -6.255829769378396
-46.706136650498244 -77.55716884387148 -6.239146847665119
-46.7414410452373 -77.47857410322307 -6.248293826713292
-46.29428622505578 -79.35554406931551 -6.367385338051197
-46.444026501445364 -78.80963645960857 -6.32538503795791
-46.4771486439826 -78.76618497712414 -6.334524258236271
-46.533062596471105 -78.56411714660756 -6.311994587251065
-46.55215728717214 -78.49328128882006 -6.293848884756808
-46.698228375958486 -78.11101265025393 -6.275525873521758
-46.75194803396179 -77.7491033889347 -6.233728036644614
-46.73224364049001 -77.73411198295467 -6.248216502600001
-46.78065439091508 -77.58566689462234 -6.267691960881827
-46.811824253473965 -77.50037565086431 -6.226160193563857
-46.84407654881643 -77.40276923553205 -6.265316015627405
-46.89792962516338 -77.34533430095746 -6.240518617893767
-46.938886152378274 -77.1604351320191 -6.241352556831314
-46.401871475426084 -79.51195153924381 -6.39868841093907
-46.5259320512582 -78.83630942057675 -6.3473734868065925
-46.56514229878344 -78.76828859896575 -6.349457427393746
-46.59950011603288 -78.67617916973724 -6.332057710575821
-46.63059003474442 -78.58471969182263 -6.322014983667111
-46.65653871031164 -78.48836498852093 -6.289052372976153
-46.75003572963381 -78.31034666047788 -6.262732790464677
-46.73441482569322 -78.11625762042061 -6.2702356940185195
-46.800525494713014 -78.01590568565702 -6.2515421396995405
-46.86989352005229 -77.79042115753762 -6.259597385669844
-46.82187523283222 -77.76039536712632 -6.257068075545537
-46.9071131362722 -77.42926710290867 -6.245732162788939
-46.94777184767871 -77.36992363978426 -6.240009412101083
-46.49732921543149 -79.48771659370384 -6.3782077134713955
-46.6442862278903 -78.7764584418335 -6.370624989674125
-46.68324730456343 -78.61658886210712 -6.329011282356134
-46.71996679564036 -78.50942403690996 -6.297032970487089
-46.795178350645806 -78.4731303952751 -6.2695254838147685
-46.803957045647586 -78.33485442203065 -6.27704336019409
-46.90916386838894 -78.01508980644688 -6.2656668505022814
-46.90889625645228 -77.98536277679791 -6.289872732253082
-46.93708859650685 -77.81754771954095 -6.268742849128945
-47.065890245180675 -77.35023840039919 -6.2923947435401315
-47.5504176281858 -75.72718246585623 -6.111812974015972
-47.52523587441235 -75.6673691553911 -6.108920154484119
-47.60902808442573 -75.50256882048913 -6.118063989430024
-46.54138804577901 -79.46629497599015 -6.37570153001032
-46.59017806639568 -79.43416449196621 -6.358451391756782
-46.860466639723384 -78.5355914741386 -6.304976989298109
-46.88619906918232 -78.44126138676492 -6.281838723478338
-46.88351346629669 -78.37192818976878 -6.272728837933155
-46.96000370225713 -78.05227201404013 -6.2574781316879315
-47.67455677316602 -75.63945176783677 -6.120554094055951
-47.66640365841519 -75.58933578930377 -6.134389895057886
-46.42424708190582 -80.50093403456906 -6.430014195880183
-46.93664538753703 -78.55937130292467 -6.3096032323054505
-46.957304005687774 -78.49442540515464 -6.278734904144305
-46.95102319084043 -78.41824428159747 -6.264912974676166
-47.69428032704995 -75.70378283686625 -6.1138184655517405
-46.48984861591758 -80.48520487800972 -6.444203976896617
-46.54366561768364 -80.44693199342252 -6.4277343953532515
-47.04782903477922 -78.57524687248787 -6.321452313566379
-47.17645833840305 -78.22064191197354 -6.252976828718106
-47.133822859131065 -78.08066889654296 -6.248031921697283
-46.586977638077904 -80.70068887765943 -6.48492070694156
-46.58378428713169 -80.63926371723245 -6.4672333889541935
-46.59362388529384 -80.56032934902639 -6.446158589624556
-46.585192930754374 -80.47103161181667 -6.443505619478082
-46.99849742373839 -79.19158990422791 -6.338331138114093
-47.23428866922681 -78.32868408940641 -6.260549329876089
-47.22351479694937 -78.22043248745464 -6.252744273203532
-47.747359984513984 -76.3196207931162 -6.200874296246704
-46.63294850452001 -80.63382872230869 -6.464356065400073
-46.705875007073395 -80.59898559748203 -6.476266524579677
-46.68326355276039 -80.50690206900157 -6.428028680694882
-46.791510376935776 -80.25078963022946 -6.458397391039605
-46.802811991609744 -80.21289353406674 -6.455003353977827
-47.03595657248703 -79.17999271763615 -6.311953263353445
-47.75080453032531 -76.89486058693292 -6.171411872818272
-46.771251879042524 -80.57627763027081 -6.472697831985912
-46.832970872763006 -80.49488032810423 -6.46694489818191
-46.873595355129645 -80.41687981693174 -6.464180127301494
-47.83155108891005 -76.95935745536008 -6.173321989828319
-46.97290621761652 -80.32323609688203 -6.44804922052837
-47.880269113279745 -77.03604697984578 -6.177963746224983
-47.8681823911852 -76.98995250303942 -6.1772806228802555
-48.09454137158578 -76.38923417391906 -6.157937951562027
-47.539485301621895 -78.829162017938 -6.2873394498180115
-47.52802620598659 -78.58662467622506 -6.2717962884011795
-47.54678502849111 -78.57629682317841 -6.2703203566721095
-47.63435184219343 -78.41924238846731 -6.2617230086959745
-47.62948274245446 -78.39375371489663 -6.262093885600053
-47.97638466373697 -77.1459082283023 -6.178231625303763
-48.19096448345822 -76.42188975734061 -6.169198340183396
-48.19285144718146 -76.38027969070798 -6.129210677284285
-48.43975551664537 -75.58313538311634 -6.093780882494087
-48.464792868036184 -75.45468778744792 -6.099845515647849
-47.03431118866429 -80.93270366031092 -6.5011804435405525
-47.04658288079687 -80.89882757752115 -6.491735777459352
-47.187632661894185 -80.26934658085902 -6.45519418924067
-47.389513948181325 -79.71559088545487 -6.334591921998925
-47.412907779563284 -79.66417824469998 -6.368199279992157
-47.58875506917971 -78.83114890252698 -6.285709681459141
-47.636401740128285 -78.7655455605505 -6.282359058161532
-47.6816199485998 -78.46746576285628 -6.266603884204664
-47.73429314692626 -78.38562920039482 -6.258816088309791
-47.77969019631344 -78.3161737560109 -6.253835655943148
-48.07060188357429 -77.21478505577375 -6.197399788176649
-48.104939441641235 -76.99642717082276 -6.2026644460157545
-48.14852226690834 -76.92433806698767 -6.211511897820737
-48.171795590223084 -76.8604482563698 -6.191004300029259
-48.18835645676519 -76.75571525069786 -6.21229808665242
-48.27529457152908 -76.42588886765935 -6.165846163866395
-48.284102368366355 -76.36086213191636 -6.158338192622185
-48.34516992432865 -76.08650441221037 -6.13768801842287
-48.46776832559618 -75.85597983893045 -6.123272730896565
-48.46100832800814 -75.8158044054075 -6.118997105585117
-48.449460885673936 -75.6647233411575 -6.121823991439756
-48.48300295337045 -75.5658707846227 -6.106427958956628
-48.47676632002621 -75.49357880426516 -6.101966209318152
-47.281471147030906 -80.18545953648898 -6.425309672201144
-47.34892802462228 -80.12752542049401 -6.405798857653457
-47.48547814618921 -79.70613427104823 -6.368325928989616
-47.47098556544008 -79.65695755183859 -6.368125011683501
-47.52241641362155 -79.57013892931018 -6.341233238875742
-47.55403953618789 -79.51528577473934 -6.345786237658426
-47.643032515971996 -78.93227176288862 -6.351480569317616
-47.668497539789286 -78.88013314083585 -6.3118402759378665
-47.70153473108912 -78.78310150469416 -6.284754620587553
-47.75238366727863 -78.69658742746516 -6.279891361954443
-47.791937693936596 -78.5657741394317 -6.271546420354455
-47.79380729105412 -78.48086834026434 -6.280661919286808
-47.822821639154434 -78.38750943988336 -6.273380770069375
-47.81013963767266 -78.3399468533706 -6.258615821955245
-47.90176334901515 -78.18689942446453 -6.278869422808249
-47.89295526492004 -78.14937955660426 -6.255538957779558
-47.920000658369425 -77.99885517075468 -6.263073366807652
-47.97701952840346 -77.89559164891392 -6.2295860907844
-48.027549618251996 -77.70778964860078 -6.2160508053539445
-48.05019241426042 -77.65830773016091 -6.218872734926207
-48.08609974099167 -77.52204159616714 -6.208075181512187
-48.13080684748568 -77.2218181146745 -6.19218097162747
-48.14159066320318 -77.19402644423985 -6.1782668726256835
-48.20363333376568 -76.93094930299145 -6.186638422610654
-48.35276056082391 -76.5482450230921 -6.2230848216210575
-48.344213268039546 -76.46819904647099 -6.187694364265116
-48.35815159250851 -76.39491351569431 -6.173945326702966
-48.43329430679713 -76.24885723579207 -6.169757115386542
-48.43746311869201 -76.16438546134856 -6.156758280115754
-48.47270210331022 -76.11041129911506 -6.143472762114991
-48.49192073617735 -76.00326795811773 -6.11457316086797
-48.49214281535725 -75.88182617224024 -6.132667674374943
-48.5551338962348 -75.8148190856046 -6.136257235597534
-48.53379771294059 -75.68381905549016 -6.132097012445372
-48.76769611731397 -75.1051266873385 -6.10448491868833
-48.78974256844604 -74.99324068945839 -6.101290938276781
-48.82536309418372 -74.90351047973515 -6.1173819035497585
-48.79782153627427 -74.8826495275093 -6.114798051801347
-47.18211556312944 -80.87452970015642 -6.499859794124693
-47.388640341292344 -80.24635844533798 -6.457381899221924
-47.4447824088306 -80.15994491042404 -6.4216390489486646
-47.47650884334957 -80.06800732848491 -6.403838098441776
-47.46832174608858 -79.92588773888345 -6.360377846490006
-47.513328044720446 -79.87546929170126 -6.362057879848054
-47.54355259771878 -79.75098980763465 -6.355875963764044
-47.53676638626747 -79.68223038542628 -6.368056929967713
-47.567531910178225 -79.52891076815841 -6.336008408566306
-47.586729893505435 -79.48504288647044 -6.33941745517084
-47.67497607738185 -79.414380151412 -6.3168770929299605
-47.786932032054246 -78.8718564396209 -6.358394299267331
-47.78374471742408 -78.79924795548528 -6.3205211997549045
-47.81024998993262 -78.69753008616911 -6.295562306420874
-47.879757357406305 -78.61612544534292 -6.325256937981963
-47.891557816959995 -78.51994826327618 -6.331236284110102
-47.90097179189111 -78.43048276459105 -6.3046050968705725
-47.95812544212323 -78.33083926356595 -6.289269322492098
-47.925955417880175 -78.24177499378666 -6.280120604896431
-48.02198178699911 -78.15326103796924 -6.3215826759772025
-48.032932953696196 -78.03579629559792 -6.272552379195913
-48.035406614512276 -77.93580399631158 -6.238010398627112
-48.050971029245986 -77.84498801744377 -6.238812514646418
-48.12709311258688 -77.76056300956435 -6.302798979228982
-48.14015026225899 -77.6364927201439 -6.236856008888601
-48.151802186946 -77.59945687574161 -6.233010764085729
-48.17713167435288 -77.39798900133773 -6.1981706272066885
-48.36788676090282 -76.71239954675237 -6.240853920863082
-48.44912627322549 -76.47062883060106 -6.202765627755857
-48.45217607844403 -76.4410341468707 -6.194656009238881
-48.53285582663083 -76.3025338755892 -6.201121781595969
-48.538216621624954 -76.20178685409196 -6.184650529382924
-48.537981863986616 -76.14396391123086 -6.153014360427941
-48.768289383867256 -75.45144797436731 -6.130460196786742
-48.765988798589 -75.36453252339577 -6.115525953438288
-48.77015977506911 -75.23961939587593 -6.099620085989571
-48.825392375858605 -75.13864745380481 -6.110700973449573
-48.87268170513788 -75.0741907907072 -6.111382639209996
-48.84022813432676 -74.95412510531226 -6.114477532206979
-47.398949530008345 -80.52460445897643 -6.47466017141565
-47.52597820746217 -80.27426174978197 -6.447498809350024
-47.531025789588774 -80.14994379410186 -6.428703074034568
-47.569106181136 -80.10876438693408 -6.40595716721017
-47.539875253012795 -79.97894694166287 -6.4061760319195376
-47.592347412573396 -79.87926406672673 -6.342125617198876
-47.656082763988096 -79.7684984361812 -6.346717838309258
-47.63862941707736 -79.7233746260908 -6.340116481702091
-47.97476608710381 -78.434933467165 -6.323056921704573
-47.982556878205244 -78.37425951819458 -6.281140503103528
-48.07237144325622 -78.25518665250249 -6.307492242725791
-48.11051691014697 -78.1639318779481 -6.305438731677151
-48.13226214270208 -78.05004285133161 -6.266579380851503
-48.162267472092765 -78.00998766878064 -6.307165154467406
-48.15697968182747 -77.82313372258902 -6.313170280644075
-48.19989827118874 -77.75360584933128 -6.299865436487749
-48.53978971387818 -76.52368735698784 -6.217762797447112
-48.5710590767843 -76.43803365820452 -6.208953250000967
-48.55672517548016 -76.34318745549575 -6.206516617142045
-48.69064617674246 -75.9611541859702 -6.185510948417496
-48.748334496684585 -75.81165043872709 -6.186102070912294
-48.784906173821824 -75.5136595719982 -6.155878235246532
-48.77721614215666 -75.50144213935974 -6.167940089001779
-48.889768559579444 -75.16274907006085 -6.127880681760789
-48.89323999839216 -75.11976451300545 -6.11840958201833
-49.32867617168156 -73.80963581590065 -6.02994297847207
-49.30970122189765 -73.7362956028899 -6.037671401384683
-49.33925420586698 -73.62990633027177 -6.003364609166384
-47.630340137734954 -80.13484671861352 -6.384364487200358
-47.764327710883265 -79.77531095630637 -6.337021131051411
-48.10717972842683 -78.29642986574846 -6.327923759381708
-48.14250780970367 -78.19573117203711 -6.288003593466852
-48.597730935584714 -76.63846820546347 -6.233736708086676
-49.42148926210244 -73.72928861384511 -6.016654604233053
-49.396798905169184 -73.64324993568103 -6.023122080413054
-49.42054960292435 -73.58521412767817 -6.020746184354583
-48.87431868660217 -79.5032403833336 -6.3838995149316355
-48.876439465947094 -79.4058094320987 -6.394015768074869
-48.662080522056364 -80.46705744431411 -6.448258615250663
-48.66070177926707 -80.43772566673924 -6.448146565624886
-48.85456107231904 -79.91167471676434 -6.416282492334986
-48.90649227979033 -79.82902518490609 -6.410772781373483
-48.95423523307671 -79.53435961268606 -6.358290758658737
-48.996645164604665 -79.44237989307614 -6.372216096788581
-49.75143381630722 -76.74196923279389 -6.216514410251514
-49.77560822428907 -76.7002202444372 -6.223483114696553
-49.06364157504911 -79.67179942546196 -6.362526564611066
-49.07670904521968 -79.56100763101081 -6.386247142414103
-49.05775045321094 -79.456595925337 -6.3695034419248096
-49.37743558198978 -78.5413140384105 -6.243445370373712
-49.48640879976928 -77.88963267528264 -6.289514440903788
-49.512743869858085 -77.80191265176995 -6.293674076013887
-49.58314193678145 -77.75047335084948 -6.286606791661498
-49.64356320669716 -77.43404605507436 -6.233754939198227
-49.812548245315924 -76.67797785827226 -6.213848586016144
-49.10394198497729 -79.69006486499845 -6.376787721770058
-49.104553568650246 -79.58987525653906 -6.378953033908692
-49.27506820004402 -79.22174505688496 -6.376978325248406
-49.33856939903444 -79.03507986117442 -6.350185380263442
-49.365082383132936 -78.97429550999252 -6.362032234728769
-49.39283909857729 -78.80519079890527 -6.2955045764564606
