ply
format ascii 1.0
element vertex 834
property float x
property float y
property float z
end_header
22.049727346438054 -177.45872973649384 -4.121569251696049
21.76252988861937 -178.527032483534 -4.1326576689424765
21.529547631498836 -177.43667411089086 -4.113746600921713
6.974451305466051 -233.61476474303655 -4.143887282680794
6.354190932586047 -233.980301772551 -4.146106638357287
6.021840078866827 -233.8796305933536 -4.170554711910266
5.89894642750367 -233.79405445575037 -4.183477064727005
51.315488454326236 -219.58856379416332 -4.024841759798212
51.023780379818156 -219.96697488825103 -4.005832797233649
51.141880682919506 -219.69882001527503 -4.019436558840647
50.95583959167869 -219.70058505540865 -4.019937964660571
52.35747616900049 -211.1780926856531 -3.9914648753401423
50.547147720750324 -219.57173899805454 -4.028150744913775
50.46694632983644 -218.93778314887007 -4.061486612073656
51.93058383792864 -211.2020218078666 -3.999985685568751
51.94387106106931 -210.76248591134197 -4.03578057879187
51.71665054244269 -210.85293830343014 -4.034130970536339
52.282370676614406 -204.77080171066567 -4.022173969933569
50.867829877298306 -210.77994520582553 -4.0612525900558065
50.84417732699505 -210.7201915166983 -4.066602871426185
50.813150793240375 -210.6069558723318 -4.076678253141568
52.06852219522321 -204.8451451112557 -4.028267153238409
51.82425939697474 -205.418521648175 -3.993518472869758
48.86791986886986 -218.94154224058823 -4.067717890853636
51.651113843375086 -205.47601337125417 -3.998636262794357
51.817224054927664 -204.6159940800209 -4.06288381998663
48.71387102167377 -218.94900855560994 -4.0681737486118
50.05773369987275 -210.79489640537383 -4.0802617730834285
49.90921756044076 -211.2096907217346 -4.050110742550119
49.990661544876026 -210.89334174548196 -4.0738321670654765
50.02463933054342 -210.83204807550823 -4.077919601989969
49.84584005914216 -211.08459593035994 -4.06188230368213
49.86318256927493 -210.992552933489 -4.068941171856871
49.90789997767456 -210.93591107133426 -4.0725029556607675
50.34107329668242 -206.34408648786754 -4.000614793949482
49.92945429629584 -206.12576127088232 -4.044192498721152
49.98633073361661 -205.86629514288566 -4.063421339272759
49.855042086859534 -205.74072991165966 -4.081952573025454
49.35308982974366 -206.49743810377421 -4.045616962283914
48.397351552605336 -203.25132171382808 -3.9856555149818305
48.486561215977375 -203.14542547907155 -3.9853623743702933
48.345436035361324 -203.3047321573333 -3.986390434838836
47.57609515470491 -194.4855816827314 -4.0529550544385415
47.558972784557014 -194.423633365765 -4.056189148008206
41.33724028445434 -223.33928526582687 -3.993460912960707
41.425984318122815 -222.9056118477753 -4.0082171799711634
41.47017768561941 -222.83179769552433 -4.009949350469564
46.68954613321357 -197.2866403160786 -4.068554025898988
43.594463763965514 -199.82178501665277 -4.011237218280101
40.004227045361986 -210.11869999265144 -4.074316219581184
39.94890718966126 -210.0910681081452 -4.081768081500425
39.78511413788422 -210.15818834431326 -4.083467102229099
39.55100700657515 -210.43071141206255 -4.060730953355707
39.553407060913166 -210.34044689762584 -4.073088106927969
39.56166785660145 -210.26599831211652 -4.0828794761867995
40.80332877195108 -199.72154104605323 -4.075761494259483
40.7283080565387 -199.75977481778705 -4.086253573425868
40.61258022474442 -198.4241132498446 -4.028815492245954
40.565357614801265 -198.3829047693758 -4.031475432525913
40.541147991391014 -198.28544850826802 -4.028563151127085
40.51560092322557 -198.26945748376775 -4.030333433407042
40.49879041232573 -198.18245058169813 -4.027164963577775
40.478028826831064 -198.11120311808688 -4.025240579116199
40.41747514216904 -198.15298564925786 -4.033623393533908
40.31821581911799 -198.3059689604026 -4.0520411627705455
40.33616903280683 -198.11600566502378 -4.039508952954392
40.30440353741885 -198.02727987208803 -4.0375393073399195
40.23761419724197 -197.9903983194142 -4.041776553000008
40.24900267643272 -197.8568449898806 -4.0330763438876955
40.18073505798028 -197.7755182628325 -4.034703546301397
41.77623923591341 -190.15622089723058 -4.024424766657537
40.05006148618581 -197.78985329309288 -4.047610719046464
40.142874917467516 -197.69080969570282 -4.033336758272652
41.76637776016682 -189.96572811519334 -4.020328974281263
39.99737329596314 -197.75365203677788 -4.050186278822442
32.522566982248556 -232.21382555412893 -3.9941069128054316
32.422553862466586 -232.25547101155212 -3.997213780352951
32.31162621095315 -232.34351784466102 -3.999169959931593
32.28799979839664 -231.99613536925207 -4.013867425194018
32.22604398741045 -231.83846617315646 -4.023118845180401
32.1602502025024 -231.6980932749804 -4.031772869093709
41.18724036281471 -189.0800911483761 -4.039260697801994
32.1394408181998 -231.36455991805536 -4.045958676561051
32.050959899555615 -231.35973491758662 -4.050429420478955
38.821102296657926 -199.2988425471657 -3.9932725800096516
31.945914193058258 -231.4184874086646 -4.053341922784226
38.73561935013957 -199.316062124127 -4.001763917404248
31.854540513258417 -231.40419476114658 -4.058355201686994
38.61011568836265 -199.4052038054543 -4.020125007198303
31.762279400317674 -231.40368747659744 -4.063000689509345
38.52087269824019 -199.36503634595823 -4.022802135187312
38.47733912589711 -199.33093643463303 -4.022543683112403
31.611001919294054 -231.66422666232745 -4.0601723712414115
36.32996847502014 -209.1553601949694 -4.029622462579368
38.28957755611068 -199.74864965246314 -4.076898023183744
38.3302669065679 -199.58517106875334 -4.057983849693322
38.38077198213886 -199.44395741741604 -4.040511481118623
38.43621592547424 -199.372714442251 -4.029605114171234
31.49733483521932 -231.74840483792542 -4.06257155932073
36.25403960226656 -209.13024268196 -4.033750725426109
38.24598542969391 -199.7345919311267 -4.078432130193867
38.20578679932551 -199.68382258040822 -4.075986115359067
31.19094826841351 -232.61670567502316 -4.043472416412646
36.10383803091111 -209.16508986747223 -4.021111889044723
36.165257389760505 -209.1310124975313 -4.031062920835538
38.12257998094316 -199.7396512483518 -4.086835841447362
38.18443087180173 -199.66980625363763 -4.076009207329178
36.030949443259566 -209.1904801370995 -4.012712485077918
38.04815383373061 -199.6909274326656 -4.0865233800891305
36.864101755852296 -199.01101358740453 -4.06907054770388
36.79030124924136 -198.90255192540837 -4.060223554021152
36.7473567117502 -198.85921803605765 -4.057004801708098
36.72161292164762 -198.86414429891025 -4.058051497408464
36.60805079149142 -198.88029141879596 -4.062127794738716
36.49221105566141 -198.86437800075387 -4.062755952378582
36.50218903749175 -198.758253381445 -4.052124198292047
36.50865120467227 -198.62461122110236 -4.038927736696087
36.38434118635974 -198.91748396182444 -4.069619590198878
37.33844122393354 -194.18949314390426 -3.993641188086934
37.225150380963655 -194.52169351150602 -4.020056916496509
37.25744768380045 -194.23524531425227 -4.00002346525746
37.29716927183525 -194.16642725956476 -3.9939710281268503
37.12996290128368 -194.16538352464065 -4.0007492597863115
33.98176500511882 -208.15108195700145 -4.074375267153787
36.76963279996942 -194.90831091602593 -4.062300945830832
33.90916410317851 -208.1408539496708 -4.068725272205364
33.986840270426384 -207.72303309666816 -4.003476419025295
36.775186340952985 -194.42966364546785 -4.031078068788432
36.84755127028971 -194.30700361570848 -4.020569230176004
33.80181808019652 -208.1071898870187 -4.063353794752725
33.814591377417045 -208.01909853571027 -4.079186164968281
36.69679671235681 -194.46927420831668 -4.036331167025638
33.762941892371714 -207.97856223826358 -4.080347959303725
33.73651729433256 -207.92717555119944 -4.085794757349941
33.33480919011677 -208.76103413010887 -4.082807338889256
36.423841519061305 -194.14390821115384 -4.0241404638857485
33.217216209896414 -209.1327002909025 -4.015843654513294
33.195220855487726 -208.9727661122357 -4.040091769526788
33.20389872587536 -208.93526917361967 -4.046600868739432
36.360513644544525 -194.13810189506432 -4.02571691487911
36.175716072825125 -194.52801902958515 -4.055959179544646
36.27295853873769 -194.0970415783857 -4.025639607664066
26.369700874751004 -240.37552323414275 -3.9837098463644263
33.23544447995448 -208.1091826980954 -4.0035019347467165
36.16570652742072 -194.0929522219518 -4.028335504348478
36.199145478836435 -194.00475058879755 -4.02185211994974
26.320363861857828 -240.10677123860557 -3.997255905719382
33.62476082642972 -205.57588899980027 -4.057765621682159
33.6689817252957 -205.51838065572264 -4.069491348764314
33.66519034396865 -205.43716216885775 -4.07318537642942
33.63506934764913 -205.36090025797697 -4.071294136987345
36.00795171468765 -194.18887210581815 -4.03858356902741
26.29451275596591 -239.78839261405915 -4.011713378073013
33.09309527163974 -207.5273192634723 -4.074157073385392
33.12609297256811 -207.47535050972522 -4.085099768924115
33.31425298352096 -206.37498715350847 -4.0859518672017465
33.45830936186083 -205.7443890232829 -4.014949058206064
33.522431514404985 -205.68075575042 -4.0315677949196065
33.54587780293031 -205.6134388187913 -4.0404289560554645
33.57815287354688 -205.51929092625628 -4.052214720530922
33.606768419465645 -205.383467650345 -4.064870985679269
33.5976761547049 -205.21709398483955 -4.070637683268662
33.61537857201005 -205.09686994381383 -4.078339248693699
35.93350960158009 -194.2482941439941 -4.044262216914252
36.031667377322684 -193.70287391464518 -4.006988461189834
26.21330653615106 -239.65350283741537 -4.02158072646457
32.46782569797604 -210.2382683551564 -4.019216259761826
32.46983210428714 -210.19325163182612 -4.025896230389413
32.769639088763206 -208.6658123874417 -4.058179192977744
32.850072874051826 -208.54159092471198 -4.08239768787675
32.91626508758078 -207.78376160666173 -4.0177600549606325
32.94546278639298 -207.71652058525586 -4.03074131888047
33.02357929173624 -207.6176499511549 -4.0536189040316515
33.00554287470349 -207.35768917420108 -4.087137707829774
33.24444987895173 -206.54174465132314 -4.057368378584851
33.269132665406204 -206.50990001443012 -4.064710022033159
33.28461151388028 -206.38570125534426 -4.080222335693029
33.552467646459235 -205.15470915323598 -4.064672988323719
33.57531455522421 -205.10317109272714 -4.070764261034215
33.588897691521446 -204.86083276040904 -4.080022847864821
33.54307154464576 -204.82259748860844 -4.072556974165735
35.68292015838886 -194.75968316771468 -4.0820025241268025
35.722217098554744 -194.7512370748551 -4.080762801898017
26.11864594344032 -239.56003320632846 -4.030637958288588
32.37881555853184 -210.15020006522556 -4.029326376727101
32.44100575251229 -209.82777152526552 -4.077877893476212
32.65417270968992 -208.68205167825903 -4.047474082523828
32.85482451579755 -207.8883011445459 -3.9956346669969256
32.879349936221836 -207.82398866687882 -4.0077977667226605
32.906645134376205 -207.7508885956714 -4.021428564998127
33.153529183105206 -206.32834644204547 -4.065511451758486
33.19197445764763 -206.24426480411012 -4.079717713672415
33.187309592411765 -206.17649223344355 -4.085449226463133
35.8437415699762 -193.60256590228235 -4.005313126312319
32.30509679516403 -210.16378316131312 -4.02502513837413
35.583091794836335 -194.4161024177067 -4.062421898805574
26.00083420948838 -239.5343177840091 -4.038077810969469
32.16354806965134 -210.19616777335742 -4.015745621919489
35.513214310263976 -194.2619344701724 -4.053985292145267
25.839807581257617 -239.6222479701849 -4.043378428017753
25.692464643730524 -239.65945208371087 -4.049902775800916
37.77492927588874 -180.94616635550187 -3.9971881070337374
32.26394995554075 -206.78971492287394 -4.068358636904469
34.77186037460087 -194.36919683272077 -4.070750265565064
34.71338538492122 -194.30725914798055 -4.067571866855559
31.384629461132413 -209.48995260290025 -4.085626979519865
31.367965458327856 -209.47182709227758 -4.087418510023502
30.871777130787947 -210.0064677534334 -3.9961875195061127
22.795601115343956 -245.22351017865626 -3.9814484062782407
23.371354970002532 -242.5531065611612 -4.060033935550702
30.623493841951294 -207.43141109120447 -4.049650239063082
29.76894033478971 -209.69847248848092 -3.9921235041686325
30.810785227777167 -204.32595479106308 -4.086288653368857
29.577987492479753 -209.53643241618062 -4.004531030697929
30.761997420259497 -204.3630866218023 -4.078770462358133
30.766164243529076 -204.33896811130225 -4.080533792541518
29.570440122716043 -209.44188680964726 -4.016003870622382
29.245636602564268 -209.44247125891607 -4.001705180178841
20.813760097189927 -247.81207097160592 -3.9858838588503422
29.108464924151495 -206.24298858929484 -4.042641458418805
28.400411700157917 -175.6250465373614 -4.0983535805593565
28.308347801658904 -175.70298888505675 -4.100970506423733
28.215694810948218 -174.61382276717913 -4.074917105042046
21.217425319703207 -205.11627881295675 -4.0432779276828095
21.250622003965088 -204.94773855282202 -4.05921143355447
21.12795004000619 -205.24817166553186 -4.027342469429629
21.1922907670998 -205.16942394958622 -4.0373240898775835
21.20592472060758 -205.0299896241356 -4.0500259393112366
22.69552352223006 -197.3719261008278 -4.006516682946655
22.715764462867156 -197.28077332770977 -4.0103433517176885
22.69801596219954 -197.2013049021456 -4.011366479531693
22.62253827093491 -197.43536178971368 -3.999824347056375
22.677870403405603 -197.11860144246324 -4.012122510243588
20.113381405134447 -204.80078442893833 -4.014826126747524
20.04922612204574 -204.67331054673048 -4.0223548697068825
19.532368600496106 -204.50263740395263 -4.010791765640122
19.916995926636528 -192.6201838638343 -4.072091890686992
19.919994015762327 -192.42657382984487 -4.075957022116646
19.86460869105309 -192.48177687888358 -4.071940910423667
19.895191894875744 -192.1088348089924 -4.080455763312021
19.830801649364513 -192.15791211997345 -4.076156741583433
19.79904805756101 -191.93114993119613 -4.0785094661407415
19.650372642893196 -192.11576013986053 -4.06733196193561
19.575841148420576 -191.54546275040465 -4.0734377438020815
19.550995153918873 -191.42090984919622 -4.074227360519693
19.44292875221247 -191.54135340488924 -4.0665852710685915
21.366190331506967 -173.83123436976584 -4.055919539540892
8.061095311756059 -233.9680791081613 -4.0623568277543685
7.732238236095956 -234.46417396044728 -4.039896535555626
3.4264388583710996 -192.30571548351122 -4.078372112055209
3.327880510698428 -192.40054538284582 -4.068807526039189
-1.0036940199371642 -189.0955580465856 -4.0675563803493535
52.94317245671285 -205.73143240807912 -3.9000723837864815
52.7946932166774 -205.8922894743835 -3.895047939344241
51.85575237618719 -205.58858578087438 -3.9768720951629106
51.49700842580514 -206.4532409857231 -3.922653713561494
50.69108094614075 -206.6216667439426 -3.9555388620077396
50.67952130884905 -206.48332887469763 -3.9685238751029632
45.74698011007532 -223.82281919569306 -3.8781066545581626
45.70021230352529 -223.40588834386955 -3.896708681493161
45.74895913214981 -223.2788919139158 -3.9013162687505876
45.646468181065266 -222.91810770694647 -3.91854745074491
48.51188670920746 -203.85979177655588 -3.928444236818936
48.436632264751125 -203.79915479896195 -3.9401702232680758
48.38535297003885 -203.76964595299225 -3.9470743119799825
48.33856564897894 -203.70024360456634 -3.9567798736189705
48.31455388623877 -203.6280486584007 -3.9645308456091066
48.45075315639294 -203.19624397444383 -3.984808324387396
48.29066915201806 -203.5746561052603 -3.9708990575912577
48.28915511811129 -203.49638240533562 -3.9770497103246805
48.311455610999836 -203.4127131748382 -3.981364925484875
48.333773365773794 -203.3470119155369 -3.984314865988948
49.845814728776105 -191.61622030743516 -3.895829053679093
47.46855110149734 -197.6934835591182 -3.9716173586368404
44.55950154387335 -197.69153468488278 -3.8890992013960557
44.4829262610824 -197.69429032381984 -3.8984140714672497
44.38676356841577 -197.6593878216809 -3.9098914336746313
44.32153511405204 -197.62163595488366 -3.917556022084173
44.29380574945643 -197.56545063191612 -3.9205847727765555
44.27495743121134 -197.4988026614119 -3.9224670145158997
44.262891797550374 -197.4189260724245 -3.923425665592897
44.26337930348781 -197.3238877242906 -3.9227790931336672
44.26642355726652 -197.25861168227132 -3.9219938122686733
41.79914219482085 -208.5950732374493 -3.952316731874657
41.682577967848204 -208.56636604482068 -3.9699141175755206
41.50403203056684 -209.02182554207465 -3.9278646657544654
41.55856222935481 -208.60802115793678 -3.978839250646555
41.628659978768106 -208.57343032729267 -3.975278307923753
41.4316132264408 -208.88831095038285 -3.9548494142015413
41.420979891831394 -208.79157191782986 -3.9695626148763905
41.458573014762095 -208.70008810690516 -3.97789358317569
41.50342268817427 -208.6519562744679 -3.9792776012812516
39.99243156589991 -210.20795521044917 -3.895044281744295
40.02557269016173 -210.18342808677255 -3.8963056838525634
39.90938503377999 -210.19616852066648 -3.9040329071391406
39.77460810024138 -210.25602742010042 -3.9051335422959266
39.83094543973215 -210.22308962421442 -3.9060619493353084
39.62746924244901 -210.42104573498384 -3.8888404395808625
39.659507252203845 -210.35412169834908 -3.897735222670499
39.70968253230134 -210.2902572973437 -3.9045886148625
39.59657410483237 -210.4321527136484 -3.8893499950822674
41.46239462838504 -198.64995011159155 -3.9469159126473294
41.47567769559712 -198.46087468811376 -3.936166037755398
38.19826233264863 -210.63139055184988 -3.9441985490204607
38.163233267477125 -210.60247017313952 -3.9511264328410722
38.09557716838481 -210.5674348415223 -3.9607171372324346
40.3077609214825 -199.94370982820047 -3.900196827907882
40.304445166048644 -199.89239003381377 -3.8962472764853135
37.99911913342854 -210.54145171395882 -3.9699555872870214
40.25780018384764 -199.84999307352436 -3.8982744780480214
42.434680449149035 -189.41730208082603 -3.95375309002911
37.8716820271689 -210.6040414226309 -3.9645623340972937
37.92967857932904 -210.54265321334935 -3.9729651966120194
40.07295958121731 -200.02465446843658 -3.935488983355037
40.132364520578804 -199.93754437192874 -3.920925842881015
40.1785543528177 -199.88583941021113 -3.910882078134997
42.35376618115933 -189.37001887103557 -3.958954114689944
37.7043851744177 -210.74224344245494 -3.946942868942107
37.74404160408182 -210.66195656754772 -3.9596994355788016
37.78856386799015 -210.61968296084763 -3.9654013556440493
40.00863056460722 -200.03181663088367 -3.9437419293939335
42.234794705957526 -189.46616523175376 -3.9708979475758532
37.68016062515346 -210.74002038980655 -3.948329518017534
39.848562006156385 -200.16627316627515 -3.9741489251371576
39.8670006405862 -200.11807405753962 -3.967739270081482
39.9481740720421 -200.03238786011113 -3.950897718046394
42.16139928795112 -189.3929271493625 -3.9748561028343627
39.78721965361891 -200.07469449911758 -3.972986041628193
42.08051827118088 -189.45576379033193 -3.982662202551515
39.68201840787236 -200.00221993612692 -3.978139069710345
39.74748015478551 -199.95250449045207 -3.966504049632567
39.84364130160828 -199.24769670531887 -3.892431583981451
39.679855233755546 -199.9028146372066 -3.9693791631088535
39.67265180091875 -199.85220295518704 -3.965619271728186
39.810744061605604 -199.22435464396528 -3.8938234637362434
39.39030464791437 -199.10003943873966 -3.9243386141751744
39.28681737429254 -199.17085229185093 -3.9406868478394728
39.296807392205366 -199.0572915200009 -3.9290340020696863
39.23375783038762 -199.10545717322273 -3.939362346581551
39.255936640441206 -198.8942377904505 -3.917167126718039
39.22641396655085 -198.85479569495797 -3.916062120682299
39.06425776026047 -199.19244901397107 -3.962651796397834
38.94963964865364 -199.20106130091884 -3.9732432673197033
38.851974652863106 -199.26413497100188 -3.9874471630364328
38.8866305224661 -199.20998263436704 -3.9793092126895293
38.74106165832985 -199.181783723211 -3.9881998055413406
36.141840701483126 -209.17090948231393 -3.898204670172867
36.11424819628306 -209.13501222335105 -3.906619157775527
36.06891641207089 -209.09551442501953 -3.9150038038301433
37.152975483378334 -197.3638346578804 -3.8956112874871867
37.12263728269804 -197.3613357474879 -3.8965229654843245
37.001999860710974 -197.3961399718157 -3.9041682107762625
37.68728603800111 -194.00134188946834 -3.965745705541483
37.75097196383673 -193.96319945992616 -3.9601891349103013
36.87128625570022 -197.26973528972317 -3.8957334816745073
37.605379637322706 -193.9668694757423 -3.967333188159772
36.82613748932876 -197.27437496247316 -3.8975237691248736
37.47958065672874 -194.08088282742338 -3.9804563526574377
37.54339533968779 -194.01971811929113 -3.9736538248977378
37.37709107017095 -194.1429364096777 -3.989031570638179
37.4166837529879 -194.0924468011504 -3.983942440172124
34.14356988175349 -207.59134466111095 -3.9119939903739054
37.1330406141033 -193.0468149243863 -3.9278685645997067
33.79989507745545 -208.172223842001 -3.8974536101897677
33.81808049491039 -208.1299496467039 -3.9077194655415086
36.95637732428186 -193.1297815951335 -3.9402040731636103
37.01402980230641 -192.95943405394794 -3.926956618563837
33.709184336125425 -208.14464011733617 -3.8903622934662296
33.7458822335094 -208.14264990836048 -3.895657166480463
33.828176021793766 -207.3404739538747 -3.8992321198743234
33.88761014126857 -207.23152122530513 -3.9276980182765335
33.88978315601426 -207.135128191141 -3.9431665567526704
33.44832229088851 -208.91293450201883 -3.8881954927523155
33.63102293364999 -208.0306183260588 -3.900231820222835
33.86151894298628 -207.13585600468397 -3.93784123403772
36.88424350774728 -192.6117192801481 -3.909424992774211
34.73022739046314 -202.22576311886115 -3.966673472206659
34.77318882502159 -202.1910494097856 -3.9671179496637867
34.80837881310769 -202.13548358966264 -3.964063537115895
36.537741661706775 -193.51860850343837 -3.980241634930083
36.7925072666607 -192.680609399145 -3.917294462261026
33.215756339275764 -208.79059781831927 -3.887674428599828
34.668191529368855 -202.22588708670202 -3.9597575049383917
33.20520242158138 -208.76597989227972 -3.8909622295712247
33.19702892426061 -208.68934502141693 -3.9034522617391767
32.878030310880064 -209.78137151419094 -3.887819889434142
32.91641601587835 -209.35883655670648 -3.9599835916613015
32.94253552247962 -209.27142317418975 -3.975829183287293
32.85488911561552 -209.35359565234342 -3.9569072599984505
33.63019636014602 -205.48686736391915 -3.9183345537395153
33.662048657553754 -205.4651742203862 -3.9265570143603226
33.66655193166851 -205.34046655116626 -3.933075700329856
33.692821376566 -205.122075509112 -3.9460460914942708
36.37148419018 -192.64923281186773 -3.9295399220701195
33.55330339066718 -205.56553663643126 -3.8967827434690774
33.56465964739663 -205.41893068957046 -3.9068560217858117
33.56436419610355 -205.2679325596227 -3.9130604974267778
33.64749227763537 -205.20437878541517 -3.9336813551034986
33.65829941817459 -205.11198605462494 -3.9386765098420233
33.64652111397739 -205.02953402577077 -3.9380225140900276
33.57959694531557 -204.9650311695135 -3.924660375923045
33.53298985114737 -204.92851771928906 -3.915166562247456
33.5827515709691 -204.63943209452052 -3.9280541390411647
33.599923798880205 -204.58947239621023 -3.9315025565941104
33.50899360412175 -204.88992790777897 -3.910525321696739
33.51351461897783 -204.799608092281 -3.9125917709422087
33.55484667917946 -204.66757254569228 -3.9221168009517595
33.578145299273416 -204.59022708424567 -3.9269269619808296
33.5903500988924 -204.51573395683232 -3.9290554460070015
32.84572705026315 -207.37998158130412 -3.8900564960663564
32.84691288186964 -207.25889754812096 -3.9071222260366136
32.85830534073716 -207.2307837405228 -3.912711260980366
32.847787424414484 -207.12296517321434 -3.9255711807869194
33.094655939468275 -205.96845678121136 -3.927605597651845
33.104604485533685 -205.91483832566738 -3.9339166574948776
33.43148477948 -204.66936958695192 -3.895884375245613
33.45294870643175 -204.42607139297957 -3.8996803323940066
35.890902048752736 -192.94791106206054 -3.9625490963933276
32.839847941424374 -207.14202996774785 -3.9218597181575987
32.798204366857505 -207.09820758041096 -3.9212386457105493
32.79383083580811 -206.98072231925588 -3.9356513957679957
32.97879893707706 -206.07347888576743 -3.896255918814796
33.05623651172168 -206.01346578235385 -3.916402070045894
33.11175929215066 -205.84682979618094 -3.940743707143412
32.72087384502369 -206.85630279735332 -3.939725282761062
32.73009484048307 -206.80391910951434 -3.947413251050662
35.629230374163825 -193.0403035139413 -3.9747078749501443
32.69909440347215 -206.72228093038063 -3.9521431180402136
35.56200583652656 -192.90498832701263 -3.96754653189996
35.64404792376632 -192.82625676604994 -3.960727010874497
38.13186616760284 -180.61771918176396 -3.9703499844608445
38.225797540312215 -180.4060260019664 -3.9596113959362773
35.52196556267589 -192.9495201710698 -3.9713125808795517
32.45731343633756 -206.66889808230147 -3.9205871161086363
32.46126960085054 -206.64149220578153 -3.9242744497167577
37.95321796957965 -180.71235424791945 -3.981761913475857
38.050399340251275 -180.212175093713 -3.9622772482962123
37.863683737265525 -180.83511943913734 -3.9898685644533995
31.962274351591695 -205.3293819992791 -3.9603518326480236
31.92198141834159 -205.30329301781083 -3.95575584963063
31.89738752054369 -205.27939276303127 -3.953523645858433
31.647866340041418 -205.53029955349388 -3.8977994294071454
31.753721780451496 -205.23594407270735 -3.9340441730287345
31.643998955673815 -205.50914929882182 -3.8986788220440447
31.534692612922484 -205.1575745232628 -3.905158465776674
31.553932032405704 -205.0116178370497 -3.916711249689768
31.528232277765596 -205.0606358008359 -3.909933312942937
31.42098397875466 -205.09527591061735 -3.891400281538801
30.577584915769187 -208.5084552237574 -3.913868702306488
30.476670979698604 -208.50189329785718 -3.9067602744690455
30.401434299484677 -208.33498583991604 -3.922305604099421
29.76143323985388 -209.75092130146825 -3.9850682718447046
21.162191894430716 -249.9842156668281 -3.8758347153409898
21.039975872877843 -249.41015801801836 -3.9065046723995973
30.290244015818043 -205.27844741154962 -3.96600949376526
20.981201260518453 -249.11566504925062 -3.9219825158009316
29.239507249825742 -209.71235301341983 -3.967735156655998
30.22430848140242 -205.2954167263926 -3.956917202680879
29.148429072636816 -209.68201208984243 -3.967614475025413
30.12091253901201 -205.3088204521942 -3.943471060060902
29.080774574818438 -209.67552662312005 -3.965537836085065
20.816771548066118 -248.64388861358862 -3.9509488965467794
20.9284574412719 -247.9354025504011 -3.9742512854952827
28.896382752747652 -209.6470111900536 -3.961002098315003
28.202617879571733 -209.5154587727678 -3.94629305070239
28.110439860968274 -209.54794660624572 -3.9382643553019343
28.2576444847861 -201.80623825919284 -3.8938756960478162
28.29187801020654 -201.74381445001433 -3.898980090335277
28.298391591660476 -201.6282783554489 -3.9022062226306824
28.24323944670013 -201.52142762306502 -3.8987455350231977
21.4976184372336 -205.96565175951045 -3.98290602170451
22.5600389026201 -197.4676541354315 -3.994553037475338
22.491006548034797 -197.495558324068 -3.989100339360266
12.959004462724195 -233.16955303851685 -3.8839574296507546
12.798882571853461 -233.1561248306355 -3.8927946221290233
12.703658651178053 -233.07140866206126 -3.9039769958002752
12.517488312462326 -233.0844239343571 -3.912051756327859
12.553114430279749 -232.67434546691348 -3.942051192799475
12.484373538308837 -232.56266887540284 -3.9540553831302017
17.433203063104134 -204.37760936371046 -3.916180290679323
17.522260849854977 -192.46659268809853 -3.9408100175648544
17.402371063516256 -171.4575613545751 -3.9659887604209656
15.4925631370734 -180.23311681775013 -3.979647413883138
15.909200000671273 -177.27915585647025 -3.985511821708589
17.048439148285553 -171.41003888473506 -3.959200787848089
16.86750356525151 -171.37317692000443 -3.9552853942911446
17.000973768137875 -170.47919388301193 -3.9461207963768175
16.48269306514679 -170.16988068843278 -3.9332236931870055
14.28442899444179 -176.40845006981945 -3.932536130894035
14.43150810330653 -175.9605804702843 -3.9352350544465837
14.297064639038464 -175.99845889721325 -3.93144207838203
6.285087639243262 -196.9804895587272 -3.9202037867887847
6.161694808514621 -197.17055461051126 -3.9018187844266015
6.241290489362971 -197.08145621123978 -3.9112738199154142
6.277565652477897 -196.85717729987638 -3.9277725722044385
-1.5694005048777058 -191.3680919597697 -3.9132308209098383
-1.6748269150011836 -191.17224972071125 -3.919927209220584
-1.6936786397770902 -191.00874719624906 -3.92896837085602
-1.7266440592313899 -190.8390084533834 -3.9372417255699745
-1.6722169313661865 -189.92850323687838 -3.992151077809419
-2.1286573753524607 -190.36373750269425 -3.947236565292266
53.518298597074576 -213.03495338050098 -3.8106983959391467
53.27987345343402 -213.32451628089976 -3.793325801635942
53.934477540801495 -206.15469525011173 -3.804561325239473
54.015474291963486 -205.8111330823815 -3.8297090886541185
53.814148294560184 -205.9842378854057 -3.826735351572008
53.67078896261839 -206.0436444127856 -3.8298527436116334
53.69778911965584 -205.9297006372836 -3.8381918969665163
53.2155145130916 -206.21011006654902 -3.842436396664853
53.04741871088117 -206.26395743619202 -3.847502715335035
52.701010471869346 -207.00304760121182 -3.8030112122660906
48.93971909805582 -224.54965313604387 -3.8004331518517125
48.729984739044546 -224.64491585386767 -3.7985764152960573
48.642674960179704 -224.64372136006716 -3.7997933231757757
48.48533395923394 -214.18085410140026 -3.8503141371181817
48.39621577908109 -214.17383543345838 -3.8531475528182795
48.215201386412645 -214.5089702707274 -3.8318629002002798
48.18282048135228 -214.42414142569405 -3.839466809127568
48.21800816578229 -214.2742961111133 -3.8501011971439953
48.26859416170774 -214.25397703017924 -3.850432966287285
48.173697734990974 -214.35795512694273 -3.844767917976396
48.18800463074984 -214.3100728355659 -3.84822792776787
45.65464964963404 -224.02987163166674 -3.870844819365616
45.690280362079875 -223.94342966737292 -3.8739615582011324
52.069310435632374 -185.61124490323775 -3.8116776211004253
50.39242837920432 -192.85138485231053 -3.8078132746803695
50.19676657396198 -193.23515190614143 -3.817398906368851
50.34048966966708 -192.81518708778208 -3.814235786022677
49.95283041289758 -194.1689320500019 -3.8158206700993897
50.35573091501427 -191.52811713126096 -3.8467531527178034
49.920389346225264 -193.16512218159286 -3.84812474792529
50.29968674804556 -191.48976035684103 -3.853381713460328
49.92889998436074 -192.6913242299614 -3.860090992126702
49.618970977567216 -193.3033132729211 -3.87552169227042
49.749136232627265 -192.70560097018145 -3.878115861624677
49.634377715504634 -192.74186363846212 -3.8888717519671943
44.636616944771994 -211.91435465326194 -3.8117784056767325
44.49828160361039 -212.21571266418528 -3.789047887748562
44.469492906803644 -212.10642725731205 -3.801667367822467
44.52551976258318 -212.00808606366914 -3.808468111455933
44.58934365173084 -211.9373209907435 -3.8120951492749438
44.454487863706206 -212.09348603413258 -3.803710018165546
45.2063392508164 -200.24337941103042 -3.790654821015866
44.99658701893222 -200.284692664727 -3.819400462274186
44.609874064675736 -197.6893673433334 -3.88295392594761
44.72342082051273 -195.459088279668 -3.853983588173197
41.659028230717325 -208.5718993045072 -3.801390867869201
41.561890777632264 -208.5911378722944 -3.812818038687185
41.601407296843 -208.56694038556628 -3.8107167739976737
41.393319295881184 -208.85278195400298 -3.796047530261126
41.39599407606826 -208.78532671208023 -3.8064976248323124
41.43675521325581 -208.69613290633123 -3.8147599704787005
41.50005142491317 -208.63071379933987 -3.815783371588669
44.26391488799691 -190.86392005662813 -3.8267314484200834
37.96929103244823 -210.63844441829264 -3.791894806715348
37.97238003666004 -210.56839610402008 -3.806856682270431
37.875199294484055 -210.63161029653767 -3.7979529077511467
37.757397246847134 -210.64149821584857 -3.8012204636274083
37.80464660597813 -210.62928727833489 -3.801738630907599
39.811806733994985 -198.83297626957966 -3.857840297254226
39.792356438986616 -198.71075938072997 -3.8485546218251843
39.829780921622174 -198.28063716060643 -3.8049800216462675
39.825383306213794 -198.1904604501481 -3.7969665672812414
39.806119320830895 -198.15402364048953 -3.7955313617935484
36.15492697049383 -209.22568701755966 -3.883919636531507
36.11819846186473 -209.11768376576566 -3.7879516766548056
36.075836155039866 -209.11112055273477 -3.7871974742887913
37.68850230447152 -199.29649401378734 -3.821254756746585
37.71384206974807 -199.19987677583666 -3.8068231602419447
37.73938625965448 -199.12915904981554 -3.795966940870324
37.66501176814897 -199.27030003967693 -3.8188209137823987
37.60596589905262 -199.17850129151373 -3.8092307274295774
37.64259047762854 -199.06985370535352 -3.7927599792280553
37.57088386953993 -199.07923256838808 -3.797378753407549
37.54652544821747 -199.03169318039218 -3.792086926596438
34.038933311443984 -207.8236175984414 -3.8499904580262116
34.034894150499184 -207.78863188123142 -3.856044391777993
34.13812964885548 -207.42847784446664 -3.8042768250152386
34.21278025082192 -207.3423061823809 -3.836357048495794
34.206988439506375 -207.28794222655003 -3.845059038906558
25.90509211822843 -245.9323724611006 -3.7835356148175583
33.94303560944232 -207.91475818377165 -3.8159133685883377
33.98603584924636 -207.87899703381683 -3.830190315611487
34.008918054021905 -207.74393554178923 -3.860038769587072
34.01491847027516 -207.6526545671069 -3.878142195569652
34.084110400782436 -207.40665121677074 -3.7968505283313627
34.1114933659005 -207.27770035570782 -3.826271842937137
33.54619439577195 -209.302420820497 -3.8243841458647783
33.856153519449336 -207.81593998929714 -3.8200342912885796
33.951066398742576 -207.60806211673275 -3.8750994673275714
33.50631068980107 -208.98636800798582 -3.8801484205752934
33.677600131564056 -208.1436235780625 -3.8862535370086744
33.441737085480504 -208.93108430199106 -3.884255161943406
33.5314875121719 -208.09476523658748 -3.875146397038889
33.230670308922846 -208.87510959216402 -3.874225687289825
33.21994424599533 -208.82948204942306 -3.8812622819302023
33.39317942861257 -208.08385420909485 -3.857948914557106
36.8112878077371 -192.16975726581316 -3.883401053100612
25.12361788368048 -247.01801118616564 -3.781073437180991
33.09405668321676 -208.9921277471704 -3.840229618694655
33.30514725702847 -208.11777461229252 -3.839754135150028
33.48775863158602 -207.1864449527593 -3.8607594996277856
33.47724607705405 -207.15946513002 -3.8628390052613693
32.75017239242461 -210.04202937702826 -3.8362674644708488
32.789090742265834 -209.98345012739307 -3.8485101129337966
32.82598653949432 -209.79514287482357 -3.882438695003662
33.23506115987974 -207.95630480447974 -3.8576857053298212
33.21967593714832 -207.90121161427973 -3.8646988004706255
32.6580244753998 -210.04473958464305 -3.8304574917820435
32.91680115621699 -209.1599230637473 -3.793260211732198
32.557623996316416 -209.9720767887769 -3.8367060139270075
32.875811047043825 -208.79822731689384 -3.8526671594327775
33.0108388707786 -208.16926795395935 -3.7897570481188394
33.07224437873728 -207.13388555744746 -3.7908453096944505
33.058083483396814 -207.0803597459373 -3.7957956380436944
33.34304087612607 -205.76185999716645 -3.8365454351628827
32.36694953621491 -210.08769175082 -3.805956612062833
32.609193284754326 -208.92377047701063 -3.8043874003923817
33.02501790760105 -207.02109967518183 -3.797749373042879
33.02705528311199 -206.92455246251254 -3.8111792628347647
33.335272036623195 -205.7610942455972 -3.834793134251832
33.372044815333865 -205.47845938458323 -3.860508532850919
32.25114292737609 -210.144745771903 -3.789406338611692
32.327105313351574 -210.03215016940854 -3.8127402240478525
32.77872069467473 -207.5747246886799 -3.85169714669337
32.77320054205279 -207.5133223786053 -3.8599364346005967
32.98289417255315 -206.8743820467722 -3.8093787700457384
32.94935994529208 -206.82734197636177 -3.80901800984832
33.39028808443099 -204.68675271672714 -3.887013911098691
32.19997028550845 -209.98344567072857 -3.812959302352609
32.71976948155641 -207.656460526132 -3.8307151375519553
32.72850917219603 -207.45433978063198 -3.861799942770854
32.740370572286935 -207.39476342905115 -3.8720687703920724
32.88143633093668 -206.7703656512537 -3.80321569275731
32.87207650578949 -206.6614340918522 -3.814631868018973
32.862144543441616 -206.58345981797376 -3.8218033373515015
32.86861911307956 -206.52324579194763 -3.8298824122734842
32.85253450272285 -206.5405926455055 -3.824825509276004
32.84764129801974 -206.50876294431055 -3.827439355890962
32.93750975325245 -206.0882851698825 -3.8869517423679127
33.22902160084916 -204.76831863892536 -3.851600851337344
32.743816009234166 -206.457702085464 -3.8130464205015997
33.080836285876195 -204.70348422150954 -3.8203420186672123
32.34492456733544 -207.44949993723964 -3.804711230444604
32.334494864969166 -207.4328293866438 -3.8054914808284277
32.294045053556005 -206.80404293822033 -3.8797667030873084
32.158828747316576 -206.8485016807684 -3.8535643919118745
33.918503907685306 -196.4777587264356 -3.827230857960732
33.9761251020821 -196.37549100769786 -3.8195447180070285
33.998794756561566 -196.2824139286337 -3.811833929183734
33.78866573068908 -196.53917330464427 -3.8294205434973527
33.85084081153022 -196.50139978890596 -3.8277380202209885
33.68366793637301 -196.51807463854362 -3.824848316757236
33.6077678573135 -196.47367015072675 -3.818976566002531
29.619984759137534 -213.866275031324 -3.7874231408949885
21.89987573397628 -249.8558064979758 -3.840076241911726
29.539459261832018 -213.86499780320187 -3.7875033006906325
30.59413198791044 -208.74634876327048 -3.883563509474758
30.536438577652298 -208.79558936396154 -3.8723941496797942
21.78993543834681 -249.69728448682474 -3.8526198232698925
30.431102404716214 -208.722383135783 -3.874055234388857
30.62964719841153 -207.45280091867795 -3.7965519140839223
21.6737537821944 -249.54650522850147 -3.8653758868781525
31.067727359547824 -204.66008920849552 -3.8611087465884415
31.0771940232985 -204.6149449511673 -3.8646967513891486
21.46698158822301 -249.6303091051442 -3.8733591385760455
30.90728533388331 -204.73008861676203 -3.833192302679247
30.997442246885296 -204.69107948511675 -3.8488745325699387
30.898101705538338 -204.39039890302007 -3.8478922793177275
30.886959101923676 -204.3502638712912 -3.847947799087857
30.7389770320315 -204.81645591752894 -3.8028699515234945
32.07181980171912 -189.91295658680235 -3.812461714456786
31.160190226287334 -190.9439996207292 -3.8587809739115695
31.04765699630554 -191.1159650318539 -3.8659090971598866
30.842684438620473 -190.9310298987291 -3.8526169215005996
30.70378115925665 -191.18413954544587 -3.8627314627414324
30.79615292328778 -190.68311839345517 -3.8389031760787464
30.547379967201977 -191.3806636638474 -3.8691253460352515
30.83781144024896 -190.02245627954161 -3.805279333217693
30.93275151044046 -189.93998965789345 -3.8023696763697257
30.48967927921396 -191.45701070587853 -3.871500724233889
28.143344196570155 -201.86961470365313 -3.8802502338689777
28.210218139031905 -201.8427217933932 -3.8879938370431004
30.376657461996345 -191.54760871581615 -3.8732276291340773
30.405413520348812 -191.4778668151005 -3.870459188518474
28.061167985760207 -201.8900522020125 -3.8709379738698564
30.205256593835554 -191.58403948780057 -3.870500938235878
30.284278217370428 -191.48857877080033 -3.8679633311002286
30.129630102722484 -191.61920986481692 -3.8701930389404513
30.205817465269444 -191.45857350488689 -3.86459076202377
30.00270635573032 -191.67924224517094 -3.869460351720516
30.020857763010802 -191.59101497438513 -3.8659184485139915
30.259994989477192 -190.57001664145758 -3.8223500023986556
30.313186226270645 -190.47576773103265 -3.8187490234766512
29.922842044360486 -191.6490350743833 -3.8658537750242665
29.86224143570764 -191.65624733889274 -3.8643418444434676
29.68899896762467 -191.695157876576 -3.860998583551579
29.74918265577714 -191.6262130180924 -3.859638069801274
29.605501495375893 -191.71934253366092 -3.859446207265301
29.482749471317696 -191.66755228129296 -3.8531766440784923
29.373657229128078 -191.76353320026286 -3.8538891088884073
29.233548078481167 -191.80500333267145 -3.850976104629967
29.26866757471969 -191.75003044580987 -3.8497164627281766
29.20171111702831 -191.86749783011638 -3.852479977892719
29.010576755482294 -191.767009616639 -3.841385184350667
28.91126621272166 -191.48696143138793 -3.825978886782603
18.148448865050803 -230.69171375189364 -3.8240346167084835
18.121806473983785 -230.55329792607523 -3.8359252159975723
18.041556359910764 -230.48421464056852 -3.8450487083504026
17.910078961704645 -230.4760623453151 -3.8519932161326977
15.849253685291874 -232.64236572027235 -3.784782196523614
13.995660073637413 -232.76688824119051 -3.8646806509764464
13.901885468985963 -232.6864081773778 -3.8754469990903044
13.595475246904254 -233.4081414798475 -3.834651602524559
13.31348679227354 -233.1554729882531 -3.867811952032276
11.791390218796987 -175.0330531909103 -3.847677461160278
11.739103721473139 -174.5219762746679 -3.84517795135948
11.50956635543318 -174.9085101731328 -3.8377244050615134
-1.7134645761993283 -192.38683083144008 -3.844941902453569
-1.8005611098331187 -192.50957366313844 -3.83367151107925
-2.0283809931345402 -192.73763846856113 -3.8091660989181966
-1.7476150572712754 -191.45633653857013 -3.899813385223021
-1.8095439732664218 -191.5888155034927 -3.8893538721923195
-2.5495033834893803 -191.46952164343523 -3.863193425042196
-2.6590027458217236 -191.5836577228909 -3.851619547390328
-7.012171424547034 -188.59722797171995 -3.835561440202012
-7.475291000992058 -187.69916367093245 -3.8670823982532703
54.931856774081524 -225.114312682394 -3.7254544129101914
54.465751343955056 -225.39753288030374 -3.7134751352643205
54.76563532699615 -214.06985500482008 -3.695508186883055
54.526011810815774 -213.2582961216348 -3.7672728409751266
54.259583885485355 -213.66399302726614 -3.7410703581757385
54.28049689157312 -213.56871102977215 -3.748331655625085
54.36695376881037 -213.3312785354088 -3.765369064408208
54.18909470174729 -213.42488896127637 -3.7622014059406315
54.23905124879228 -213.2088112162372 -3.778355331027921
51.52608969605003 -225.0123632769196 -3.7526371819160005
55.23682584510141 -206.4593145886233 -3.7010366683907123
53.41165524456494 -213.515230434806 -3.774581226212768
53.29198416755453 -213.52584679945315 -3.7769468216025093
54.088622349070874 -207.41972252894655 -3.6840597371417694
54.17041905883858 -206.96319630850067 -3.719619160082032
54.189970009824215 -206.84669947747935 -3.728739580003916
53.92454900548464 -207.46763522311022 -3.68967856013971
54.001068994362996 -206.67046954917825 -3.755598527384068
53.73766408174734 -207.67433381552917 -3.682351764852611
46.58182255769981 -227.6527426898035 -3.701218062469014
53.62151407646206 -183.23322348774644 -3.7127032918371836
53.195063023237246 -183.33616300158855 -3.750635873339789
50.90338149908837 -193.94209476169158 -3.7211472471119365
50.93748301826044 -193.82259738177254 -3.721277450423205
50.92451131819393 -193.74959463942017 -3.724943990171211
52.56585790686459 -185.81252914669284 -3.7604326340914236
50.835993584602576 -193.74811645192182 -3.7345039824547603
50.738709719671014 -193.75222856990396 -3.744771979843038
50.66278807497254 -193.7356603776842 -3.7534133722477985
44.53087753972873 -212.28694199790047 -3.7801732891381974
45.23790308991269 -200.26169855333848 -3.785952282265952
45.40388951426323 -192.7883707634267 -3.746628903534871
45.31465004792067 -193.04857109774795 -3.7597592002645066
45.30047839197225 -192.80531917787783 -3.7578107793523285
45.234431814898045 -192.76594412032537 -3.764190839917936
41.4666883474237 -209.02780206202266 -3.757189730722982
41.4433506651352 -208.95901087786342 -3.7716949857321858
41.42215216040299 -208.91328170547314 -3.782152496661121
39.867242512629375 -210.30425384066683 -3.7184866391414033
39.784738624671924 -210.27424447107245 -3.7326857586171647
40.04811764515991 -197.9435386117871 -3.751738626801407
39.969864185693574 -197.89315140562945 -3.7549374289599102
39.80817603027761 -198.03903956880436 -3.784531603994371
39.79904731725985 -197.96026341759347 -3.7781075308531595
39.80486088128271 -197.81973195564362 -3.7643074980436824
39.79210128211713 -197.75046700662605 -3.7590879912800377
38.59596637004138 -198.99728738716541 -3.722138301747684
36.155855140255625 -209.2007815994971 -3.764887944814686
36.12897496269469 -209.14813241227574 -3.77935526800652
36.062022002700374 -209.11670542155315 -3.7845726952971006
37.970987598317976 -198.80761294254472 -3.7395399202362167
37.83798130223426 -199.01740719027788 -3.775564266811411
37.907108670380794 -198.8350645242694 -3.7469586498885707
28.063942760512056 -244.95270175449494 -3.7117508086145508
37.788822140004754 -199.02951349206185 -3.7798570424272606
27.376072238188108 -246.5392665276927 -3.68350020755744
37.43641054992753 -198.48361984933584 -3.7225349795791276
27.215210302318084 -246.58310046735096 -3.6898292972840943
37.37269176874186 -198.50921772702895 -3.728590629455702
27.261444869198257 -245.8435626905871 -3.716996801007797
37.23460126626461 -198.67594125842476 -3.756464727252598
37.24933074112143 -198.60659253049278 -3.746495908967418
37.1167298142692 -198.64621936132932 -3.7564218280824697
37.168464509147086 -198.62748237997727 -3.7521805998231823
37.07272746055357 -198.5694755857346 -3.7474622451002033
37.037224388212486 -198.4327056699249 -3.730021551700958
36.913638141988216 -198.5335878434698 -3.7471796907189736
36.996942014528635 -198.42759499965305 -3.7305460656483636
36.95271381002561 -198.37524150064252 -3.7247678327268696
36.87166079847695 -198.5093903384506 -3.7449695285861218
36.9217543810741 -198.32198983475644 -3.718387218350032
34.004871969721286 -207.5324601200969 -3.756115372356379
34.038413034794274 -207.47851838392586 -3.77353802563948
33.61066239410923 -209.07893624909283 -3.6933468452058382
33.85144161088036 -207.43000367764049 -3.742611428598627
33.85244363165732 -207.34544935803765 -3.758073810054417
25.44706684710629 -246.97931593131008 -3.7655490634490127
33.68991397378127 -207.86464353876136 -3.7820799649644776
33.74385334673831 -207.35039322583773 -3.733613585940918
33.77431386120954 -207.29987130621254 -3.7490177286577824
25.25488717047159 -247.1035924720862 -3.7705918388190423
33.30569657826754 -208.9208706872739 -3.688606976097714
33.31222120496761 -208.84381260872024 -3.7048048595033567
33.667558102083746 -207.27042874509695 -3.7307278860035336
33.2687416940419 -208.83969447988594 -3.7001265050117986
33.59209992098306 -207.26170000770114 -3.7156424123114205
33.19671084486504 -208.36596431583897 -3.780577580239404
36.03778857949651 -195.06560312739725 -3.697874946124605
33.06133579561361 -208.74430592735985 -3.691902892311252
33.17174080975151 -208.3497668169879 -3.7801046838380463
33.15436528880042 -208.31068953442414 -3.7847658999077147
33.0108803745605 -208.18814478698664 -3.7865280186133905
33.05391200589189 -207.22676134935645 -3.773906346916008
33.06033514685005 -207.160065939802 -3.7848318888974926
32.90733354995788 -207.44853730386038 -3.712977220099265
33.027755278859004 -207.19178786902216 -3.7741413551710608
32.9846243742154 -207.12825281991593 -3.775214619941757
32.15734307627717 -210.1848593119666 -3.7770758080608475
33.00512700825939 -205.93247025249718 -3.746206548636807
32.928686081533684 -206.04037890885684 -3.7195464402735166
32.94774884453171 -206.00120511893448 -3.727317871746722
32.99162926317145 -205.7746811957217 -3.7553890135476946
32.86842416714183 -205.95749406141613 -3.71281401231031
32.86827048483749 -205.84378194289485 -3.7219426245856906
32.26982286074322 -208.10775414197113 -3.69436738942971
22.694886084528218 -252.64467878365065 -3.68276931887653
32.19353052334259 -207.63367988778447 -3.7557024844510387
