ply
format ascii 1.0
element vertex 823
property float x
property float y
property float z
end_header
-20.59599791805116 -197.08190962424018 -7.64411836814862
-20.65418398209897 -196.9190500085767 -7.658828528210224
-20.475736299641923 -196.39095807478512 -7.570246086513886
-20.446286487822533 -196.18364794908751 -7.604351270032792
-20.39057647271554 -195.9956544401618 -7.638812842525101
-21.11894206331203 -199.0008027088534 -7.596486289254188
-21.102272877708618 -198.92883023434717 -7.605390804949463
-21.089079364084622 -198.77345116460384 -7.6231291383440585
-21.04768224034227 -198.7116178182002 -7.632594550331895
-21.049138453666917 -198.60533175235213 -7.643940639274449
-20.519292929585625 -196.16452887015816 -7.596985362880406
-21.787820766520994 -201.47494417347525 -7.622089398507125
-21.81554921597337 -201.38278122766496 -7.628509656193009
-21.739392598327726 -201.31314759079189 -7.637522142769748
-21.88906424220273 -201.37628221257066 -7.625897055149686
-21.840239618314776 -201.35778576174025 -7.629555586585228
-21.14761834529236 -196.7527518287288 -7.625065284564505
-21.369370207839427 -196.5634869045584 -7.620634644249596
-23.965202837576317 -207.68123419911063 -7.5856396935881
-24.01621395794777 -207.52548219565577 -7.592735477997594
-21.5395314502213 -194.66323839598112 -7.598321663551193
-21.70899658962645 -191.31779568245025 -7.598293067110461
-21.70394431215914 -191.2394255818776 -7.594578969613315
-24.816250253259977 -184.59283383860546 -7.583093859222799
-2.520461790766017 -236.29212498320473 -7.511235639312742
-2.6701416692565 -236.34876388153094 -7.510327047476737
2.532110875333302 -198.9137546142178 -7.459476634034534
2.549954203500974 -198.77075287494077 -7.461709885437799
2.4840105543733095 -198.82422878470769 -7.463742942890337
2.1229891616213727 -198.57310709000942 -7.486235050428865
2.1271227599931066 -198.5015870475856 -7.487501996329677
2.0158225924590276 -198.39694820128705 -7.495038643095103
3.459139201265767 -188.92180054978203 -7.495332527451238
3.4214857456487877 -188.85437451850018 -7.496980389051684
2.253316741791462 -189.29520381437248 -7.556033810445331
2.1602562473871103 -188.9967643731247 -7.559142566084279
-6.003370157332617 -207.5355760940941 -7.501429663072539
-6.102749716016108 -207.5083799823841 -7.50556996789857
-6.181412814734323 -207.50777935837647 -7.507987046744537
-6.32219734315481 -207.5855002084353 -7.508334556967401
-6.25038789133267 -207.52215005537013 -7.509238505026235
-6.384703477186568 -207.77007701743221 -7.501249607931364
-6.367162219745019 -207.68557052650542 -7.504879942846527
-11.15841558640595 -198.79270947203628 -7.470692018897985
-11.319711836000412 -198.83695901667767 -7.480250158087531
-11.321668898728355 -198.75202935686048 -7.4882929497304875
-11.287435730040407 -198.7272876977357 -7.487681642840532
-11.344384934328716 -198.76912024795908 -7.488660167504898
-11.074642323172132 -195.64596676905995 -7.463277616166787
-11.066696448555462 -195.58615448818787 -7.466333798990831
-10.777974194408593 -190.81629751378202 -7.481480066249058
-10.780240965924943 -190.75686412592944 -7.479120496303176
-10.84146327384644 -190.7160655600609 -7.486216497391481
-10.811740268677038 -190.61887039701264 -7.4771537957837655
-10.815722367078294 -190.5440819985204 -7.474003843916114
-10.79058375693246 -190.4119395618899 -7.463480762686744
-12.14985377753451 -196.67614840876197 -7.519048449225198
-10.816524183788188 -190.32819217556093 -7.462672043287643
-10.849851226548667 -190.23940874098295 -7.462446244950653
-10.942573011067736 -190.14821485252972 -7.470338920090377
-12.438947280952167 -197.08947068737262 -7.510220032271752
-12.303447621985534 -196.6696672864347 -7.5387159680765805
-12.380197409915823 -196.58474276543322 -7.556836860188303
-12.557148535170956 -197.01449061738202 -7.532289859760861
-12.567884521887446 -196.78174732695066 -7.558972467318454
-11.24447979522947 -189.87693967579415 -7.495340830459743
-12.793015872176081 -197.02725907031143 -7.557911919906342
-11.388371611837407 -189.70539751663568 -7.503067264027607
-11.381947863265163 -189.62247448424176 -7.496152698422218
-11.34464909158541 -189.5063758925163 -7.482506269153021
-11.51554857503807 -189.94298461127966 -7.537219193776432
-11.514091363126717 -189.8913375444032 -7.533377439857574
-11.504759336337145 -189.80932530740884 -7.526309410835987
-11.389754869220173 -189.58719164507718 -7.494566938217614
-11.36234569164355 -189.4623959557048 -7.481507431034069
-11.357281030093375 -189.43236690247872 -7.478590349917355
-11.540409909018994 -189.88003369156183 -7.536227608865362
-14.244067409313178 -200.11103959822628 -7.53483373875235
-14.278147812163548 -200.09919667354137 -7.537719468587888
-24.421461261246705 -239.2279188619941 -7.446270739857239
-24.579390820988102 -239.17868281968836 -7.446577058788108
-17.05911762464957 -197.30372083821868 -7.485565535519996
-17.13046200932344 -197.3112829724104 -7.483959316068088
-17.113291388423963 -197.2648464433552 -7.4949486100055625
-25.631285048556414 -236.1040188482134 -7.51257646127798
-25.746871643700683 -235.87933506377476 -7.51748474100542
-25.815485672713738 -235.42906752044377 -7.527113698786146
-25.922271560995746 -235.18057543090714 -7.532582574347
-26.011788988606995 -234.87388975068234 -7.538876000998917
-16.11561256969864 -180.48544168627143 -7.501667412817223
-16.045105447891107 -180.1895077243756 -7.477048701045925
-17.58633727780389 -187.7403242097702 -7.537043076883393
-17.57042977331445 -187.7095082364363 -7.531542525316956
-17.553271202245043 -187.4166992945417 -7.476716619325364
-17.380195692812755 -186.51407987478842 -7.540189590143791
-17.309768159450364 -186.0455439707112 -7.469096038025256
-17.006967779725706 -184.70252383943244 -7.557958200581666
-16.96297147902117 -184.67575688898205 -7.554746781364583
-16.915894007978025 -184.09080286408602 -7.48623848209428
-16.87971230236559 -183.9190856764042 -7.466002064434971
-16.306488173240282 -181.26808474516747 -7.5664328538510714
-17.86801959616135 -188.63206552914764 -7.537948076582098
-17.699801298865953 -187.7010228245867 -7.527554929229689
-17.694557076201225 -187.6640314101787 -7.520723158124424
-17.651088459327674 -187.56872856014866 -7.5036717604406
-17.451688472530467 -186.6413718756467 -7.559059429588509
-17.432123870237728 -186.57917819659883 -7.549772686191835
-17.416836945810935 -186.38872415006196 -7.520786604141703
-17.354834021110737 -186.2027908767926 -7.492864727632008
-17.04288388853993 -184.2826330018817 -7.508836745442656
-18.12200388768966 -189.18123085019892 -7.503144248859809
-18.082880363172656 -189.08325700345114 -7.480696794538064
-18.05147445125437 -189.03245901086217 -7.469625860015936
-17.988355153189787 -188.67683112767796 -7.54293866298356
-17.965728306180754 -188.60195610018218 -7.527326560398121
-17.89601710329636 -188.34618547660563 -7.47333051358515
-17.763408463483763 -187.79272769486175 -7.543364865819296
-17.765722465939994 -187.77319637493846 -7.539681118693565
-17.73914426760128 -187.68726207821635 -7.524142096243704
-18.146287735176955 -189.1683781783245 -7.498279586236818
-18.1296538784902 -189.0635628929025 -7.472728897950988
-18.07759589575337 -188.70351635913792 -7.544704060987646
-18.05224530481841 -188.60270900457024 -7.523693948631787
-18.25445929495624 -188.61492571413035 -7.515958332652371
-18.262032585824723 -188.48422863790998 -7.486960241627797
-19.874256810265962 -195.58756395080636 -7.488845156750894
-20.04651736726494 -195.95669025917562 -7.538802321055635
-19.915093399278955 -195.5530660912258 -7.487671386283353
-19.929292345782756 -195.4874010516147 -7.497379905007661
-19.930435931553795 -195.33708895981243 -7.525215231819649
-20.561434023015085 -198.09523789824036 -7.511895088702397
-20.539901831169797 -197.94615624853802 -7.534365634058776
-20.34352896444094 -196.96931760107833 -7.498363743030584
-20.175794458311884 -196.1277057926789 -7.488545436661873
-20.09380776903108 -195.96411906270106 -7.529987246418781
-20.082365285591713 -195.84750226189254 -7.55182288424321
-20.11653903770832 -195.77990289285327 -7.557624734332851
-20.004067787213614 -195.4640477219983 -7.487050135926558
-19.963062668907313 -195.35452217266402 -7.515436417849085
-19.949873163564437 -195.26974564198161 -7.533477535596904
-19.97526623646325 -195.19159773940333 -7.542124868437975
-20.61417486201209 -198.13613203756546 -7.501667908348672
-20.62695764410762 -198.11587685096913 -7.503309153775241
-20.627541932356237 -197.90559695906592 -7.53205198617761
-20.42490194946961 -196.98481760613723 -7.486079893813462
-20.40358843841894 -196.92908491923905 -7.497442895079816
-20.36763737862798 -196.78641722556873 -7.524238467194813
-20.366217161506956 -196.63638677000029 -7.547640792041523
-20.231976837246133 -196.2110981609779 -7.465081987448551
-20.188022497565324 -195.7785868910728 -7.545953506217415
-20.183854941693586 -195.734875950986 -7.553838078544029
-20.119660392759016 -195.29233465501645 -7.4944584296140135
-20.081440877973844 -195.21965388530685 -7.515069875264023
-19.0173188658788 -189.63016275768214 -7.538694196982587
-20.684548871158512 -198.0842896430488 -7.502567220880946
-20.667153404192955 -197.9068802855898 -7.528296956675739
-20.63857983297078 -197.7570149559997 -7.55115225312389
-20.499575338939596 -196.87563580573578 -7.4939458143302495
-20.190911529600978 -195.38515241322222 -7.463367180158002
-20.74221951656473 -197.82915093420206 -7.531819494591957
-20.74088807459277 -197.68549202454247 -7.551102965739744
-20.481117432674818 -195.94971570978774 -7.468477918356159
-22.03917777243018 -203.00965350594578 -7.483856365353414
-21.372097519585665 -200.026791886563 -7.467054789505325
-21.41397559026921 -199.986494106284 -7.468862959572126
-22.45156999720382 -203.0434421490924 -7.464553887382362
-22.471859695203406 -202.9968261884668 -7.467642005716916
-24.340019684864345 -208.78748330528754 -7.518432341542892
-21.867387850911598 -195.36983228994538 -7.479057347587322
-21.59251644300487 -191.69293831229402 -7.472442151359195
-35.196935581201984 -182.79202467953257 -7.49693944293246
-35.16501789343193 -182.72718307656538 -7.497068854949949
-35.18510445260421 -182.6329812660458 -7.49437383050056
-35.36309112988544 -182.44931964539552 -7.4825157876242825
-35.4830548873837 -182.2973930112729 -7.47408106970027
-35.479276186030845 -182.13229573352447 -7.470926066211499
-35.34787655077702 -181.86549485837543 -7.471370570705559
-35.54002027828354 -182.1807392013038 -7.4690640747374175
-3.7031623882721654 -240.95654576772955 -7.410577636626201
-4.188630604728038 -240.48507860053974 -7.422418976200803
-4.4952370584189705 -240.6711495250023 -7.419019919016253
-4.665859165145159 -240.69956145120693 -7.41898462854338
5.30165122662758 -189.48493774619737 -7.407351512626778
5.229287014530474 -189.3776204890422 -7.410495734447283
5.240715868290234 -189.29745136341688 -7.409835275951203
5.28278092765165 -189.20865917259593 -7.407298099937824
-6.590369138807006 -241.61869721122414 -7.4024376492406985
1.5038817236679982 -177.46701333385036 -7.3780879425237975
1.400629848150043 -177.4427607893303 -7.381475937686521
1.3567557991171988 -177.37176924124321 -7.380930911908882
1.3524528249145291 -177.2674233257407 -7.378272721486425
1.1174389328357215 -177.3518423094597 -7.389344443369042
0.5031778614413511 -176.67336004204796 -7.392036381057422
0.3644030531639011 -176.68513294092867 -7.3972344268648325
-12.504423699587829 -212.7645499742121 -7.352588869088111
-12.916726054707592 -212.5547331219647 -7.368555504104297
-12.858436593105495 -212.48887926512646 -7.3716691855477166
-5.460483984058802 -172.90127310995732 -7.441707395937485
-5.612930407356496 -172.9225314840355 -7.446204912470714
-10.886956296935715 -199.36329199730415 -7.394895419891398
-5.702592500226022 -172.8353208778963 -7.444839133952879
-10.935566269730156 -199.26919257544856 -7.407786918217082
-8.86646917144228 -187.6889234892218 -7.363428236286569
-8.887906539213306 -187.66263692287168 -7.363925049886422
-9.052948534165223 -187.70880055999382 -7.38341437770837
-9.034618673506387 -187.63658691736106 -7.37715915403552
-9.121301734774374 -187.65290778551162 -7.38678155693707
-9.13423855208633 -187.60088717616435 -7.384856737609596
-9.115733523862362 -187.50711124262864 -7.377094671602029
-9.137732336659408 -187.46048614104657 -7.376335840808034
-9.135523040747147 -187.39704544342624 -7.3720014350304846
-10.846793086444087 -195.50143221280013 -7.440562263400897
-11.04425947710789 -195.7631036618856 -7.450580470724201
-11.001723598184297 -195.55257452862352 -7.459372946431712
-10.927024706984216 -195.53289905902588 -7.450005447558879
-11.055930519157045 -195.70553461466926 -7.456386448816258
-10.769017407599577 -190.385775428937 -7.458944380603288
-10.796080146346213 -190.2166348212349 -7.453517535391677
-10.820050573616543 -190.1465043589256 -7.452826532339129
-10.892096832206969 -190.0727719735423 -7.4586452733931825
-14.106369424946436 -199.33859836736423 -7.366136970426932
-22.959890071601198 -242.32128617305227 -7.379932071667252
-23.146474257959298 -242.38364341870724 -7.378293123807378
-14.673980074202333 -198.205738112227 -7.361273680270969
-14.658816055298495 -198.14197719500226 -7.371601397633504
-23.290022421934278 -242.09210594567634 -7.3842298332104175
-14.700824827507397 -198.19672643775849 -7.365055563813466
-23.393070933410236 -241.50268195815266 -7.397656999627365
-23.548674051088923 -241.3736366403444 -7.399848287151649
-23.67499652791111 -241.0380339541037 -7.407419840080989
-23.840650560254346 -241.0598006219106 -7.406145111265581
-23.9906780720071 -240.96603843364485 -7.408135172835326
-24.035654215170428 -240.03848981203484 -7.428797387108498
-24.172390871631737 -239.77575850390744 -7.434617653970024
-24.28711884031838 -239.43083860769946 -7.441804616965138
-16.662042238521796 -183.34601347947722 -7.3981655863401325
-16.613090004354493 -183.0860680843753 -7.367586662771947
-15.955269317527767 -179.7092177693665 -7.437440720190983
-15.89574057700547 -179.57672700236972 -7.426179150848148
-15.808821476002901 -179.1786004391419 -7.393260647389843
-17.53945271968259 -187.32525231420667 -7.459659610641801
-17.513772766017166 -187.26458058440707 -7.448605280804815
-17.24070428754784 -185.83706169660084 -7.437481035326283
-16.82649995974025 -183.75799219014857 -7.447032986074493
-16.775082725124946 -183.67853638646238 -7.437601212565808
-16.713907263863337 -183.38511026878868 -7.403003315443113
-17.929048783796816 -188.80169329693192 -7.416958887976909
-17.92640417962771 -188.73052691075523 -7.3986965347367875
-17.8974800615177 -188.6320342977255 -7.374610204409198
-17.783719828050256 -188.26619792944217 -7.459315678513926
-17.782396221125566 -188.1432746235725 -7.431879012522166
-17.763429850300305 -188.08970089579208 -7.420492446044769
-17.68220997275152 -187.86690699229837 -7.37280132714447
-17.57743982397578 -187.34355459743173 -7.462555443459442
-17.337127004821504 -185.88202767281575 -7.443954438396519
-17.27784628168193 -185.8137183945373 -7.433814804657501
-17.203366911793324 -185.3959335396516 -7.37024967789349
-18.033000658189433 -188.90153811738037 -7.437153287489369
-18.0408344399796 -188.76811325659574 -7.402489696093606
-17.97221232210647 -188.72807965814607 -7.395805917670364
-17.929646260828566 -188.62303533689325 -7.370835901620019
-17.877522504732358 -188.24994549552545 -7.452609151261157
-17.839598854255104 -188.1604142262333 -7.433967050269225
-17.877402331239917 -188.010103547061 -7.399177256171847
-18.054728781219815 -188.77094610652574 -7.402476825611807
-17.999653334169363 -188.31589615046786 -7.4625629800232804
-17.963703027232658 -188.23446875929028 -7.445987134608446
-19.995988988928772 -195.76781047023334 -7.430505558448953
-19.93662469696218 -195.6881050074646 -7.457350628229372
-20.382230880123803 -197.2014642059264 -7.456569861844362
-20.04799871446573 -195.8411971196245 -7.406237344568672
-20.07086549223675 -195.6075328979599 -7.446996227179246
-20.020889567835624 -195.58892351146122 -7.460288610494114
-20.765455300930473 -198.92198069879382 -7.378913689288636
-20.821680168557066 -198.89723743136918 -7.377796614122397
-20.739601000580038 -198.8085854156431 -7.397063030308964
-20.57873872736512 -197.60001124151964 -7.369146092646756
-20.423937341801928 -197.19457901217777 -7.452784279005147
-20.347779319478875 -196.6648570542493 -7.366168436738731
-20.361255055729185 -196.62779970882752 -7.370882300545546
-20.87868130585349 -198.94337742194304 -7.366529938463774
-20.893230625755677 -198.87167316145337 -7.375375328360111
-20.579267873098154 -197.35111029472665 -7.409323307920778
-20.534628850228827 -197.24557384278634 -7.431514332051819
-20.51781485958515 -197.1015406088839 -7.456390233890796
-20.457854998173374 -196.58197222023395 -7.36439888222969
-20.388659785988743 -196.47931372770947 -7.393318487630205
-20.355780509875334 -196.3934767144898 -7.413619640593481
-21.301834672520457 -200.25504230691652 -7.445827517982576
-21.02017192867687 -198.88934457933345 -7.362088964968451
-20.940911123434297 -198.81116399548887 -7.379800474241098
-21.361901036027984 -200.27349955884844 -7.440072384688043
-21.074003889633005 -198.70260259156828 -7.383154918071515
-20.937791658909166 -198.25472214424127 -7.456445783839714
-21.45122927609985 -200.2800766683516 -7.433812933958273
-22.323106274086662 -204.14807668833433 -7.3766742290925365
-22.430046774555365 -203.7276035914567 -7.408160639444323
-22.395431257937506 -203.19324633426027 -7.454396892788249
-22.73219002210717 -204.15168193023075 -7.360678647955956
-22.74134720933536 -204.0714846450908 -7.3670970048762685
-22.765162409232964 -204.01948395728132 -7.37044737883883
-21.24804486760467 -195.06061594349407 -7.4474014590091695
-21.37014957532371 -195.060104751665 -7.422377123262749
-21.566666076814542 -194.92510041031667 -7.395737043168061
-24.805689363875835 -211.1605189652854 -7.38138090226723
-24.87888440370182 -211.16434641773378 -7.379717336551461
-24.69335422220336 -209.88715976941742 -7.452012992342504
-24.921845228187987 -210.7375856719245 -7.401591389428295
-24.867230322471947 -210.44111074565535 -7.418707665595003
-21.96800185511887 -195.44401981305637 -7.454615407409892
-22.140692891035705 -196.04566324147333 -7.363379956691686
-21.713746379131674 -191.29614506956554 -7.420818640334556
-21.746399649638164 -191.15843243970463 -7.4036350647294284
-21.829519456749242 -191.10825427251956 -7.381889390141749
-33.282489301553966 -175.647958916915 -7.384704471035301
-33.383569135798695 -175.71827101672497 -7.383371893634108
-33.64444643595225 -175.85424998244716 -7.3783145848329195
-33.71213658676528 -175.90326253036636 -7.377387699627173
-33.84985717870737 -175.94028654513644 -7.373527992131492
-33.9539097904049 -176.0122405094947 -7.371979429954937
-35.49140172614749 -182.0388897775719 -7.468393734330058
-35.7309150868944 -181.36692199355045 -7.4435116690265914
-35.807362771099214 -181.13886428794737 -7.435173811979534
-35.7991923683437 -181.05496365547472 -7.433792581007361
-36.067080274070136 -181.518505396177 -7.43157503832841
-35.877334172887416 -180.8213810230519 -7.425178873748924
-35.88635637023776 -180.72509885492113 -7.422559761881102
-35.8831704336549 -180.63608736070123 -7.420790379132639
-35.921889470697636 -180.42276439668018 -7.414261068522936
-35.92467937207179 -180.3262248649183 -7.411851054996426
-35.96032997986532 -180.20738177637543 -7.407639032153635
-35.811330925622656 -179.54521349495758 -7.39827429728532
-36.07225446694388 -180.0378404503161 -7.398743897143831
-36.048064385310695 -179.95984170765132 -7.398065685882476
-36.03894022403725 -179.86903711515754 -7.396250646421043
-36.027842254614065 -179.7793192754719 -7.394701866434506
-36.07680344138565 -179.64705054401878 -7.389358756761386
-0.6456508145278335 -207.93010925627487 -7.305771486781899
-0.7220835157864904 -207.96066808454458 -7.307209379607304
3.789705733555248 -178.10989251885402 -7.30594351609492
3.6726320843077787 -177.97316571998715 -7.307179728750652
3.552296442530487 -178.1688411978233 -7.3171563367894406
3.6024217877125224 -177.91325369855926 -7.308641447370735
3.649983329635244 -177.65626512703824 -7.3001236896784985
3.5191384026231667 -177.8632249997897 -7.310487696955982
3.438324810685721 -177.48174248147762 -7.3037419245247674
3.3137171280816595 -177.7926958633491 -7.31681736858269
3.2767114046741916 -177.70924087700675 -7.316282644040995
3.348661972321487 -177.44226658218707 -7.306402438469046
3.11812231935291 -177.39328654936972 -7.314127762460593
2.644320176912082 -177.8657418698551 -7.345094841546125
2.3168825732883676 -177.6834369683434 -7.352947900276771
1.863718842807085 -174.54931813294155 -7.277999800091713
1.3922967792109162 -176.78313161833435 -7.3627682766359985
1.2654239125260531 -176.55426203933735 -7.3605366805984325
1.3018490913455985 -176.40893710134563 -7.355057180571119
1.6518366677743046 -174.62632155537705 -7.288049563575243
1.2337903087683806 -176.35415811605395 -7.355736393253925
1.0751207340987996 -176.38116516198258 -7.362497960497062
1.405535709169289 -174.61757614361642 -7.296396056401659
0.9670214566454618 -176.36341047502245 -7.365717738401817
1.05690235812855 -175.9218683070502 -7.349257499848012
1.1187310298937412 -175.62885969061549 -7.338056813391846
1.305560793704597 -174.46020215194312 -7.294890798085135
1.2282344935917742 -174.40578705966567 -7.295658622068922
-2.8252057670152855 -192.87085473847065 -7.304603164165406
-2.9805412144584214 -192.97072026937957 -7.317266072566129
-2.5084365125030406 -190.18909842882692 -7.269149918764205
-2.5453578223199376 -190.09166797285675 -7.271184909710664
-3.1537909583618102 -192.6521544619444 -7.33343798203898
-3.177236325650867 -192.4814546188033 -7.33587541431416
-3.1171477937172583 -192.43028391726583 -7.330994359516855
-3.2042709016810758 -192.57996565215112 -7.337906739686552
-3.193632801546986 -192.53078470383932 -7.337242388562358
-2.8236150463878626 -190.04071481971204 -7.293653080270247
-2.9023896188223866 -190.00337019569338 -7.299843715442105
-2.9489183954956175 -189.93657161263602 -7.3027914565712635
-2.941240983823258 -189.85801575783123 -7.301060788765158
-5.771097621039026 -201.35337158604256 -7.260515540570733
-11.335155971911725 -213.226643262678 -7.313397762518662
-11.438355260130423 -213.14394138125135 -7.319371127192266
-11.569933995266915 -213.2056430744549 -7.317504486948732
-11.514813982929377 -213.1364795016917 -7.32064657253496
-12.061778081003187 -213.3495416279662 -7.3149155200557185
-8.775813157272786 -187.67268008895607 -7.353191241072468
-10.830013991889775 -197.4384102338609 -7.277743223459638
-10.989748568125638 -197.7085437035445 -7.270552551616618
-11.032011667189236 -197.5752477043412 -7.2894095012453946
-11.141997236236904 -197.37597207788653 -7.323154529374001
-11.115718689353606 -197.29973607618516 -7.32742872754517
-11.197328582932649 -197.28781961741447 -7.338855714398297
-12.257450201822845 -196.84212556780068 -7.288588601625249
-12.25273345215562 -196.70865819302912 -7.304677997467398
-12.397865606639572 -197.09627406763155 -7.276077255761529
-12.313656389566383 -196.83851988017327 -7.297447234718244
-12.29329586211075 -196.7311059113958 -7.307990053835415
-12.267864490808604 -196.67032967361834 -7.3117157492026905
-12.250484794833906 -196.60163575383316 -7.317534588434544
-12.246421797672074 -196.4866502383297 -7.330812163636166
-13.068519980828327 -199.4531201197493 -7.272427604897292
-12.559406150714521 -196.87201139459816 -7.329248773534174
-12.52860233828487 -196.85696853407694 -7.326754835432684
-13.138635697997689 -199.46771925061802 -7.276112941132668
-12.637916127013236 -196.84591680337797 -7.344101488707215
-11.287591480416754 -190.04154189327014 -7.275814154770999
-13.858187783758238 -199.44290238882192 -7.333934916911906
-13.953944807660795 -199.39163539996466 -7.34807414470995
-14.008863645458698 -199.36590767673945 -7.355620534983085
-14.281266287475278 -199.95236181853448 -7.284427474514473
-14.272202871246744 -199.80359278508934 -7.306527459022005
-14.267810041514702 -199.71490122910373 -7.3197132415285395
-14.548339064931268 -198.27368415681786 -7.338702435014197
-17.14375890074768 -205.67713095890025 -7.3365617818872355
-17.210678014472357 -205.76869143345078 -7.328009628687922
-17.431791475953865 -187.51632422639267 -7.298650570832707
-15.721113399741713 -178.7908281561765 -7.360986077133018
-15.632419762791107 -178.4212687669766 -7.330358843286885
-15.531561286723978 -177.97508660838244 -7.293198886697498
-17.788434217594087 -188.5306668158443 -7.35289947582908
-17.750986581496065 -188.3209665011977 -7.299756827905086
-17.136595467889446 -185.26356617814162 -7.3501141515292865
-17.051475242483153 -184.91654310294913 -7.297127218180651
-17.80546985570442 -188.52137825924873 -7.349796655587919
-17.76550991912872 -188.33452979286278 -7.302743366233641
-17.741951891595754 -187.8122406253762 -7.359099853603707
-17.66305948945243 -187.78174227405864 -7.354193959563101
-17.1624733603977 -185.190259881304 -7.3389478348406225
-17.106657420912953 -184.9196956652754 -7.297689618522274
-20.11608970474975 -199.4672299230091 -7.347188937293931
-20.065057077887058 -199.4435690326896 -7.354065220998118
-17.814696108907935 -187.80303146330783 -7.354996860255905
-17.765815344149456 -187.75605663471876 -7.345852387969348
-17.75007699489327 -187.56590326213635 -7.303739812690141
-17.510437015273173 -186.29410843368018 -7.265853982996301
-18.028153485549627 -188.59589418303833 -7.358954388010037
-20.617029540259875 -199.3439689534851 -7.330037887856952
-20.27268844288934 -197.2219752789847 -7.272072310367983
-20.486642635802728 -197.11934242250865 -7.261840464882319
-20.38937208844069 -196.898937836374 -7.31694475867968
-20.363931443034396 -196.8486157635555 -7.330006271767726
-20.29004203699645 -196.31883243683794 -7.265729506964056
-20.247186378764848 -196.21741189438308 -7.294115882537033
-20.252297667494037 -196.16148519437436 -7.304471266967415
-20.201547216676897 -196.02027078490866 -7.342056231419443
-20.67817272806313 -197.80883320889603 -7.323660072399134
-20.65521533397911 -197.67043283302996 -7.348912386957204
-20.551423951000842 -196.94891468117717 -7.283951436189125
-20.474282674935182 -196.91304546150434 -7.301940126526528
-20.453028868245397 -196.7080992680247 -7.34248644067679
-21.094962110733416 -199.24591524615255 -7.305968234343298
-21.027215979894464 -198.9925830443331 -7.347113684845155
-20.773626230331832 -197.83272581955262 -7.308846944722847
-21.562035938822717 -201.3993809790602 -7.3004317601953606
-21.11668815188486 -199.18117142083875 -7.313207328265891
-21.736045158328906 -201.5165376973409 -7.276979504542064
-21.641641113164 -201.0251648509651 -7.338387115046726
-21.786261727837026 -201.53920755430957 -7.271513044549618
-21.650803643405503 -200.94185795964142 -7.347233022633827
-22.502910687035556 -204.3853103751117 -7.3498395391341536
-21.871309164414782 -201.5496531930403 -7.265314326099052
-22.56406100968006 -204.41173427814556 -7.3452407583763835
-22.733617230674234 -204.66644228297272 -7.317302212606144
-22.78937752266812 -204.67524900081204 -7.31436793700269
-21.29738301899534 -194.66112125100895 -7.312642368210334
-21.587396975449998 -195.62859819897884 -7.310886658286938
-21.60778398595169 -195.54544285261903 -7.317353548328515
-21.38167853498402 -194.71447814384527 -7.285939726134554
-21.687032323226607 -195.62537939390342 -7.291702980759233
-21.582807629184558 -195.27722810008842 -7.354415811914582
-25.303915286291833 -212.63235927533904 -7.291791910274337
-25.121741043893035 -211.55803405498128 -7.353344205999328
-22.161306440224607 -196.08279883509994 -7.355864616002967
-21.643598406987564 -191.62695787365612 -7.285379892149825
-21.637403057050857 -191.61229550453493 -7.2859730587581275
-28.915627346009966 -184.41837426658918 -7.3047484963299105
-29.32759168526256 -184.6209105091633 -7.284101453980808
-29.257204402762934 -184.42075268936765 -7.280492036946589
-29.402974083721652 -184.66123416645075 -7.28036405299884
-29.36003466903047 -184.53761468732776 -7.278214037156874
-29.345539271852992 -184.48492774624253 -7.276925097953136
-34.2791081571473 -176.15863196547616 -7.364459313524973
-34.39101513713921 -176.2250378090421 -7.36230007305833
-34.49696262093878 -176.29472397124698 -7.360432408756074
-34.6040139354201 -176.30559314603252 -7.356732983331214
-36.23873885848079 -179.1404535084398 -7.370018975900077
-36.39050029208973 -179.2288990962854 -7.365789292639071
-36.37574800381888 -178.94133102300844 -7.359223114827358
-36.44655815966743 -178.78417107553196 -7.352243836190662
-36.452387470261264 -178.67399192478968 -7.3492050063661045
-36.57576370554497 -178.47806409520638 -7.338997304165923
-36.69546832352171 -178.0224396347251 -7.32219146520544
-36.756558714355236 -177.81626054291723 -7.31424844077608
-36.75795547377085 -177.70048075343647 -7.311110401752018
-36.65373335223103 -177.5605675180774 -7.311666564930083
-37.07578839200899 -177.89259344077158 -7.302976118572395
-37.70596599076375 -180.03789262048423 -7.326594373927521
-37.06729316279771 -176.83589277090667 -7.27516945091026
-37.04686058810023 -176.68378668660483 -7.271838765674597
-37.148336781225666 -176.94319555629446 -7.274781296446975
9.790229105082517 -190.1780343823636 -7.186747962582304
9.790377290237021 -190.0827698632752 -7.186906143906624
0.26245343449114955 -209.0790848428735 -7.225460612020472
0.25113333527228576 -208.9558943535061 -7.23105517308835
-1.1711187871261632 -211.59012342332377 -7.164927967754767
-0.9224123931816983 -210.60029164563767 -7.201301667494938
-0.8954148225395109 -210.14649559792053 -7.220390336003669
-0.9500566944786364 -210.2062238627395 -7.219510576015131
-1.193827997625828 -210.55603618544916 -7.212213256173211
-1.2486257659300826 -210.61632481665737 -7.211224458847044
-1.4817707730402354 -210.9718686574715 -7.2028913956227845
-1.4216834294306349 -210.91947136217183 -7.203227516783755
-1.420636436226042 -210.67364979768706 -7.2142608516352755
-1.3412046337452779 -210.63495609011224 -7.2135146977377484
-1.5501269131966797 -211.02054983119223 -7.202773571188331
-1.4836007337066768 -210.72930881290299 -7.213891309883779
-3.315423646752347 -212.55722289771134 -7.183512743806934
3.3206017271113417 -175.34497534006783 -7.24926176481341
-5.743131765280765 -201.43604999397417 -7.253874255604069
-9.160275298305999 -214.88357488178372 -7.190901582370532
-9.254112686310856 -214.86448865356948 -7.193481175325605
-11.875843374904548 -215.79997096312425 -7.17455646734697
-11.966262041154875 -215.76341031773686 -7.177431439968837
-12.039626656062609 -215.80248175522837 -7.176021442828402
-6.986452126828022 -180.72798146932212 -7.22021224098678
-6.919484268201815 -180.73472043649323 -7.21691075033565
-7.044445988347128 -180.71093207153208 -7.222164758638837
-4.382158961054918 -167.11542966701154 -7.18249936261018
-7.113113942782142 -180.663404112745 -7.222930390449674
-4.55144986132701 -167.23246405024958 -7.190807705202622
-7.181955862851101 -180.61624563902902 -7.223692015083116
-7.21020303604063 -180.52438034361973 -7.219366276564225
-4.699953501808707 -167.30880189971822 -7.197285094880823
-4.815379534138648 -167.32397508185764 -7.200197560537387
-4.9311685505341245 -167.34144187756968 -7.203503831823241
-5.043724217928135 -167.34321400615903 -7.205773447401697
-5.147349288608291 -167.32519984735296 -7.207321931077872
-11.374062860367385 -198.6426253891767 -7.212524010517466
-11.34742783458692 -198.569180415534 -7.2181301303798495
-11.33457974659541 -198.5027101974812 -7.224368072924605
-10.803595485325758 -195.54436930934162 -7.183259504321105
-5.238844176174895 -167.2869028299533 -7.2074492893431845
-5.326018966536855 -167.2398748795102 -7.207408278541102
-11.057960489731332 -195.86061976313897 -7.200791017345852
-10.97645607647134 -195.55086892497238 -7.213253992724413
-10.936518590357217 -195.54202665041205 -7.206951058163662
-5.409186354658614 -167.18416058431785 -7.206607677430845
-11.078640991179178 -195.77336641710954 -7.212153920100217
-11.104720905952561 -195.65823799704717 -7.226738034799965
-11.06558711565014 -195.57442429044377 -7.226991371673235
-5.478619480145165 -167.0976580287481 -7.204520031117235
-9.892024000421692 -189.1484072242502 -7.2594484960321655
-5.554193302204066 -167.0242274913161 -7.202745823013161
-5.696752583783219 -167.10057784950078 -7.2089230498458265
-5.839489355791613 -167.1904354923547 -7.215279264183506
-11.790463804184746 -197.1818662357505 -7.175586376270846
-6.006562974810185 -167.33965373624795 -7.22496751696823
-11.874215764157942 -197.23613611493346 -7.181161358720509
-10.661843031033065 -190.6791143455924 -7.209732778849267
-6.083132231400642 -167.26725793979938 -7.223158611319001
-12.027129492797727 -197.45041865597418 -7.1752952799140886
-12.035223059958668 -197.16634484788966 -7.213985980569434
-10.713475929580468 -190.7223177856711 -7.221543762249428
-10.673497519350219 -190.6577419081856 -7.210523721759108
-10.633862924057945 -190.27986101100163 -7.179335985503895
-10.64920306608525 -190.07216613365597 -7.167370972047976
-12.139115729283539 -197.44643146185965 -7.191857119848436
-12.093546098580205 -197.14757122309967 -7.224993497581349
-6.260868083802352 -167.4278238891643 -7.233508870260213
-12.18212427111668 -197.10360306022028 -7.243754016576477
-10.770611601185589 -190.09870959933667 -7.190634469170918
-6.404106977246855 -167.51671195128966 -7.239777800993622
-12.299470562435868 -197.27249322071356 -7.238248649905271
-6.523940152772417 -167.55286844139906 -7.24370781884192
-6.58266038086877 -167.45479593681324 -7.240393670150181
-11.063994071157111 -189.86474078513675 -7.2230707827460074
-6.652827966708973 -167.3846459621954 -7.238829168131979
-6.698521535829846 -167.2429101198536 -7.23338112528509
-11.2307399952197 -189.9484839994438 -7.258521712745556
-11.16845795468593 -189.8385915267476 -7.238743074323258
-11.116671320427523 -189.67838430363196 -7.216296749482884
-6.685802612632219 -166.95265448897462 -7.2208673289328855
-11.254462141429734 -189.81889729268505 -7.251650373060112
-11.230169827634555 -189.7661960548103 -7.2429902005389035
-6.783279240644736 -166.93293422263446 -7.221547999185056
-6.867579440483713 -166.880032219261 -7.220917928737349
-6.931829678318678 -166.78177688368058 -7.217593079573593
-7.000021699699287 -166.6929821953428 -7.2150961674258625
-13.593433685183047 -199.90177856298317 -7.248069829952911
-7.621421293514528 -166.40318542403395 -7.212475794391996
-7.914659169849536 -166.63598846560774 -7.227246841714859
-8.00167408771234 -166.5821798012322 -7.226409596615763
-8.112211419620014 -166.60952037160638 -7.229102450234741
-14.636996008602278 -198.0950695156611 -7.1676627390136165
-14.677377172783032 -198.10458550235268 -7.16961281766657
-18.933818235650346 -207.37843314867976 -7.167504671512295
-19.043585163155875 -207.4168502418155 -7.1626814906725
-18.9875661509573 -207.38788284431337 -7.165931619648466
-19.122675951768823 -207.43253676139537 -7.160235328642057
-19.172587422786076 -207.2548777605812 -7.175952221516904
-19.25450381277058 -207.2934724557376 -7.171377260935892
-19.394584410159727 -207.34911014260638 -7.164312918840086
-19.332070309839587 -207.27601403216963 -7.171987811626035
-19.471363987496627 -207.345114497235 -7.163637558596636
-19.548888275468027 -207.3487000492842 -7.162222635646669
-19.60434699877326 -207.0909903337133 -7.185055714709565
-19.63131531325954 -206.93879273404286 -7.198507977083962
-19.674792707437675 -206.8885898046082 -7.202506549705565
-19.720380086679462 -206.86216619275768 -7.20410684020654
-19.815840333108497 -206.85045921396986 -7.203603093564837
-19.76631732900185 -206.8415051394651 -7.205330860387242
-19.937886545296642 -206.9607440280817 -7.191433165388904
-19.872902585296245 -206.89425652285416 -7.198721415409478
-15.429849595623145 -177.54914480971385 -7.257858875502956
-15.31437994873372 -177.0327906917363 -7.214837979803207
-15.200420869397501 -176.55647325245843 -7.175274927574578
-17.18823390181765 -186.08938302506314 -7.229350041148289
-17.15205448861672 -186.010800272799 -7.214603832314108
-17.702448445126603 -188.09339273982397 -7.242064143013961
-17.670391511694444 -187.97343217410565 -7.211702144861249
-17.542407710292576 -187.24883189401848 -7.236968655022837
-17.52510327663174 -187.20665741160198 -7.227814536362203
-17.45130960416939 -187.07001570420323 -7.198095668942044
-17.28214144718465 -186.25719819517548 -7.260701760181857
-17.32919668368047 -186.17355892440497 -7.244680685952932
-17.2540993915525 -186.12176185218362 -7.235294829193932
-16.98426413117891 -184.46294174816813 -7.227862535142484
-16.902516451832806 -184.21500564815494 -7.18978209810202
-16.45061929716645 -181.665084721772 -7.200562689470266
-16.396401453701387 -181.43978532566894 -7.173818853586431
-16.355775466122672 -181.42663303282228 -7.172085762387111
-17.807706999029435 -188.13118813696116 -7.248448207700045
-17.75710793476307 -188.05769502776297 -7.231054436222838
-17.71668337329415 -187.9529465231249 -7.205033543438306
-17.632205026924535 -187.23956802303184 -7.233300705582816
-17.587310378102416 -187.1736203818431 -7.219322443039122
-17.57712330260644 -187.0203210445435 -7.185128761367909
-17.38857076568971 -186.15255201897818 -7.240335150400598
-17.89057452952258 -188.15056862612124 -7.2502714327223
-17.862846980802356 -187.8399470290582 -7.170757655271257
-17.672798373474627 -187.35256968028432 -7.2578226900727465
-17.662455076258613 -187.23814354556063 -7.232349521145229
-17.490545276352464 -186.21636667140086 -7.2514719638025245
-17.474001849973607 -186.04257540655402 -7.218844955225201
-17.453258702571365 -185.9571009331669 -7.2029821953743465
-17.936191861454976 -188.07137520085755 -7.227870036816577
-17.923930788212804 -188.0381341699248 -7.219813150150758
-18.09451086045108 -188.06108080708154 -7.21790912704453
-17.980544112526925 -187.89813560390084 -7.181170196647034
-15.833823154700708 -176.5604584008458 -7.179911900906557
-15.88681148324603 -176.5021561172434 -7.175536245850289
-20.177048778147554 -196.89153916160288 -7.163569060754958
-20.278208941593654 -196.69903932339253 -7.188465686114958
-20.796083575877105 -198.71130271073477 -7.159760454419156
-20.356954542090616 -196.68187519146042 -7.178555233533398
-20.34793120085684 -196.63575707127 -7.1898487339872235
-20.357011328293048 -196.46637218144144 -7.223476556179297
-20.28125222074195 -196.44329306695158 -7.241719284862788
-20.28830496887637 -196.35298588873198 -7.259072896858723
-20.852013848452334 -198.55805990760442 -7.179894394799987
-20.614758993929538 -197.5263672366747 -7.166782723378073
-20.64431521523026 -197.48213701298593 -7.171095393423807
-20.59612810772786 -197.4185886267855 -7.1898839194460855
-20.553945148659388 -197.29890742445102 -7.218474850824184
-20.935640376731875 -198.38882647909637 -7.199148025426343
-20.925728889871692 -198.31345083209743 -7.212727915864702
-20.636633816452147 -197.27873405521254 -7.210479235287182
-21.292934303932043 -200.00176459045926 -7.182769469417525
-21.280713487993403 -199.89459526411989 -7.198993283634753
-21.018392728019347 -198.32503209306276 -7.200460489151195
-21.879198369539353 -201.6379421579645 -7.254784172422635
-25.411316049778236 -213.60680185453475 -7.237032194655047
-25.74610788639819 -214.67900978474273 -7.172165578094578
-25.483546220375338 -213.57791923999181 -7.237034708754805
-25.6096013945038 -213.6819959760383 -7.228930658901055
-21.71798821277747 -191.40734533245305 -7.250440172387961
-21.705744644763513 -191.34952238192113 -7.248980127061664
-21.764195752111743 -191.4182191220335 -7.2395004707753525
-21.715748777354616 -191.34569855938068 -7.246146857786977
-21.713443847537167 -191.2490181381502 -7.238716087364454
-21.749011453022096 -191.16387876815887 -7.222402490087557
-21.948510350348748 -191.4848266861168 -7.197110743713671
-26.49718484269348 -187.18513617798067 -7.213178193887484
-31.839063497336035 -195.29672574058688 -7.206321780955732
-29.747477535701528 -184.65043031135582 -7.254725134822733
-29.748543060340502 -184.58680058518638 -7.2519304253394825
-31.9131662929615 -195.36166191799938 -7.198594797231024
-29.902543511885682 -184.85850932734562 -7.251751667953559
-29.836330691986802 -184.6846667889678 -7.249575003899258
-30.032812959528975 -184.83728310453986 -7.241263806860191
-32.291368395044195 -195.47897009777031 -7.163559557570675
-30.764068261867287 -185.08408952710022 -7.195692321067433
-30.659263345673658 -184.990796402126 -7.200170277845401
-0.048196258893678845 -192.08520490685453 -7.071327405364504
0.05672156041505261 -191.95694593859665 -7.062507487723735
-0.08723212188720808 -192.14551554730247 -7.07445657936364
-0.03940942531373537 -192.02398531202311 -7.070502580006304
-0.02044332013932859 -191.90099434491805 -7.068925463666694
0.044672910236368324 -191.17687888028763 -7.061993969991006
0.040421625379629234 -191.11649859653068 -7.062240405098841
0.010173060586350147 -191.0590722270317 -7.064424800157092
0.032276633873479454 -190.93498412784982 -7.061977968195548
-0.6333706987066599 -190.66042178539735 -7.11636890189217
-0.6631046595735128 -190.60569240468564 -7.118605346621612
-0.8034682243334608 -190.53999283010327 -7.129840105147164
-2.499461809782165 -165.49651726705437 -7.074267998856714
-2.7896597435953296 -165.34773833425507 -7.074972063053233
-8.37996786053102 -191.66640290718368 -7.14360738301826
-8.456076555415837 -191.58506781634446 -7.1538988895822175
-13.540007132424318 -216.785029857853 -7.13192633664643
-3.8816934479996963 -166.78097110835344 -7.15769768264049
-4.167391775662528 -166.90547873362974 -7.169047868158524
-10.989118992600883 -197.0852002864183 -7.063353006522835
-11.105180281508213 -197.2595673919162 -7.061242165871301
-11.10447952398109 -197.07001277525015 -7.0833686880539055
-11.245649024507944 -197.38158688340295 -7.068144671702006
-11.146487647954384 -197.1514284294376 -7.080467545119555
-11.11613016690807 -197.09396280620464 -7.08240596540634
-10.390659231016418 -190.2633891563395 -7.135066414985289
-10.451278760893347 -190.25985355632716 -7.145562054262017
-10.451088926993286 -190.12517915455575 -7.1363688422370135
-10.477156142619833 -190.10893407614049 -7.139766647628495
-10.590087254413415 -190.12945387406543 -7.161173908652839
-10.582633804067122 -190.08467021227432 -7.156626469229755
-10.581892615404987 -189.94598319396314 -7.146263770696925
-12.12983852843763 -196.636729409304 -7.065831421958376
-12.224151735483984 -196.7441111170837 -7.067415196254683
-17.666656840903848 -218.23499529584382 -7.0567573007705535
-17.754246083255836 -218.1052824650908 -7.064212382291705
-17.842972445089995 -218.04719174036248 -7.067232081885791
-17.932921383110337 -218.05857806503275 -7.066484814347901
-18.019813412832427 -218.02786943711732 -7.067895658263064
-18.107679654908775 -218.04068966349837 -7.067044470361864
-18.29089315436083 -218.31499542349945 -7.05062904773861
-18.196688429462917 -218.12317150586125 -7.061875028643296
-14.442779878206524 -198.36893723714945 -7.089929213669694
-14.672968199844293 -198.20887886845333 -7.1468079006484215
-14.731373645527011 -198.20324106119315 -7.153584951500469
-18.864297360550225 -207.6894373861758 -7.139532848630788
-14.978809014726963 -175.71624798233998 -7.105081732099447
-15.052625599079313 -175.82755038139607 -7.114672067567382
-17.507034338234092 -187.652771807167 -7.131691570813446
-17.464549830302097 -187.58801549769714 -7.115462275682643
-17.41999736929164 -187.5338331640334 -7.10194415017061
-17.39500251744475 -187.44660676150764 -7.07944800407287
-17.611893063571358 -187.72434219338595 -7.148217439494685
-17.561376396083297 -187.66418962415872 -7.1336158265325995
-16.774574092677277 -183.7222070455565 -7.11409554749598
-16.801466218386317 -183.6083362444277 -7.096794020875062
-16.83364079924339 -183.59516970683504 -7.094991773095121
-20.089442732922592 -199.43267528551712 -7.096830714181327
-17.700547899753317 -187.45346046377375 -7.075322775076229
-20.158104705953345 -199.43208439578208 -7.091373012279849
-20.502793610028565 -199.44686455187707 -7.059291306526435
-20.738277663939623 -199.14121082063056 -7.091393434210701
-20.705537674316503 -198.9842026239674 -7.121897917143156
-20.346572821970966 -196.99662594676047 -7.112878886415879
-20.76296649312813 -198.77317499471664 -7.152574664484783
-20.40030994614865 -196.96254290233352 -7.111349872866428
-20.363516295291618 -196.91654185812217 -7.127408275677611
-20.37244673997203 -196.85621489220378 -7.1388990850452885
-20.484184215706556 -196.8653828555894 -7.1178574800244085
-21.29661708955941 -200.2701321638333 -7.144020441631652
-21.02591770540255 -198.98610623353053 -7.089059689281436
-21.052044241819505 -198.93447860051228 -7.095065196928004
-20.969360199829588 -198.6287254204966 -7.155433230594633
-20.742138113577074 -197.82178543882247 -7.092613743132569
-21.44124052303024 -200.7517055361994 -7.063393471560808
-21.42687053049527 -200.6606124273901 -7.077629986232402
-21.418550903575444 -200.58176870836584 -7.089691473483894
-21.36649400500018 -200.2759897274667 -7.137699785990495
-21.37721676205714 -200.20618456755383 -7.146822236950943
-21.10481188138043 -199.06371954625908 -7.06764251121011
-21.05306399757518 -198.71085459197843 -7.132584040622968
-21.188133437161564 -198.82323247621292 -7.099126858276772
-21.158649085654076 -198.56460994124032 -7.145217512790357
-18.799302039949605 -185.50069340385127 -7.08217373271851
-26.236741236710127 -216.6666511800652 -7.054711220911797
-26.1143815217125 -216.10200028340228 -7.087682441444276
-25.982739075354388 -215.5233981944999 -7.121783882103831
-22.28654725316895 -195.88954650511005 -7.13997882121893
-32.533707350727894 -195.57433403154866 -7.140638309407583
-33.32091626324738 -195.76780054613727 -7.06866144822737
13.349091536415425 -186.32995787020096 -6.999263942270993
13.341457900196353 -186.21990807715596 -6.999187442059988
13.29936199619706 -186.12250756704344 -7.00036661133749
13.342829686958485 -186.00636055584488 -6.997721054615574
13.344759556644046 -185.88966107546713 -6.996622089985879
12.918735432465425 -186.63969311864247 -7.022030815073963
2.101506797314997 -213.73904734390783 -6.96199174188465
0.23991535122182128 -191.67145897507973 -7.046796593067707
0.1747308085200565 -191.76756191344924 -7.052343273714168
0.23904630239025337 -191.57980501471508 -7.046802786515318
0.2181234191596495 -191.40050233123134 -7.048063037941954
0.09916646483988956 -191.8331511413208 -7.0589021468073465
0.1289107649267791 -191.5276825108932 -7.055897347516075
0.1159635165739985 -191.46788686204897 -7.056991461825131
0.161349188868801 -191.3474974416073 -7.052836977972365
0.16169399829885833 -191.28711409173604 -7.052499164356018
0.2970561794190054 -190.718378934025 -7.038625987599131
0.07255105267950412 -191.23477483662973 -7.059977563962422
0.22396645279163252 -190.66599141217085 -7.04432672001428
2.4246726551397053 -168.26142556885065 -7.048373521834055
-0.9090699285657564 -183.96098461314665 -6.98448126149886
-10.500845299087025 -208.17591373359178 -6.99431640375499
-10.597356182408301 -208.1721655253271 -6.99777088207053
-10.722219159708187 -208.24920557178962 -6.99506878141824
-10.689001989433965 -208.1789146094577 -7.000134801231294
-13.033358782146912 -218.88448549957175 -7.008369625820533
-13.095709550747397 -219.08030091063725 -6.997447850076303
-10.069454507114301 -198.95003017916193 -7.028425815418354
-10.276954049074682 -199.06837713894313 -7.039702232126411
-10.184530073027169 -198.99918421887492 -7.03659708708636
-10.335207920923393 -199.05945738664363 -7.047464874341209
-9.222946139648307 -191.70457690074554 -6.984265263603743
-9.298982555999022 -191.6038368792804 -6.996030144327827
-8.79633748259336 -187.56543302284564 -6.994323740411502
-10.876792764483955 -197.12913202707938 -7.040454545005157
-9.065758232772936 -187.69848685185585 -7.040137766241983
-10.934580798477803 -197.06005908169203 -7.057538050441991
-9.11735100424253 -187.67172937205427 -7.044714549908351
-9.099676361665985 -187.59960488756084 -7.036557786288377
-11.07248387826045 -197.2508641197452 -7.05715440697921
-9.173005336015756 -187.58759656963232 -7.045004522713232
