ply
format ascii 1.0
element vertex 843
property float x
property float y
property float z
end_header
5.825760372569981 0.8126671083374837 0.49881372926662626
5.861381367892548 1.2064432891746475 0.5092669463290304
6.093536725129346 2.2581011941890945 0.5330502178378591
6.149563982433881 2.47453945820539 0.5373728409938816
6.1542320589403605 2.7960642907630264 0.5433885066579622
5.510037061674385 -0.14044006056946134 0.47062200553992795
5.553733480209189 -0.021814810947007768 0.47442092800780444
5.682615004888249 0.7105409945331536 0.4964535382517484
6.0234387116394075 2.4160108091209875 0.5360754572704479
5.994594943149478 2.469616344684222 0.5370506111505373
6.043302391658084 2.753310361857263 0.5423365381673674
6.060976284260753 2.798467343136255 0.5432687485262253
6.0645013415779205 2.8994404988195708 0.5449451495080114
4.058403169023116 -7.060147968261273 0.5099464179936224
4.046311887062839 -7.005830323885924 0.5112199117102353
5.373042387535699 -0.2160273730995721 0.46871508295189335
5.665955388302619 1.359617251908395 0.5135421009932042
5.927486426397105 2.5056533088504267 0.5377047880116379
5.96425503583927 2.6230932233197883 0.5399173925411702
5.849577626997796 2.6861887675846052 0.5407962594069691
5.7969940960785875 2.681412591071669 0.5406991886599426
5.788807622613047 2.7388011552020366 0.5416716259502089
5.6692152201983514 2.7794779756540207 0.542060266829822
4.5593792873731545 -2.2161185253725018 0.5577112087797105
4.402851410419971 -2.028302789817294 0.5625854378300128
4.4481065705961935 -2.0077918241587276 0.5648828361025693
4.16675008653977 -1.9567890303515485 0.5595411497261644
4.117783029739361 -2.1244184148557226 0.5498847321117941
4.1010680751615824 -2.0203080723822424 0.5545748253800333
4.011745405678628 -1.9047653666722941 0.557711219300512
4.026163169649727 -1.767379282737827 0.5647442577514308
3.820697059989741 -2.3726589369260913 0.5291263261165493
3.84952263582674 -2.0295980849021564 0.5470600194652543
3.9403106671634482 -1.8766750773644918 0.557078405982352
3.9151151702815135 -1.7638038141925358 0.5618094189059992
3.9550869020702004 -1.6837964623989612 0.5667541078542617
3.564959676902707 -3.01674210912119 0.4876996629622561
3.7066076046375267 -2.2986389645951344 0.5296737412267765
3.73413937100184 -2.274584893042318 0.5316289975330245
3.8019183196017146 -2.039241397401169 0.5453036212731723
3.8548517599274534 -1.8193629667547897 0.5574616207197852
3.8723784326567765 -1.7394672850440016 0.5617567276819144
3.518744218975967 -3.0144888254138316 0.4864339256851704
3.554565287089539 -2.4680768098838968 0.5166582834098529
3.5951566552596415 -2.38399388270071 0.5221801170168414
3.6395544762919396 -2.0336696775971896 0.5409835900491134
3.3494611750915766 -3.0817087565542827 0.4778424133148407
3.4613924526971243 -2.542984203355752 0.5100966768209818
3.4911877826585407 -2.4921031706428534 0.5136103228743154
3.5239533617429624 -2.4074311320784263 0.5189506068802495
3.629345977848206 -2.0181372515403844 0.541516743677095
3.271501339978717 -3.069065330286085 0.4762188614842961
3.296539659636556 -2.971706202692256 0.482297359041987
3.315438805720686 -2.9076450626069477 0.48631924245433045
3.389982311674121 -2.6348222999316806 0.5031836127214677
3.3729317703892665 -2.5719167928733206 0.5060126101475042
3.4607206517719833 -2.348258116830675 0.5202313745573868
3.0547274991175914 -3.880442854335184 0.5668654926106662
3.1590359382791346 -3.058799630721917 0.4734806456815529
3.2376036828447408 -2.948192389511001 0.48187861142002864
3.260034910354862 -2.7125604433338175 0.4952668936069573
3.2540351591262437 -2.6625684412984967 0.49775265561574566
3.3127775493234246 -2.570776372170595 0.5043303831322044
2.647682324184813 -5.230538344492418 0.4938597539292
3.047222069937982 -3.087210967136061 0.4686087112366686
3.068358978692239 -3.061286000705749 0.4706533806982144
3.1396766244059036 -2.958500177631732 0.4784289412523638
3.163213138445352 -2.6206495697274184 0.497370234862625
2.5656376333725186 -5.2319544295725215 0.48915801447535534
2.597459808735378 -5.142540388325067 0.49412744158754296
2.7746052870356523 -3.942068729051725 0.5478013888084592
2.7958675938714572 -3.881054977550372 0.5513464352443064
2.811861580736622 -3.760273467072407 0.5569017551966828
2.8427148597512364 -3.6845497312877384 0.5616503499356631
2.8533326884934214 -3.605473390021184 0.5653395368189339
3.0194701996937328 -2.653379110842155 0.49150481350387043
2.4170305096363336 -5.194833956673293 0.4820569230354014
2.466708013889204 -4.957528994191123 0.4931357834121255
2.73363224954399 -3.9361637607524638 0.5455718658633151
2.7135683790880094 -3.8570314124699747 0.547386573710253
2.7343353415171086 -3.7783646376572553 0.551586438745389
2.7692488111116047 -3.4529245487329323 0.5662153281239436
2.9632174459393967 -2.7560356919300695 0.48431457549922574
2.945500803976687 -2.6940103877312054 0.4871549593233666
2.9221642175112343 -2.5711336776290303 0.4931032951098866
2.9801216386337748 -2.5395785534627096 0.4964583421312976
2.441346935569256 -4.547791185276061 0.5061940258860567
2.5951416136351684 -3.9276145257319546 0.5377120696108587
2.607149161993217 -3.8705925480544074 0.5405298507725473
2.609040663995377 -3.7900216273900083 0.5437027381033123
2.8659473855378197 -2.6329184007860267 0.4881451150669249
2.9166690743511436 -2.538514387160746 0.4946710434460969
2.9578986178101108 -2.07679070415816 0.519764831254589
2.9556069386841077 -2.0182850092840074 0.5225991436322499
3.0905294441190128 -1.549416169987762 0.5490241871350385
3.2155655925343805 -0.6017949386124783 0.46741396860007345
2.1935873506537673 -5.176279965913087 0.47019469387336943
2.3489209511940103 -4.67799358777328 0.49624977340506526
2.3569824796390018 -4.475929029897474 0.5038645816283172
2.3541442192452644 -4.371951625121283 0.5074490798003783
2.454658103296744 -4.002986773295801 0.5266506694057496
2.4961425914563495 -3.903881825292165 0.5327509997536753
2.5391800411609013 -3.8738328585025066 0.5364066486153662
2.885293631332563 -2.0480929666348695 0.5191644230754546
2.9551861426043065 -1.5493344160449913 0.5452259607548589
3.178707710344253 -0.5727611043965485 0.46859004469884713
3.183554474521226 -0.49967174204967835 0.47091404307566376
2.142334683625963 -5.155744488753777 0.46803575436088407
2.2049297447425324 -5.087541475356494 0.4738794492036113
2.2798495233895864 -4.582625534804983 0.4956909245558275
2.2994209431190153 -4.486539273006908 0.5002098530370793
2.3177293135847545 -4.373255440966171 0.5052652975428585
2.3279561672992726 -4.29239702576841 0.5087723655169026
2.316972782787097 -4.201695227406487 0.5113727788199116
2.3391711531621375 -4.08580229033849 0.5168795682456788
2.3612195009693178 -4.002785593393465 0.5211816881204582
2.40923858861055 -3.8813714599709574 0.5284675503733798
3.093643478342579 -0.480528733702676 0.4719270532710823
3.2119299127926872 0.2586863640861474 0.4914750908430682
3.2034444293643265 0.3090098834232984 0.4926408623728259
4.463722006251835 6.648332983160972 0.5672981492568943
2.1855538565582524 -4.52810886884311 0.4922055090848624
2.1781439854009825 -4.467106098441671 0.49395152495631356
2.2682054436227777 -4.1345296598945565 0.5109998990877376
2.291861933066536 -4.1219668012733175 0.5127934075324925
2.9726137360416782 -0.45596374362538694 0.47324680872411923
2.995939371422402 -0.36476276589810275 0.4758641165439048
3.124267659251525 0.3058282451958936 0.4926741807797723
4.395798969089895 6.662262437385297 0.5662358995704864
2.0404635617117224 -4.892810106930003 0.47135016828784093
2.012923102032497 -4.362246289201342 0.4881985614434827
2.914967182405361 0.22211927065956338 0.49099338408801557
2.8995933918210763 0.26284913603440674 0.49184283834608145
2.907784127897476 0.3432118996165625 0.493534955352979
4.080697224492958 6.236476270278685 0.5592663766442536
4.212658509989647 6.536357208182387 0.56261798867815
4.2459507722991034 6.7648610903472735 0.5640569704762562
1.8799103339472996 -4.54255258976927 0.47443404794254385
1.8509482507639958 -4.338645607234606 0.47986895632572657
2.9798754842245794 1.0862225463457866 0.5066026141041043
3.006301420135621 1.2919239398693976 0.5096093212664331
3.995575386505556 6.2108599445769865 0.5577184054585416
4.11288293472776 6.690391561366098 0.5614369425377532
4.1095350298371285 6.753383598214495 0.5616296815200718
4.236281393041036 7.4393792699828944 0.5660491143830945
0.8404491725737393 -8.895738913171861 0.5349388718615987
0.8885918733316345 -8.721605464691729 0.5373103756726584
1.2788489699396774 -6.813545840865393 0.55761447908133
1.360900605139927 -6.695121227697369 0.5627370096035731
1.8074828512729193 -4.311609608872756 0.47833719027339583
2.935000015018626 1.1252046514737386 0.5070023673080137
2.9429371445078845 1.1612690858808548 0.5075199278890309
2.926475511240864 1.3222915991684765 0.5095960631246975
2.892288115413379 1.3622370065585807 0.5099725421579742
4.000397494345245 6.720648939477736 0.5595348445363157
4.008046520897765 6.841796509282095 0.5600324303121842
4.1423432370297295 7.329919056827763 0.5640086014819206
0.7915436989545597 -8.747607873032901 0.5319061459280299
0.8411169502181373 -8.737651222376606 0.5346658688656386
1.2615614509017659 -6.695443032265578 0.5564799839751402
1.241938371025269 -6.534978836459809 0.5551446644276257
1.2478045406931801 -6.462785708959809 0.5554688168517806
1.4143154854195752 -5.9183332781288 0.5663092093721342
1.3655140913003097 -5.838801923500879 0.5631434515399543
1.3640100444444603 -5.7489416323043425 0.5631045194250767
1.4014770255025797 -5.675083923005521 0.5656770655467578
2.8866993364797517 1.3774493752894235 0.5101120333311765
3.974295053951516 6.847827810022014 0.559462594919886
0.610686140019081 -9.12637133942179 0.5227654512300338
0.6414301069425604 -9.052908219329012 0.5242829087708512
0.6836933683450078 -8.972608545515826 0.5264153479185503
0.7016374552946407 -8.639816422617884 0.5266403582481095
0.965059880993876 -7.517336824077768 0.5394326383958088
1.0435895692803656 -7.261325380642898 0.543703338646695
0.992828325067938 -7.219949537658706 0.5406172087836814
1.07770087935511 -6.87316004546107 0.5452708922622811
1.1272802442750502 -6.7974802827358385 0.5482122261013609
1.1375106836875544 -6.730194882758013 0.548764345436094
1.3113310805255982 -5.87486919992372 0.5595490542513023
1.36142214566556 -5.679809077408747 0.5629761362173631
1.6707829296225307 -4.161896629555601 0.4758057557953416
3.810596286222041 6.811517392472024 0.5562702337257713
0.5153919096768087 -9.20808172603251 0.517809530459975
0.5488003330378939 -9.151966990644851 0.519484797463913
0.9254464598793823 -7.145135525368318 0.5364986124644665
0.9284807968950823 -7.072709217820119 0.5365851877280701
1.0980680664582596 -6.5252031523627965 0.5461650506844222
1.1065280326558395 -6.395052254997669 0.546572408306928
1.2352852959401488 -5.807242226085036 0.5545695911927255
1.2176142731644448 -5.7284789936636376 0.5534499359314204
1.5007691588805094 -4.044305936809227 0.4703076334177352
3.6379473043756985 6.531001131986639 0.5521735187077359
0.40743124241388895 -9.19115756558974 0.5119980405190375
0.4388181726532858 -9.105636146320998 0.5134673073946522
0.6385289757144692 -7.894997597667124 0.5214817165091976
0.7609501444282212 -7.460585950745818 0.5275163277106768
0.7616700138394148 -7.3525871621842835 0.5273265017048894
0.832519249219339 -7.0426511357742605 0.5308796505769033
1.070997923757215 -5.857987797031339 0.5440295830264449
1.135589275664212 -5.760208438323982 0.5481320548198868
1.1170974212874751 -5.6595414783558695 0.5469186858011892
1.1188265579014716 -5.619813207069727 0.5470460157539511
3.5472497933150047 6.486122719371189 0.5502965755533269
3.5761873423416697 6.5464176617977 0.5510429229826388
3.5841820782952656 6.710025104633297 0.5515639260316287
3.6728564378608795 6.975456041896467 0.553977688997763
3.7132734922060004 7.180546174393904 0.555230261246179
0.3768098363729835 -9.149913458471126 0.5102928206048463
0.7224176716604422 -7.363924059955095 0.525102214393161
0.7567885334270972 -7.1661979412121894 0.5267042465176521
0.7839514780153751 -7.049330331467155 0.5280647379317966
1.063108158170259 -5.709980444106773 0.5434668453356887
0.3249492996381257 -8.863424050596187 0.506803105027747
0.24416970181406672 -8.814115681920388 0.5024550968782249
3.364675158120013 6.570325339214107 0.5468423497222126
3.4017897238780135 6.846267889449305 0.5481677520144681
3.4279366055837714 6.985620925317018 0.5489424340186333
0.19380200308546397 -8.834593282776172 0.4998703912589433
0.2580628386923296 -8.67048024997316 0.5027906566414283
0.2791059025107413 -8.624580248457562 0.5037993567765952
0.5025636538057894 -7.401665415224852 0.5128576716201712
0.5339097392570755 -7.332392564193076 0.5144398738149887
0.6191722876645251 -6.894870334624828 0.5183051893151258
0.8193895565087859 -5.766427860542444 0.5282813245097507
0.8874307007549542 -5.120324609769276 0.5321015284786821
3.2585906992810534 6.445982984602539 0.5443944765736698
3.218807509658232 6.583698748480013 0.5438431713746049
0.08375197360354086 -8.880147840871967 0.4943217766265442
0.12638123734669943 -8.76437264384139 0.49620276140810443
0.5504329159840949 -6.606413675056325 0.5137971779028881
0.8639616513897663 -4.935809956240668 0.5305513241580532
3.152066344199123 6.505881754296335 0.5422638131459779
3.1880804039510755 6.668803687998708 0.5433316122526284
3.2107670467467164 6.8026376508811515 0.544006795875865
3.2239566516212097 6.916351487284053 0.544493918354958
3.2510246904256244 7.065455614393376 0.5452756475812717
3.2376586534078458 7.118493114704456 0.5450851465821478
-0.13568647768876113 -9.307464868962292 0.48440992923961634
-0.0842345126840646 -9.221945401559612 0.4867422622761061
-0.04265834339021218 -8.91526188029668 0.4879993722280327
0.011304092017955403 -8.712702835316104 0.4901871376109276
3.1293752391383487 6.935950795379784 0.542415837152085
3.129710008390507 7.106118302611853 0.542637223636761
3.1674294365445874 7.1146504904274215 0.5435195918290763
-0.20344794098140845 -9.209823629621443 0.4807870936252606
-0.20462678334656906 -9.12191931162451 0.48050581069818715
0.2894766933590134 -6.655250554328484 0.49944748456408
1.7113657239212696 0.3275385444897112 0.49003295578401346
3.033639075144098 7.126556240730982 0.5405057165205791
3.1229419869839523 7.177575853904885 0.5425945516015706
3.1173168409657652 7.252885752277835 0.5425262907873687
-0.2833351851235739 -9.169796030065672 0.476781128998258
-0.2844174150902553 -8.95680040878468 0.476129410535985
0.21004624565907415 -6.567767366030902 0.49495397844105943
1.6270245389575213 0.3388116099002576 0.48966694174737957
1.6058160467484832 0.4380315559621588 0.4906792945530252
3.016046124113065 7.2168460077984244 0.5401761214586388
2.982305716127456 7.265960400088928 0.5394237738697008
-0.33637815480084027 -9.14295468911578 0.47411209213290517
1.5209177546843882 0.45788660833394323 0.4902248571719496
2.89912452419545 7.134678661542812 0.5373877931892214
2.8875328718905804 7.196556407861128 0.537139535178873
2.8794493142586743 7.317544339269825 0.537045059391202
1.4823481487323018 0.49945811918613137 0.4903102918045013
1.4688554864637635 0.5417376034771477 0.4905762286074721
2.8301822354404855 7.325588976033111 0.5358776249361544
2.8422278989982743 7.459240247224147 0.5362232478774145
3.2500966428695746 9.619222324716716 0.5470630698229888
2.7125072684591194 7.184590749582488 0.5329479741367465
2.722902243129683 7.314339739530062 0.5332409994464893
2.7737589684307578 7.567397526387075 0.5346177525305951
2.745279273740387 7.638168775245908 0.533922634568395
3.214216285914497 9.641037752245172 0.546171419441595
2.6479760128257164 7.611162614022283 0.5314823581310304
2.689270263214466 7.62722912518661 0.5325072270569499
2.804746294196872 8.455332605324642 0.5355577006645639
3.08051799700272 9.615514486523466 0.5426909011835803
2.75967313068063 8.429463611616224 0.5344121574297548
0.020009547674237682 -0.3622102920540631 0.5477044028615736
0.0663554079237712 -0.23741986711944452 0.5113711377596195
0.06752533561758689 -0.2155210214932599 0.512143464102914
0.06892494419362738 -0.0729273018255936 0.5169463870016594
-0.05142464120707757 -0.3301508906316182 0.5202458296878446
-0.04245513468890211 -0.27069224255388913 0.5357226155161322
0.03209094744389457 -0.1612562637659638 0.5126605492026035
-0.16878513476745363 -0.3142029412879299 0.5346422317112107
-0.13033942961057357 -0.24767826069743193 0.5206769376113561
-0.11853732488782945 -0.12934553441488328 0.5081188246527344
-0.2314132926919512 -0.29635961551768775 0.5207152907376351
-0.2456406903641612 -0.20725224076789717 0.523581567027211
-0.2533888655430595 -0.1401201769131586 0.5026055380335954
-0.3140209548674344 -0.32270655872439824 0.5362353158847056
-0.3464442929407427 -0.18670742992826073 0.5324294900309943
-0.3046570248256739 -0.1014330772889327 0.5198573602883472
-0.33741207973570725 -0.021106316305501416 0.503243658817615
-0.3983526112033196 -0.1853022609692605 0.5219242692159852
-0.42340896604180694 -0.06971200848624282 0.5171386566259255
-0.34380231918673326 0.008669204856688761 0.5039682222237355
-0.5275622411917431 -0.03197664093676389 0.5268386573090525
-0.4923955777030176 0.01579949965982541 0.5106199737261834
-0.5803460612555466 -0.0523552232523925 0.5382385229764648
-4.578132118902527 7.293510845736614 0.5652642780251663
-4.653268769495739 7.3302534713677 0.563140050136747
-4.777081573806088 7.346651440974584 0.5580106634913187
-4.726934449910388 7.400874718560837 0.5621757861666438
-4.860475391972644 7.245259161336544 0.5507028379702255
-4.833024407441469 7.304618452028596 0.5540469037340734
-4.845908615375831 7.560565683005531 0.5623196547046267
-5.046992018965538 6.981000956380824 0.5328835878362782
-4.975079610607739 7.064176339690044 0.5391602676218223
-4.976910567132907 7.138266973070524 0.5416098394789663
-4.972306111875005 7.236118788049912 0.5452507635103451
-4.906439594187065 7.295846868613798 0.5503285465705468
-5.11993725258488 6.974273112283627 0.5292997703450939
-5.050797850364858 7.093297634223124 0.5366533070365529
-5.260812707521786 6.84729158235868 0.518279499881653
-5.235353621055845 6.902987330536086 0.5213992298743195
-5.213152356404308 6.964574618029666 0.5246191748958253
-5.412197762267549 6.735465251257781 0.5072697472666793
-5.365998037553545 6.82421383299418 0.512545946517164
-5.479154651280638 6.746676458937144 0.5044927051123328
-5.6503914220085285 6.575481595762047 0.4903271045270017
-5.750653624774023 6.512986016759894 0.4833602807979833
-5.69583548561193 6.552429381425481 0.48737348288365623
-5.657611038140346 6.678517652809419 0.4936271648063514
-5.830709667887757 6.450576905764559 0.4772622607300038
-5.801537348410052 6.497520959130855 0.4803589747887653
-5.773243612100273 6.606386496223645 0.4855711331478356
-5.947580358387404 6.528665431209908 0.4745023363823978
-6.008560046601606 6.466953065864566 0.4693417370767412
-6.003922180221879 6.519449298203036 0.4715009943702308
-6.748286022947718 8.528965042063518 0.5078146056608219
-6.736677387847968 8.626589693372168 0.5117943881756933
-6.807095785590462 8.505255372481194 0.5042232748661277
-7.3731425922493194 8.29396641716422 0.4696861478535106
-10.974513438118434 2.7864370847440263 0.46714812503008085
-12.055557803659854 4.787823609889281 0.560829033508418
-12.051896329009315 4.866430475549348 0.5656269847986529
-12.169896303145338 4.74295970264914 0.555471920163158
-12.912544030548473 5.049118263144012 0.5565372961715027
-13.510117919888105 3.8835960121935225 0.47394445973919164
-13.420425827547554 3.9806447240938096 0.48165106612339936
-13.445917427836438 4.072214875832181 0.48642614773650467
-13.550254714693793 3.980832378034867 0.4787076066601583
-13.363278138490887 5.226778546972016 0.556673649858521
-13.8695332372097 4.446270663571679 0.4987537561512374
-14.00896218579119 4.451760822630765 0.49592539914665834
-13.788079526919477 5.269361599391476 0.5493889012848897
-13.901615770497633 5.265819598531331 0.5465309461176663
-14.211420876324244 4.482275139578813 0.49309779758788796
-14.044145725377062 5.275412824413713 0.5438313519906909
-14.082046396455484 5.477067903307524 0.5549544354363858
-14.67287702965702 5.156182797724652 0.5222806070331236
-15.747160059401512 5.851676347616323 0.5388484857378789
-15.72655592990405 5.94094332237646 0.5446098511890088
-15.894553685590415 5.5916040494610275 0.5200565675671167
-15.859016258313346 5.7691601793782725 0.5313911523257016
-15.83111144669146 5.82393565988264 0.5352510352490302
-15.942592404485843 5.679044993810508 0.5241466809977946
-16.367303943424186 5.671768312269088 0.513990595813886
-16.847331219943833 6.58613124713196 0.5571206560900325
-18.611065120057603 6.748758707479056 0.5263113671991121
-23.077305395936076 -7.678632621264832 0.49586180494540466
-23.12300259431941 -7.5662336216087995 0.5006479618450704
-22.8210992184949 -6.002795272971697 0.558786481448697
-22.81118312021197 -5.8776191301864875 0.5638236700333301
-23.2165643173 -7.466221731869551 0.5055613181280654
-23.027891337097795 -6.17075079351355 0.5545050605219951
-23.83362478386738 -6.421840613496695 0.5543502795260561
-37.785662615583206 -11.120567153963513 0.5398907002776088
-37.76855475406213 -10.976998875447997 0.5451814751023708
-37.81687692257013 -10.850549699836495 0.5506892298939183
-37.907507421618824 -10.73392451083814 0.5562870636893157
-37.99796063627423 -10.616405030227387 0.5620098094235415
7.052584349620706 4.141379667811274 0.5680174359475731
5.189926514279878 -0.7827652380943145 0.642502578068195
5.057842836622898 -0.9910907736664566 0.6294953164562993
5.1081663545188585 -0.774968134853836 0.6404771780739409
5.150036464787308 -0.24699559808294547 0.6646405885809306
5.02927421545172 -0.305630504828329 0.6587439038845478
6.447935978838673 6.687863809356682 0.5936311951907651
6.4391688197082555 6.794875680273912 0.5944756073091733
6.456207035293531 6.905774012537866 0.5955245085977676
6.483537577639055 7.031154344545915 0.5967889551472736
4.841273303126022 -0.9951815492871868 0.6231811116375837
4.812377866599264 -0.8621615739503623 0.6283503692075598
4.855761991816147 -0.6259816200170771 0.63993246464635
4.8792697659929765 -0.4915417413981886 0.6465080778241895
6.447045293887532 7.108199174172809 0.5970283242424518
6.438105846740165 7.221630827871796 0.5977460899941073
6.445511886447044 7.326802368777085 0.5986465635970664
4.714646129595613 -0.9643261779435609 0.6210551958693722
4.67907053443248 -0.914738349430507 0.6222749566835117
4.7310885223645025 -0.7662233308867163 0.6303096307377216
4.758133343173637 -0.7257220119367392 0.6328519487404888
4.800346218596607 -0.6224252912947289 0.6385795412187862
4.804668064464651 -0.5289502691285974 0.6427285924518201
4.84572511370825 -0.4163700609651608 0.6487730968126293
6.403728212879701 7.432738837905311 0.5989294964367363
4.695555367074353 -0.7084030542043024 0.6318882585509422
4.756409826712366 -0.45978181293215936 0.6443365931642888
4.759650385712728 -0.41361789735350585 0.646445005072966
6.346442552593132 7.486279599789817 0.5985710269716036
6.368057112367536 7.582037764992418 0.5995605223877212
6.312669344895422 7.6396650645725535 0.599210864981174
4.573396076049217 -0.8338803292005625 0.6229288580609782
4.590758468301653 -0.8141139437136498 0.6242225900032183
6.262604200882499 7.705125097205394 0.5990456831445915
6.234433848729813 7.767981238677451 0.5990484908605871
4.360531164693846 -1.2098413250048203 0.6000443131898001
4.387627967805967 -1.1341897629103892 0.6042644053196473
6.202427358111351 7.825853153548535 0.5989573612037462
6.1574237847333215 7.865479271133528 0.5986285098074808
4.2040508260415255 -1.2368925083131872 0.5945055945414464
6.094691972343103 7.914424842982718 0.5980664998167211
4.077904874319731 -1.4894871632969962 0.5792826617690259
4.111349899579217 -1.2586601071447427 0.5908640995260206
6.016633005193491 7.940473821057068 0.5971348171897575
3.926878955062068 -1.6465942402940228 0.5677201281430633
3.985244232356732 -1.5862852537891778 0.5721996230008877
4.042202999969049 -1.465025485174618 0.5794649157400638
4.006798311373285 -1.3852225158702427 0.582179184183354
4.0224701507211265 -1.2796043277585323 0.5874850462250597
5.836210135084115 7.774627211280003 0.5936930372764806
5.872536870743627 7.973225004552508 0.5952961583928957
5.877409021709604 8.053566177129614 0.5957330586783649
3.9193931910927198 -1.625027799406362 0.5685015739062655
3.8869578569363883 -1.4344544277709363 0.5765746946659467
5.680253146887666 7.6068208923677245 0.5904888513637756
3.6067647033231687 -2.496191129807086 0.6576290742205244
3.6620508559942744 -2.377851240291768 0.6662474514465422
3.8506338985684634 -1.420739311422602 0.5761433332622736
3.8192613316662483 -1.335319351125484 0.5792280222986869
5.57804705501627 7.658739565759059 0.5893346790244229
2.794394560224138 -6.243043861866166 0.6638643433694957
3.2371818511416617 -3.6740142894540644 0.5858155212143773
3.4820975294607788 -2.5706719349927236 0.646542709289779
3.4728066420990764 -2.511450397037292 0.6485603668245719
3.4894696972408425 -2.38245256739802 0.6553157203950555
3.760276421767724 -1.2243173752452114 0.5826269814666754
3.7203635494335625 -1.156954628442946 0.584612962962078
2.437215044352655 -7.246127906601319 0.6342879938347041
2.4315953146951577 -7.1843040546802115 0.633996154342285
3.2014149751855037 -3.5788916765452643 0.5874106972777136
3.6193531206032645 -1.1940268281580368 0.5801160403063916
5.314859156687889 7.31435704174442 0.5836140659225282
2.3440378041721948 -7.177838202519981 0.627923020521302
2.6102180431029467 -6.134384694184522 0.6506003856215754
3.0955436933020586 -3.249958129933008 0.5940688821607256
3.1907785443123444 -2.9107247533155403 0.6138862432280904
3.211416604792335 -2.84886267762856 0.6177622205802441
3.2348502397956045 -2.6441180879886024 0.6279556326072182
3.26596542990196 -2.545082792618591 0.6341841974490027
5.297827124984899 7.355862729617145 0.5836232195085297
2.317143853048834 -7.046600439720105 0.6263002270639882
2.4370108126629155 -6.1395515322467835 0.637681165143434
3.012514959371458 -3.5238163472395687 0.5781510803584127
2.9872636357481337 -3.4095509258858234 0.5811063849755644
3.0053955379935386 -3.277291075137237 0.5875004716929189
3.043468205095115 -3.242223806307279 0.5912266313599783
3.061852815344304 -3.109749839090166 0.5977180103642423
3.0679610317205572 -3.0314373842727376 0.6012963318166467
3.1091443020207086 -2.9473522809375683 0.6073188570791742
3.1635901595172857 -2.8243786358542646 0.6158114874211753
3.186256652129974 -2.723509363918189 0.6214932596703644
3.1090132601592355 -2.657788697893165 0.6195368303920203
2.3555546461514387 -6.108311010297232 0.6318123000325522
2.5538350503287672 -5.10820893252644 0.6526224620686296
2.841288658297864 -3.543365729471392 0.567039591483589
2.866804286396838 -3.482402341328824 0.5709281750801432
2.8743392029956896 -3.411746694866973 0.5741877698659701
2.932539046860475 -3.3414791954678753 0.5804624056704979
2.997739341184526 -3.1726622621526253 0.591208744555047
2.986147921131767 -3.138505829306996 0.5919074639548569
3.0023974395668587 -2.9790242711182238 0.5994296294623294
3.0635595968180205 -2.801058352949207 0.6106338577652536
3.0196722008792705 -2.6545627111698487 0.6141196473190601
3.0646907931780305 -2.634613525351824 0.6177492844325909
3.108156532556391 -2.3243886164767087 0.633989761561206
2.2248515089159087 -6.1762039669444935 0.6220629439067067
2.3194766049287914 -6.011202249546077 0.6295871286560744
2.426413925880799 -5.307801388105252 0.6412789118398354
2.4004039444729033 -5.232574978239202 0.6397372466460098
2.488747238799494 -5.11560176387379 0.6474263639764211
2.8073133842336624 -3.4513474680296934 0.5685536875033518
2.8587474972732005 -3.26482848037951 0.5790415228256005
2.853172571414029 -3.2074911068929044 0.5809877849623226
2.975727451817262 -2.6907499338025156 0.6098381227321407
3.0117993048236444 -2.5877782395650977 0.6164580745070822
4.810479373553991 6.707804633600021 0.5730482710826752
2.1146954052309006 -6.201651466798688 0.6140945978207962
2.2891937137860907 -5.392891511241576 0.6303117739598625
2.4778048472062384 -4.711269092918332 0.6499116916330709
2.4294430282517787 -4.509330611927786 0.6479832559157199
2.587594733512981 -4.037359335767575 0.6668802700309953
2.554793710941637 -3.9240438209920763 0.665755376278925
2.9080843218729626 -2.530912706180967 0.6124477718947914
2.870372266255731 -2.4781185585322314 0.61240012301589
3.225160486478482 -0.625434088052168 0.5938374388476364
4.7094159186803735 6.671480025107992 0.5712702804640186
2.0082259034311516 -6.2338846463953 0.6064819493651417
2.0655956115268497 -6.166446577213734 0.6107174956871582
2.0770558050967143 -5.979146593046584 0.6120662996223103
2.1931438811943345 -5.421803308907044 0.622878021339885
2.380506432752605 -4.687708813923295 0.6423061662287465
2.345917412073076 -4.604760068149863 0.6402989268056494
2.347236914868615 -4.471095544869624 0.6416587716354849
2.3556848909696724 -4.399064293041276 0.6430731028533867
2.379435002651637 -4.3168757914404345 0.6459066178455304
2.4445128697111373 -3.9648769981151957 0.6557189257133247
2.5081361842496523 -3.914542540234685 0.6618615367898839
2.5211089705234153 -3.8310389683695156 0.6642511144890605
2.827573463778945 -2.458219793501989 0.6105734369981383
3.1502266595338604 -0.5802788882734468 0.5935979803727601
3.153359623613386 -0.508095996701386 0.5966933801139644
4.6214749678614755 6.68739930936287 0.5699868022202406
1.797060846996094 -7.01939266725057 0.5910267787766852
1.8917869615437437 -6.602336787735275 0.597753802781335
2.0049224227033644 -5.954437018666709 0.6070073525645573
2.03270414791536 -5.862157852605212 0.6092787517607936
2.046112403565714 -5.815882089428951 0.6103986821356076
2.019430006248479 -5.665557153808993 0.6089768546259314
2.103055544296783 -5.505455381143134 0.615758365689868
2.31573539834286 -4.486280572861493 0.6389664511259247
2.3271198478300548 -4.418982896782623 0.6405199716827399
2.3394124933399327 -4.313611365398202 0.6426232216537036
2.365884635944677 -4.2186568404546225 0.6458759821375533
2.3673729200320475 -4.075853203506853 0.6477120194824978
2.3617764626607514 -3.992691011755675 0.6483068495366031
2.41717486295408 -3.9211400779154886 0.6539920305077171
3.0627402311426852 -0.4960430772642037 0.5946143005461437
3.1984501785695265 0.21507945458988398 0.6271054600724
4.529177007114836 6.662079437745999 0.5683985043432171
1.734235631564246 -6.939721883040518 0.5869057165025344
1.847640117293275 -6.211744007562738 0.5953514344168711
1.8906047446995793 -5.920384592998433 0.5989903287122793
1.869398481368535 -5.878471922920508 0.5975697909535591
2.1532302833104175 -4.464166715786305 0.6261087300717707
2.281788889212099 -4.069361396218172 0.6406357447908939
2.264079407924421 -4.020929243251186 0.6397181642089758
2.988731531132453 -0.44956725813693343 0.594390185175949
3.014699261016763 -0.3634436340269229 0.5986697054445216
3.1530232834990954 0.2542612253652692 0.6272934725124376
3.1491734558318996 0.30656442459458644 0.6291986311671565
4.461307042862588 6.709959723486789 0.5674718014726727
1.6992693719235368 -6.318647123657222 0.585061048989608
1.7030375865390879 -6.236470955127726 0.5854130979335804
1.738955194532717 -6.0792110475861 0.5880761989204286
3.0002790127717347 0.25661760803467937 0.6228078583594001
2.921000503167064 0.2795222012653531 0.6212980857661601
2.9304808813116754 0.36750838201364866 0.6249465013235542
1.5885432399271258 -5.787465661153979 0.5782410163005245
1.5821834485783208 -5.69581826585334 0.5779520386932839
1.8629076928072401 -4.716602009517983 0.6017208305902371
1.8637147824079514 -4.370398957860541 0.6039672435760677
2.9672363707711664 1.0629849965218003 0.6519173259877129
1.5351918952068924 -5.7084315034663 0.5746830482258833
1.7218994719338176 -4.468129914031068 0.5924339013518649
1.731994272957268 -4.419202180006788 0.5934631881195445
2.904164773802604 1.1059860756568964 0.6514876225657026
2.895297770278443 1.1838773094387824 0.6540266790696952
2.9214570120176315 1.3044464243284186 0.6591990845530465
2.892089781957501 1.358665779031356 0.660283878420193
1.7191817373960119 -4.4431046495664575 0.5923421389783756
1.7208569627198045 -4.4247512222962175 0.592607972097591
0.5236746604112469 -5.511064516161122 0.6515022885142712
1.7106162770588418 0.318161040909118 0.5852579194865886
1.6164985102851683 0.3330702134459298 0.5828459491297497
1.5997203712961856 0.4300102455327719 0.5858277717438582
1.5171304949082693 0.43840500855745246 0.5835009942715934
1.4694806778019656 0.49052585595184217 0.583839077372396
1.4646961161387768 0.5428621654563748 0.5855515501552753
1.499020291407094 0.62116020773697 0.5894535511041679
0.1809978259854818 -0.0029831728059295237 0.5792032997779684
0.0378973480792667 -0.2700922994747865 0.6464623468035359
0.1678508013587114 0.021361971614035857 0.5802210887681664
-0.059140512498626674 -0.309720398644338 0.5975281158222356
-0.0336515888919231 -0.267500761206926 0.6171078101802998
-0.03908231495634318 -0.18969284806448372 0.6527032597194643
-0.1541238925298153 -0.3150288093341871 0.6042363360173819
-0.14410457899410478 -0.23380641587430162 0.6148692722085372
-0.11783522660432905 -0.16423800223035578 0.6406516831647184
-0.2529621564645588 -0.30587313180041376 0.596918239360783
-0.2364481963345832 -0.22282880512986392 0.611513099109454
-0.22142921802131316 -0.1556343971298677 0.6479703243308345
-0.33995759104526546 -0.2912993228096945 0.5807002336449758
-0.335710488400117 -0.18744540584844893 0.6137621904673329
-0.31094762997186043 -0.12580718623116516 0.6329734453071381
-0.46907374296432686 -0.22468311313821343 0.6294844738244083
-0.430661365404435 -0.1876822826383202 0.6328016025888319
-0.40862190009768984 -0.07531111180397909 0.6343743428942188
-0.40533468451392624 0.01578635747036694 0.6231891360719245
-0.5104069466290782 -0.11022186416294999 0.6441720759409961
-0.4882942312760229 -0.05173227336262198 0.6208091733164227
-0.49872566813959107 0.004775143686796657 0.605768331713586
-3.054810335577301 8.297778770297395 0.6663700910259495
-3.1305244526555223 8.308146940477826 0.6635172725142738
-3.22440666932578 8.252121914258861 0.6576028623205108
-3.3699688916448602 8.182986443444431 0.649025761840162
-3.3091730034229965 8.226065104874692 0.6530927761388134
-3.5223502079505824 7.972095396194777 0.6353269790912183
-3.4998841637214975 8.069313362895205 0.6395533296975475
-3.456307214689339 8.162262312949839 0.6446035450299541
-3.662050669376609 7.7971787267002215 0.6233495309405341
-3.6085793607663392 7.902073383494257 0.6292055139293725
-3.7479764495643337 7.936151641487464 0.6242380946460304
-3.8239001049177634 7.833400941175307 0.6174684604874933
-3.8072690330955696 7.943120069091781 0.6218932981465564
-3.9789618852902633 7.754104584442536 0.6078825298394844
-3.9093714779525515 7.862848838968813 0.6146673307276032
-4.095441570845015 7.674578463668838 0.6000045477441153
-4.032976786579427 7.7475803218235795 0.6052885965673056
-3.9788312552433736 7.850939781209752 0.6112285032292946
-4.200818874177459 7.658637915799649 0.5948128906068066
-4.116622433190832 7.815095665538878 0.6038974639313541
-4.352727979684186 7.489556951566086 0.5822170885441247
-4.259764361212477 7.620268364633307 0.5908653362637182
-4.271612675971122 7.734913669138019 0.5942046844305622
-4.388266928537463 7.484421526302822 0.5803927556800702
-4.273607510009081 7.965420731452395 0.6020097743249424
-4.540965083646601 7.369138022196711 0.5695563596122232
-4.498030418806607 7.475616706002941 0.5751362958878217
-4.508981440526449 7.664569942632462 0.5811847719833223
-4.4187558439707715 7.720715107147414 0.5871219058317907
-4.414119916897617 7.840877470302556 0.5914693012669574
-4.5642599373480675 7.616944559679298 0.5770511135522746
-8.011778156050076 4.968531787214034 0.6667829941494174
-8.15586906697748 4.770550845235523 0.6511023518763206
-8.129167918222745 4.8165357733516005 0.6545851553578084
-8.097233330298986 4.924348913160582 0.6619642119247003
-8.317196342328154 4.675121441476197 0.6414488167762176
-8.301592400992456 4.818562895765107 0.6505449339836498
-8.431972252170109 4.610155380890404 0.6347310796648113
-8.428284469521984 4.714320638087007 0.6411225550898729
-8.39637145619406 4.781914346858106 0.6460063295029826
-8.496605673196756 4.723649454461617 0.640107784849278
-8.460047091290429 4.875865916485164 0.6502532853081193
-9.03812025670951 4.135547091313735 0.5919155716773647
-10.754919198961122 5.876869850450176 0.656376791756126
-10.709078162820516 5.956153863232504 0.6622105382804524
-10.903192670537713 5.923294678243282 0.6556207915157551
-11.046988662396643 5.942518033050624 0.6534307219195373
-11.152419204365284 5.714283164043566 0.637282633719697
-11.145861827753892 5.846007820015764 0.6453107568406942
-11.11755199517097 5.908887191026873 0.6497831902723177
-11.442275234244736 5.628703130506869 0.6253650214502111
-11.388996742001748 5.70393778260548 0.6310969796664871
-11.508586013491799 5.617684102850116 0.6232367277102888
-11.455414379290014 5.858031053445593 0.6387771567042044
-11.465801577323392 5.979639201809421 0.6458285113779736
-11.64745580747887 5.459387295895377 0.6105780093010147
-11.637653907111744 5.617396573905292 0.6202083999676276
-11.795006220239411 5.252502609422829 0.5949598472136783
-11.77914171477979 5.351138065957039 0.6011247341604014
-11.735773480325411 5.433701632343558 0.6070567318161273
-11.693475318695167 5.567677847774227 0.6159267938228087
-12.028358306864991 4.959629274982385 0.5717872783174288
-12.030666162497907 5.093246020943333 0.5797997853210164
-11.975740509351965 5.169868755540017 0.5857235180252054
-11.954103789298767 5.26554421724467 0.5920106433167898
-12.139814641966073 4.968518377317264 0.5697280703380804
-12.141061809379819 5.074033175385404 0.5760564194460815
-18.489899067533806 -2.536998479641756 0.6563671641667737
-18.4973752613124 -2.4737200395112415 0.659531473012249
-18.53064513958357 -2.411970273352087 0.663018615784174
-19.035445296624857 -2.895631225418538 0.6464879120241898
-19.032508212070407 -2.7971337875493236 0.6511664260537284
-19.470613638122593 -3.1939437083064606 0.6382506547506519
-19.45425882045996 -3.128364829656309 0.6411309379437191
-17.442763053504812 7.251470349228398 0.5830457564194589
-20.07389586635032 -3.382210388335307 0.6375584588474869
-19.97077744128465 -3.3038651079491803 0.6398472843554909
-20.244366095926356 -3.468686604533419 0.6358441230863999
-22.516167105749453 -4.5540192436141425 0.616804706773489
-22.84844764981012 -5.681584541415844 0.5724833161421319
-22.855872333163635 -5.563299573793848 0.5775415886589306
-22.600261596882888 -4.249617112344863 0.6315379023083082
-22.924547120155747 -5.818073925728419 0.56775625680508
-22.924758610047252 -5.496322215238553 0.581278029963339
-22.62739610288574 -4.175930817437727 0.6352498172112919
-23.021305930132705 -5.431654569211002 0.585246725796748
-22.920883491610983 -4.927322707505226 0.605682271435208
-22.92413888349123 -4.367699959695294 0.6305331883647676
-23.128493991507423 -5.038251338640704 0.6035781835047022
-23.010171917391453 -4.543001465643076 0.6238274033364847
-22.963373161910063 -4.454258262800748 0.6271514113287971
-22.98818385267135 -4.138881926274781 0.6417093931342437
-22.987415750172257 -3.938852551117536 0.650855355970686
-23.25363369265236 -4.088908445655052 0.6475445849686194
-23.551299568744206 -5.356691048564198 0.5952949245346997
-23.279419565435933 -3.848807967510233 0.6588983938667675
-38.114723671572676 -10.498172287903262 0.5680383881052331
-38.174268714173465 -10.368090209707486 0.5739270891677075
-38.23849661153982 -10.250621396446345 0.579336433114567
-38.3181502729427 -10.135982453149516 0.5849147268197639
-38.41435956525677 -10.018149768134805 0.590778153030388
-38.47106965856747 -9.892019880497575 0.5965781601090681
-38.573625566459235 -9.778223953706203 0.6024088736206563
6.051082947424923 0.0024933830880196073 0.7008171314028702
6.242800212890445 1.2691612217056725 0.7585118902681232
5.930183589347576 0.041536621852305444 0.6991218583687022
6.10542789919584 1.0260329821726497 0.7448365295598591
6.186860606253714 1.264098514416061 0.7567352010057673
6.023359777773314 0.9675696190588727 0.7399955000383078
6.068985731168137 1.0647791827724151 0.7452748235087142
5.679014296158957 -0.06633715446880384 0.6874008426425804
5.858698717284563 0.755068777842733 0.7266069753695676
5.912086182291525 0.8733663347458172 0.7330108582735261
5.997201951599498 1.1112538352521306 0.7450069439482562
5.650701526031716 -0.05154250039272035 0.6871377383216442
5.775205415458776 0.7078525079228006 0.7223222607470565
5.6916002374550985 0.7396697782730426 0.7211301433084637
5.655531209094293 1.1258745526505796 0.735602332600541
3.5422321647881345 -7.283941025549995 0.7147710884522505
3.4908030114045285 -7.251165002098908 0.7110990534935566
4.187256504491522 -2.6195647345677937 0.6884713238795488
4.383932836338978 -1.1744175433423258 0.7669491824879993
3.1155038079785307 -7.094274461347706 0.6837181341141912
3.175206746136902 -6.197621140484237 0.6932475914602261
3.18681606529862 -6.146095861833018 0.6945373801676513
3.225829954423504 -5.9883694131914895 0.698721759915687
3.887754739879661 -2.531852631713436 0.6736476411566198
3.9104854885642144 -2.399159772861996 0.6808449627288048
4.004029847212016 -1.760723011527398 0.7154945569197295
4.060385961004236 -1.4592279524351874 0.7330962324140212
4.137218657057661 -1.146522308232155 0.7528545870584981
4.181183380237101 -1.0957104360500738 0.758053093113408
2.93776199736949 -6.686478586895061 0.6723625991607021
3.088870339683444 -6.2839871447402835 0.6860622184617926
3.791805724964539 -2.350140225101689 0.6755977109152816
3.941218685749372 -1.7765416260467257 0.7107722422804551
3.9518040006585746 -1.659660687896297 0.7168478567778838
3.9556843797899006 -1.5773515445301736 0.7209297529225185
3.9980950635367316 -1.441835567226751 0.7299543838494005
3.984429831733319 -1.3705133326663457 0.7325196647161226
4.116007949951923 -1.1331368342702677 0.7521044461678477
3.0386598292772593 -5.622700400020363 0.6868083740066233
3.747569955191084 -2.417455962468838 0.6698855511802135
3.733029329735043 -2.3336155509146663 0.6726829749923033
3.7204458283020463 -2.2227680901777305 0.6767688751806975
3.71363709460125 -2.1716846721264433 0.6786356904506801
3.810706836603168 -1.9314414663151391 0.6955066865389175
3.830101619782872 -1.8464027125978495 0.7006003075747314
3.865839672709873 -1.7238011874774635 0.7085131360083621
3.9015837359455112 -1.6745716797160186 0.7130092968817509
3.8974943946966434 -1.5254158951011145 0.7197195093062478
3.9471105732187706 -1.49047653900867 0.7245019508539189
3.8994531010014537 -1.3595409789889592 0.7276370022518134
2.994724748265006 -5.569549635806527 0.6838059453630239
2.9784764400933144 -5.493322984009235 0.6831011397126807
3.657579762894655 -2.2757376650721133 0.6705136872692056
3.646377962365131 -2.259335784891209 0.6704851048464464
3.679182252074537 -2.1095572746462605 0.6792274831913708
3.6815199841759725 -2.0142134074864004 0.6836406757540865
3.7114525237361216 -1.9717584736502434 0.6874735183928028
3.8188323005767044 -1.3055451435716243 0.7251392745079649
3.878196909619265 -1.1847427228407441 0.7346686945752094
2.9237447353719492 -5.538756729394577 0.6783886907023431
3.608999535567504 -2.029992338463036 0.6784000608018457
3.7730468761108185 -1.2986474322075225 0.7226301343809791
3.114967876088982 -3.7375508671907802 0.7183758921040404
3.1320648164798284 -3.590805399171992 0.7229574777468618
3.1545839390977983 -3.587868991654264 0.725107274415749
3.226280691795081 -3.3113438143965492 0.7381235735762615
3.3194130264268393 -2.6664426149464777 0.7654262651668131
3.0599132663294117 -3.72739874595214 0.7136529282633233
3.095472847810983 -3.64221507673822 0.7185718570285775
3.139941907268101 -3.14944371348673 0.734233117902958
3.16876977550472 -3.047253558110378 0.7396787022291451
3.163655737316758 -2.931069497352584 0.7424529074939348
3.214726351032918 -2.846172701545788 0.7497958184076199
3.2594726348733305 -2.6643100930057644 0.759772958267843
2.962791142252618 -3.7209840763920567 0.7050673755404531
2.967258301608134 -3.587063539622151 0.7081478198422573
3.0313200120353807 -3.3318924903410085 0.7196037466608141
3.0388047619856042 -3.217914518863315 0.7230431751243369
3.067822192501966 -3.115865306235394 0.7283667050473464
3.1085052381980667 -3.034790418681991 0.7343452431407392
3.105085347137142 -2.969899145687128 0.7358226359944893
3.1599289436793034 -2.874568231869817 0.7437650004876557
3.173488100615109 -2.694985806876899 0.7505543882768335
3.1884580264215368 -2.454449424130788 0.7600734319390149
2.847354620953533 -3.6841580452811358 0.6954682705355856
2.844692933138883 -3.511036461994257 0.6986259952631644
2.8894145385668093 -3.378790889132432 0.7055430077384617
2.939417020240877 -3.317931442207316 0.7115050811926953
2.9409964756115636 -3.2215159944946308 0.7139346210156723
2.9745353925426095 -3.1433704173445456 0.7189790869023844
3.069623796693593 -2.7132060749962617 0.7400689115199365
2.6941661878140195 -3.8174340054129257 0.6795214625835847
2.724119085091978 -3.7586778983465385 0.6831860528068863
2.7703764935568858 -3.711811602095546 0.6880822256801038
2.810099207516247 -3.429551416206981 0.6972023837369441
2.8436050957314443 -3.3979480233232486 0.7009482239567539
2.8596424026378306 -3.1703338117292983 0.7076420984345634
2.962973452794113 -2.4754385207208 0.7376010498141146
3.076628301590951 -2.1285887653257083 0.7611875145785205
2.613185318989256 -3.829880839159258 0.6722606628002556
2.6473946764387666 -3.771821490441515 0.6762249028658185
2.9888391146890045 -2.1486710389533 0.7518738444851344
3.224493057550733 -0.643469125119391 0.7205152658934142
3.1562920752572836 -0.615042434766538 0.7176843976889564
3.3166123411885664 0.1154441995968658 0.7660312745639049
3.2866475471466075 0.1552633442788296 0.7663745530276673
3.0861253160708113 -0.5515955533718108 0.7165569571544785
3.048357277871701 -0.4981073436482464 0.7169785369188789
3.2041746543073906 0.18445257495537626 0.7628792898799343
2.2465800338420356 -4.167481307762651 0.7650699231406306
2.248815319002836 -4.115952326388865 0.7646092650311471
3.0068083862321924 -0.44738233566365526 0.7170164601473583
3.010679553554774 -0.37516614933459613 0.7210302977658363
3.1139365407267485 0.20008819037694492 0.7582168465891348
1.7251976607868584 -6.210645316529517 0.7649432840090089
1.8254831488664272 -5.893994590558053 0.7639099141781454
1.7682594126938616 -5.8154957174114426 0.7567439646472092
3.032013618896368 0.2632602759371099 0.7566959437694074
1.7227288496122075 -5.95276338069595 0.7569326072669676
1.7412761766279325 -5.797630538403955 0.7538899133953031
1.9469243001794971 -4.412074615282842 0.7380497147556068
2.938266422259047 0.30144159204422305 0.7531050727961965
2.9239557705277033 0.36848158317110213 0.7559667801482745
2.974511514383127 0.45196993936129326 0.7636586607567677
1.3160797260787311 -7.04966123822933 0.7606319945012123
1.408055695314407 -6.79083752583278 0.7586435335169661
1.5124641314975145 -6.176031056002483 0.7466075978539426
1.894173161444478 -4.425789402280857 0.7330485190506579
1.2069211114474347 -7.255587135408274 0.7599397885926289
1.2684039528958095 -7.02847298979255 0.7564552798409203
1.2778766972140483 -6.990211973137207 0.7558018804729332
1.349523196896052 -6.825815902708691 0.7554466644234341
1.301594674513385 -6.7698346746343985 0.7500265831813476
1.2979617083544355 -6.603250392931953 0.7441365120001022
1.4302845901565544 -6.275470194449355 0.7433205739128512
1.4537442472706656 -6.166506301148283 0.7416536562198089
1.472511549742579 -5.876166131171565 0.7339436285181276
1.1058662458335216 -7.539407605212016 0.7629149653212015
1.062013872789261 -7.413609811206793 0.7554642191123218
1.257808167503449 -6.758386191952556 0.7464266712101362
1.3063255921125465 -6.318135371398312 0.7352117689785609
1.3256072130986964 -5.9457860675579015 0.7244900371156909
1.6280191295905901 -4.602626012465064 0.711301282878096
0.9854300914126402 -7.479319171143616 0.7526364598172577
1.0052561701773275 -7.428725944079563 0.7521689556159392
