ply
format ascii 1.0
element vertex 831
property float x
property float y
property float z
end_header
32.63749386806619 -161.87555094538146 -3.934013797337693
33.96674258087995 -156.50155382584896 -3.9997915737884675
34.006027745620216 -156.42262579763835 -3.9984730390573264
34.02746597036402 -156.32710247475225 -3.9955252729533375
34.07816148367492 -156.20115309686216 -3.9932700981464366
33.847710432520714 -156.56601711520744 -3.996420300965466
33.882293950391585 -156.5134015194573 -3.99609925268027
30.955489084832866 -167.70131663717387 -4.025660746795033
33.73989281110559 -156.55269991455975 -3.990454734750774
33.63654476637517 -156.55577883347306 -3.9852659515086266
29.339076481327893 -172.23769261529372 -3.931649288589489
29.307847948151164 -172.18751394558953 -3.9317838261896942
32.81852039656769 -156.1081011293202 -3.9263589207553222
29.738477117190726 -163.11330298109363 -4.025237977897312
29.682423519238128 -163.07450366414344 -4.023409106186275
26.69790317342303 -161.51744887044566 -3.925930918539763
26.718322682934634 -161.43672285922813 -3.9273859326271285
26.716786343937127 -161.39762449004047 -3.9281849071593657
26.677109707308503 -161.32790593519323 -3.9276133782259977
26.61424409502559 -161.26222240984058 -3.926731235976511
26.56424465851488 -161.23221065107637 -3.925210828190833
27.012796946412404 -152.75411285377956 -3.929735046421197
26.909547114215396 -152.790559585982 -3.927617746782735
26.962812451789237 -152.77336990124755 -3.9288191574287312
26.794982615763942 -152.77036596076437 -3.9245233701318076
55.32115646516528 -184.09002384141172 -3.851610557537111
54.97825063769824 -184.33996934336903 -3.8520685559835366
55.07463903939234 -183.93015062912804 -3.8558732810029896
55.13769134709995 -182.9576966509202 -3.8655756539708515
54.973488818925006 -183.08280975571307 -3.865856261435648
54.88685513761392 -183.1393114688891 -3.8658491997394626
54.93782082435446 -182.862560262009 -3.8682765241298958
54.55366377903351 -182.85790364176862 -3.872245361474798
54.77649865633809 -181.82469070968338 -3.88081039708397
54.45023227697921 -181.88306661986803 -3.8832410498956973
54.47843583165346 -181.76116617958346 -3.88445001400862
54.51021047350457 -181.6411219224196 -3.8851243086490195
54.05900499886205 -183.206503365914 -3.873026174778206
54.44307507644045 -181.15666314120952 -3.89083692070409
54.51333780541793 -180.71842099907497 -3.8943201524844575
54.55026187367142 -180.6117350684042 -3.8952215598250053
54.40764301481257 -180.73889241754236 -3.8954683682552584
54.36006749393253 -180.82510994668627 -3.894876747574166
53.57094670184594 -182.85631626197335 -3.8812249696162997
53.415834255677936 -182.4578583669708 -3.886811756710345
53.38565554818079 -181.74782131426582 -3.8948584355478184
53.3004830093504 -181.79374510770688 -3.8953475761149696
52.354438688783766 -181.41814098441412 -3.9078917218155533
44.42861401766387 -182.86973814115706 -3.9246880774137303
44.307753382473685 -182.7638554737309 -3.9263134918081057
44.19903257921544 -182.69576874511938 -3.927346757364486
44.097984652147396 -182.65220788701114 -3.928003353100352
43.97931808113843 -182.6954261237977 -3.927302235388749
49.59314058426823 -159.7597356075947 -3.859916440593451
49.663165942668954 -159.50727457141647 -3.855147616854177
43.80213596806093 -182.83918083384162 -3.925000320637403
43.865518388120854 -182.74913419364927 -3.926417538743339
49.57853109810145 -159.7167096424477 -3.86009693601818
49.52437224290392 -159.6514542504352 -3.8613610489028707
49.58918534126697 -159.56847255433487 -3.8583301948605966
43.68451869241743 -183.0676631142329 -3.921370799666262
43.748634039436 -182.96769093689 -3.922956060539718
46.6527365634935 -156.8256023546536 -3.926462133147492
46.58315048208722 -156.7564199824134 -3.9277327684760523
46.56979548293408 -156.6744035118037 -3.9268742816488214
46.56228151253501 -156.5888468238523 -3.925730602275951
44.627662072132175 -164.11773961164056 -3.858072248123479
46.54330291010008 -156.63018796596708 -3.9270665648319745
44.43674049262887 -164.3507143664247 -3.8592911865620847
44.54768708867147 -164.11905284387043 -3.8612913539149787
44.40122184235547 -164.2519793511757 -3.8635104189662313
44.44949657507642 -164.16006432848985 -3.8641487659552882
46.98409285807493 -152.62483687952087 -3.8329077748139335
43.63700019294018 -164.80744668680452 -3.8758846135683416
43.511935612016856 -165.00642835072577 -3.873763714199142
43.478967046547126 -164.918287064205 -3.8779379804743837
43.52595953383279 -164.84544261716326 -3.8786845168513144
43.59083822958684 -164.80554156500997 -3.8776626576174458
46.531967763206 -152.6050389106391 -3.8462470459942804
45.6513237775348 -152.8436000231604 -3.8785010567737523
46.046302503286995 -151.37085695681597 -3.8335661213785714
46.08305144265783 -151.1973854076679 -3.829060747803443
45.99640273742079 -151.16662308805684 -3.8313449557817822
45.851538952677664 -151.4678097673224 -3.841891568048304
45.80585760746054 -151.12132484808214 -3.8367395839791687
45.8624133174121 -150.88832812422507 -3.8298021162691915
45.331389511356576 -150.14519983149114 -3.8306874194181053
44.82472486291968 -150.19744253819783 -3.8470639898806596
44.886432645371684 -149.7176402119209 -3.833912571582843
40.42714544407507 -159.90119127639758 -3.912526084586004
40.32720762979578 -159.85098848266625 -3.9253220354733043
40.3580939596958 -159.60147507930344 -3.866521317770303
40.39785652326694 -159.57068108453691 -3.8609643977273147
40.30032530359086 -159.68811345962516 -3.8743002781647142
40.31769952037434 -159.64410528027705 -3.8720611872632213
36.073738934035305 -164.23437080616435 -3.830919804366083
35.999279457946756 -164.20534481784324 -3.8306804135545374
37.00300022462619 -157.35928740821367 -3.866409036865611
37.022703470920646 -157.2879403846344 -3.8673563928494885
36.90722614497721 -157.42963340707811 -3.8772511269183974
36.96499118707176 -157.38721403161605 -3.8708691605646437
37.01839927069689 -157.23912271809553 -3.918987405232159
36.822363336226076 -157.4327343866616 -3.8738851211851895
36.75889305625754 -157.40529902186606 -3.865025878627482
36.7197125558527 -157.3439485659384 -3.8506526696686008
36.70069823467256 -157.28902931736192 -3.9165111166892976
30.80424775490892 -178.38825228627198 -3.877755429866305
30.728271652331305 -178.28562614880877 -3.8780166232141893
30.662864251995018 -178.2604073863404 -3.8768839243133333
30.554976452618718 -178.24939051600947 -3.875162648356472
30.430889906649405 -178.27662160956112 -3.8725610772214374
30.140167878372978 -177.13098007410352 -3.88359918302168
30.121358608875838 -177.00446690392545 -3.884748715446093
30.03887278380694 -176.94216561916653 -3.8841288682553174
29.949042352892928 -176.89364332414746 -3.8831606549120714
29.883160729274678 -176.8742946440996 -3.8818077386513523
29.79901510329662 -176.89691176758834 -3.8800668350184195
34.07693223208069 -156.27375683586286 -3.8376648935303335
33.93585678176778 -156.47419094464234 -3.8398162848627626
33.984303458415525 -156.4229393434249 -3.8402144981076356
34.037727222794324 -156.33436287140682 -3.838468814331856
34.06961814055177 -156.2348116630135 -3.834739159223217
33.80926010488203 -156.54425998402942 -3.834359252976477
33.86172081272984 -156.5053315418414 -3.836057926825958
33.73131160248888 -156.5545302284243 -3.8288411778081244
36.598834576946615 -144.70838254216142 -3.8320494815906883
32.26191958169498 -161.78520553527522 -3.91183795734286
31.77621645960194 -162.0667795325122 -3.875756577251506
31.64255365060497 -161.99698274611092 -3.8683293107481953
31.521751928021438 -162.07803950597722 -3.859316895244761
31.55699449652612 -161.98756610248583 -3.8631105718635363
31.580502570389786 -161.9280348252668 -3.8654707106449004
31.471651470468238 -162.02650979689764 -3.856815853178804
32.777042302739645 -156.1150934371378 -3.924432122501095
32.82432281980542 -156.06442602793837 -3.925108637731216
32.68182997285904 -156.16927322953742 -3.9212503635475144
32.73993783957711 -156.14886271796706 -3.92365218658384
27.963466321709355 -175.0524489978257 -3.8641601506149854
32.62458865781962 -156.17952459054024 -3.918524547902231
28.095482062810987 -173.8929368572389 -3.8816218507651272
27.96261813137582 -174.21596495860504 -3.8741514655663902
28.044705092538717 -173.8603917383976 -3.8804612958217763
27.435105428458684 -175.5410831922887 -3.845173573336069
31.248585390127708 -159.77531257468078 -3.871545052341909
31.346321462596098 -159.68511127849078 -3.8789396461966903
31.331821130203068 -159.6122815083215 -3.87870438661518
27.587157767736386 -174.33586248554587 -3.8635456207298318
31.289526352629885 -159.58200319921232 -3.876104566033068
27.55916991447628 -174.26734014241845 -3.8639941654424104
27.14538306824886 -175.13616992280174 -3.843426948380861
28.24640293323239 -170.73189853397076 -3.9224081305066156
31.54217702831715 -156.60419620183248 -3.8692601156594155
31.550743785355227 -156.55796585529376 -3.868589867391851
31.482948937178044 -156.62607486520298 -3.8662078981501273
31.520651185480094 -156.49146316635083 -3.8652063887344843
31.491141330964076 -156.45172121041713 -3.8623984348443745
31.042438724383228 -146.23102735470994 -3.8798622958854745
30.953059509143813 -146.16332322544224 -3.877227289144141
31.137677321993912 -145.5187985278572 -3.861954969295574
31.16968295848533 -145.3893426283119 -3.8587766630620446
30.863782983910895 -146.09801848190097 -3.8746786362143038
30.75663354969285 -145.99488556208954 -3.8709276878927046
26.689666645545227 -161.59571393650864 -3.924400554369563
26.564577189090333 -161.78152582166862 -3.919875831569035
26.611793236655124 -161.7130590583779 -3.9212260086176713
26.662682633366728 -161.6415850122415 -3.923324301692033
30.526998485337884 -145.7678350281598 -3.8627425546808274
30.570535939962983 -145.7369747262063 -3.8624299768194073
26.512392672443085 -161.83133618077187 -3.9179542688313544
26.447390431332273 -161.21365177573423 -3.922177199658566
26.403419644384712 -161.18175724878466 -3.9208545545013878
26.371416249408853 -161.1478434100147 -3.9206276980385857
24.01023020054057 -164.02785506005262 -3.8349617940629477
23.896255399877177 -163.8051671291576 -3.8315409969431715
23.96725178594196 -163.65210391740663 -3.8337645913097584
23.852868500111455 -163.5590909177914 -3.8297695256631332
23.916114966773208 -163.4864240817268 -3.8321913722159002
23.895711865244508 -163.44016075213307 -3.8311909348002655
23.95867187080873 -163.0173420343914 -3.8330424578469366
23.78608520658636 -163.42302565414846 -3.827806633792815
23.798376115507477 -163.2917574677664 -3.8279928813103625
23.851803300919485 -163.19937780459512 -3.8298895064248737
23.900029731546326 -163.134823180474 -3.831156773257961
25.03863693855152 -158.29162141861005 -3.9007204080384845
25.038344328598072 -158.24838976592625 -3.901167927153513
25.11087225823803 -158.03780318305888 -3.903793003916477
25.14998648102182 -157.95557167739787 -3.9052394524483036
23.817495227569566 -163.1070089558348 -3.828664767316611
23.776091270045132 -163.01643966348757 -3.8271924305234784
25.02427559562888 -158.20363492080736 -3.9005814644725887
25.022589570720953 -158.1154466965074 -3.9008026542373173
25.049326169848943 -158.031305609472 -3.902190077525781
25.0695744715725 -157.90221537152453 -3.903155170083885
23.72519007237066 -162.95365612706865 -3.8252535234879126
23.845105201632997 -162.57022035766863 -3.828829431404158
24.361805351258965 -158.59954810161827 -3.878304022897587
24.562374236384645 -157.79921046280413 -3.887357496085656
24.201632571953944 -158.63677664764393 -3.873455369252516
24.195639904031275 -158.498031716207 -3.873566541506295
23.44170791076695 -161.03476336680205 -3.8310650982887866
23.480083635729848 -160.78823947312054 -3.8344255676018864
23.55036327882268 -160.70897164177936 -3.8376243771569394
23.531391995514813 -160.6378903672557 -3.8379413318989255
23.54868806669722 -160.58628709826365 -3.8385580288836083
23.795498504666607 -159.87377499267916 -3.8527295492796334
23.979234122497665 -159.11601536474802 -3.863747333903044
24.05953153431623 -158.67573209505662 -3.8684822197401285
24.25215947725726 -157.717041289585 -3.8782262531446
24.51379820053637 -156.87352767885727 -3.886874160442145
23.36069351519621 -160.99747109885973 -3.828533546580083
23.365897448011005 -160.84853217562596 -3.8306695264593236
23.793590260058316 -159.32837677008737 -3.8564322000904405
23.784821080726985 -159.25509243791987 -3.8568011522686594
23.830616222021035 -159.04276088720175 -3.8593499552756168
23.84968985599526 -158.99611502088487 -3.8605765125109626
23.887097224776383 -158.87932392340105 -3.8622142696066177
24.278912652801303 -157.2288344050632 -3.8796549316610482
24.332744754790692 -157.0293563672787 -3.8813080977676444
24.426700836273163 -156.9038017890157 -3.8844816165945475
24.45279054024587 -156.76838121608313 -3.8849760266066697
23.307593765983896 -160.95654069350164 -3.827761737684023
23.293907484322887 -160.90702342372987 -3.827409086879036
23.404903278888376 -160.5491885857203 -3.834825012177953
23.843583030270956 -158.75969984674632 -3.8613079892870923
23.901322449383137 -158.3616504887332 -3.8651064278980054
24.15897061294853 -157.37704135949215 -3.875647044122789
24.15399345370991 -157.32926607939712 -3.8758502003475153
24.248361155874555 -156.9673574110659 -3.879015081165225
23.338872851812802 -160.50429504767868 -3.8327614303449637
23.795933698792073 -158.28259078182353 -3.8619632817033644
23.99210287208161 -157.63762199441672 -3.8700189770815823
23.836239167058416 -156.9906737478644 -3.8663381538291626
23.456936848051573 -158.20782165129876 -3.852005454877033
23.572253402248805 -157.48676327556058 -3.8572914706422106
23.72006108050432 -157.06615999114828 -3.862700776136085
23.54806282580487 -157.53271169673985 -3.8567729856864736
23.647031183268126 -157.00596667808276 -3.860195655536936
23.49437048497944 -157.37778036266684 -3.855071362248557
22.452102826196253 -156.42651749521232 -3.8238777020630996
57.821793187922296 -190.40370910550706 -3.759618874636692
57.6570677902931 -189.689888381983 -3.7691541469069088
57.456651960828694 -190.0763764735675 -3.766138717197454
56.986385818189525 -191.26446154471682 -3.755823254736308
57.05645358649718 -190.8823758097146 -3.7598607535494453
57.29525083365759 -190.0573793055527 -3.7679261496044036
57.08351582282579 -190.68138796057025 -3.7622769306147266
57.19645971619113 -190.1402233780058 -3.7675088005934554
56.90414090739539 -190.8828800218214 -3.761242328449221
56.66527657379727 -191.22600593729064 -3.758665994113807
56.91878212794032 -190.17993309232153 -3.7692358010503133
56.95108462949895 -189.9934890962996 -3.7714139199094476
57.146398546401606 -189.15055741114057 -3.779330612945907
56.39646609476993 -191.01911908710832 -3.7633543400217624
56.293168412409344 -187.43578215009939 -3.8060357220381125
48.169010392757166 -189.22601919336273 -3.825692277419878
52.1401468810794 -159.95217774202993 -3.7727716233469004
51.76526007915362 -160.132417274551 -3.7874021382288374
51.818430923701534 -159.98912306599752 -3.7843890266408713
51.918148394061646 -159.49019471926127 -3.7763521056996225
51.95168558666044 -159.41500274298303 -3.7744281188184354
52.03085398995309 -159.33696458824065 -3.77086994816272
51.73425185499062 -160.03526016797846 -3.7876555626573816
51.830735440085206 -159.2631887097653 -3.7771663500463797
51.80955194840471 -159.13814634059014 -3.7766236868066825
51.744204554281055 -159.18916159330308 -3.779480497641444
51.76475468415926 -159.08744681866952 -3.7777385980296807
51.71508754380244 -158.9655879581812 -3.778192097415382
51.72992676048885 -158.89032839019083 -3.7769210375504794
52.235702959554416 -156.6903753524121 -3.7326157387421137
51.66137445132914 -158.71663134938962 -3.7774358003665354
51.69366280561334 -158.61642369294344 -3.7752263110348854
52.147653851608844 -156.86107315483412 -3.7379439466877793
52.108142420390024 -156.65867265670195 -3.7365385227806605
51.432044152499024 -159.04280880527702 -3.788830179978826
52.014411248397394 -156.93718520519576 -3.7436271430633146
51.96003803350907 -156.84272275935754 -3.744227617581579
52.05603782061999 -156.77619521819338 -3.7399590287505537
51.75261548568583 -157.38737671258573 -3.758616399325036
51.794612150657144 -157.30475715429708 -3.756069587668396
51.7725137152634 -157.20800754964313 -3.755575929562357
51.78926679396365 -157.12469554431254 -3.7538727919946457
51.860919209097545 -157.03979482268724 -3.7502883595455794
51.489628213467775 -158.08918702649345 -3.7763635990595903
51.56942666587643 -157.76229874614856 -3.769635858452581
51.60364166847529 -157.6832501867373 -3.7674957728341028
51.62323950135782 -157.57839267919027 -3.765505089204055
51.66052557250086 -157.47560747115412 -3.7629130802749167
51.93011244974287 -156.30055998233553 -3.737634994642048
51.9838274059206 -156.15958481659644 -3.7337203055507615
51.43712695425833 -158.01968864684952 -3.7773946690400817
51.448956457048524 -157.94488868185795 -3.7760637520296356
51.43615321700373 -157.84961000357853 -3.775359292015535
51.842862051326854 -156.18905910759042 -3.7390339205188012
50.8912507513062 -158.8677641858989 -3.8058827902638708
51.51694132519488 -155.6356476503651 -3.741813505087876
50.99074814902471 -154.26565828342856 -3.736782263752784
41.90825958284249 -188.84931395369975 -3.824627280566448
41.80660553728605 -188.87485439640685 -3.823887384366415
41.69711717720572 -188.8466090512882 -3.8237778568282415
41.427259995260094 -189.1815474833417 -3.8172261796050586
49.83909963007606 -155.0379125853561 -3.7889313558009974
49.83722666744988 -154.98994589178184 -3.788181657573098
50.02469554819089 -154.47430519947744 -3.772772518323988
41.324238876563676 -189.20341812877123 -3.8162753606982527
49.84459076396335 -154.93851476607244 -3.7870237309683703
49.787742404941724 -154.90991525242706 -3.788448596493234
49.80910543853469 -154.80435392558837 -3.7858784392519165
49.740248378214154 -154.8781724221995 -3.789469119629538
49.74460410363565 -154.63148475887476 -3.784960104764954
49.718897944591724 -154.54250447159993 -3.784213288098707
40.97097762664212 -188.8934785322158 -3.8197157184285104
41.09142829520123 -188.19922805789727 -3.8316515132506046
40.99074905349383 -188.19387355263444 -3.831131033149945
49.01311431725504 -154.6760631287789 -3.8101261569543112
46.16857991822077 -165.72143591629853 -3.750817592118244
46.19440993860833 -165.6464540521045 -3.751931820639508
48.92266828534544 -154.66558046780986 -3.8129510889699327
48.99963231027168 -154.20681789737185 -3.8018047928301963
46.156563530185615 -165.71262197314766 -3.751518379865043
48.83982372157671 -154.62926508201923 -3.8150254730765303
48.74858668414781 -154.5737547412247 -3.817015748285585
48.747413827454594 -154.50417653234857 -3.8157490326909227
48.76118990476762 -154.40486688164222 -3.813429753432157
48.854070410682795 -154.1993390293658 -3.806454003251371
48.729904900766684 -154.41789676818982 -3.814701699660003
48.759684395553315 -154.1699662387628 -3.8089939146738496
48.73392136365987 -154.03767941811336 -3.8072660749704417
48.696149051550655 -154.1511025535663 -3.810708729068824
48.7033804721873 -154.0999846374021 -3.8094840620705273
48.694260583263535 -153.98396518558738 -3.80751587979478
48.64898053871832 -153.9331061565528 -3.8079955356037374
48.584042992122434 -153.86782214320996 -3.808819938910897
48.629708667715 -153.74805009321608 -3.8049452282234
48.705082519079525 -153.58879137373617 -3.7992991531811153
48.747300873256705 -153.2401845331317 -3.7908156345362274
48.74000365303965 -153.19299152471726 -3.790072195226635
48.48419775206406 -153.86849635203328 -3.8120793005402094
48.59404083028395 -153.71688483529536 -3.805477011370177
48.585036172262164 -153.55175453780527 -3.802431389733278
48.69671056821503 -153.3193695246257 -3.7940728363550065
48.69683569941526 -153.1139394841101 -3.7898108043468204
48.680279361715364 -153.07157298522657 -3.7894587482525295
48.83700026754547 -152.61664623661835 -3.7748196024602225
48.85399955218156 -152.44959128996578 -3.770691615389128
48.39617258993621 -154.00698764558103 -3.817696983461123
48.545360530697025 -153.4992781998876 -3.8026413932772765
48.55193688870381 -153.44733058900252 -3.801368706961364
48.43776524094359 -153.3065103997618 -3.802131034735188
48.647021382851044 -152.4666404133241 -3.777592824970554
48.68152917911384 -151.89647531919636 -3.7638903250383096
48.72549040047149 -151.86676498967788 -3.7618729484159803
48.52516892005953 -152.16336593358557 -3.7747267196950802
48.27768919231612 -152.74399929846308 -3.795258857450881
48.445347144310304 -152.16136875207243 -3.7771842334001713
48.525914366322176 -151.86090315156824 -3.7679230482746116
47.88652996083417 -153.44153132165312 -3.8225949249100895
47.88526735353562 -153.3218407845019 -3.8201093923067226
48.056592467506434 -152.77688565797197 -3.802943190004218
48.12010483014424 -152.47571301130787 -3.7943314477301064
48.229544066723335 -151.9205382040381 -3.778430116134951
47.80889484983019 -153.41382633937778 -3.824485439067049
47.80537598859812 -153.31928396448106 -3.822591530154153
47.972346795923464 -152.7527988337474 -3.8050671901165423
48.12201145810378 -152.0501741735922 -3.784716055718988
48.19799180174451 -151.88516397408895 -3.7786131920681276
48.2119340384813 -151.82106324084953 -3.776697414808032
47.72114588229827 -153.22276143311908 -3.8232064024783865
44.20697760784105 -167.0056970264726 -3.778590284130308
44.117637167739396 -167.0127288387263 -3.781174706831228
44.16292050360282 -167.0100793412294 -3.779866601556963
44.031720251230084 -167.15963990257282 -3.7788104193002336
44.05157993029342 -167.04554924506184 -3.7822025079653216
47.86196695464507 -151.45316340546552 -3.778830557231244
47.78151595810328 -151.45942732527743 -3.781384866256394
47.39944098926645 -152.17732436917854 -3.809831605518879
47.38086877957614 -152.1377283164503 -3.8094985695740156
47.30716599814319 -152.13816187495587 -3.8117369538134325
47.49851182837193 -151.27775186075567 -3.7855610925559686
47.22146086931505 -151.9914755162148 -3.8109017768579725
47.263721740512416 -151.69053263615922 -3.8025055404256642
47.036240705472 -152.18443398534833 -3.8210773115123726
47.26607092809866 -151.29825811246832 -3.792950018193134
47.3382445958767 -150.9468309793528 -3.7822406010385303
47.3765711392473 -150.7974590188821 -3.7774217582274683
47.51520816067933 -150.4629310529506 -3.7660488742846594
47.178942428544374 -151.42559163345166 -3.798661190042735
47.234188368415154 -151.23880995761235 -3.792458901896928
47.273439587834595 -151.12159437697704 -3.7884437120726817
47.26399611917756 -151.06973902062362 -3.78742228204157
47.34312111030076 -150.8845625223435 -3.7805287121239792
46.91321150476333 -152.0674703737302 -3.822036275499476
47.03211090890317 -151.5969577718399 -3.8071626725331043
47.1707231961873 -150.88453064346507 -3.785852925288564
46.782130628255004 -151.90213704553355 -3.8219958835523182
47.29415804910798 -149.21914974766912 -3.748549424297021
47.32609001279553 -149.08140040704401 -3.7447858488019117
47.30924263705298 -148.95697371173492 -3.742689988710358
47.37934093135144 -148.95777207186396 -3.7401438093536292
47.25771121710542 -148.90108271749654 -3.742974325979581
47.28101994631298 -148.69682751441493 -3.7380036423674947
46.84485877372864 -150.04281198329068 -3.7801642840036056
46.93670754698391 -149.69038960951877 -3.769889141439578
47.18317409544932 -148.87343578627767 -3.7446063086304733
47.28059258866641 -148.32006295320372 -3.7294554684971484
46.42745482015013 -151.27820776049998 -3.8186869576745237
46.490938082701064 -151.16329795004185 -3.814613904073838
44.49665626538695 -158.9691481767335 -3.781141297453903
44.45355891691932 -158.94784180747794 -3.7838472951343283
46.44254982910268 -151.09187669124248 -3.814865601613487
46.6568574341058 -150.16239305536837 -3.7890986336877504
47.06399598936887 -148.48560525539872 -3.740174178212035
47.14083212852603 -148.2466057852768 -3.732472412933872
44.410921177524024 -158.88788326336234 -3.786040673772197
44.417478614025015 -158.79064236030567 -3.7842367187830086
46.88384547979405 -148.98021531001123 -3.7567065671485773
46.95184475477402 -148.53565595671043 -3.744461942140594
47.03069402891494 -148.29623521046716 -3.736682479288996
47.086673245434284 -147.99323407603205 -3.7284097421090037
46.21143089295124 -150.8448833239384 -3.817723641644041
46.05452005927292 -151.05375991121224 -3.8268569597575333
46.01092956181703 -150.97961754794343 -3.8268043277546147
46.519567645053044 -148.5787077045559 -3.7586997449057935
46.46878981052072 -148.56451112146473 -3.7602072584188595
46.43647806850162 -148.48916946574863 -3.7593086147477583
45.91040145960039 -150.1078975184094 -3.811708822026581
46.369081474655445 -148.22298846764346 -3.7552799468040514
46.17707057198633 -147.89853949596127 -3.7529172264001165
46.201237466701876 -147.78612614626277 -3.749789576105038
45.65244719024825 -147.98274122179993 -3.7700465031612893
39.23023702937181 -170.1673397896845 -3.7323046568171026
39.116283405961546 -170.1781491096591 -3.7319381644687843
39.04114400156027 -170.1939695110639 -3.731236007719843
38.922476693087845 -170.17719405886498 -3.7322190748909327
40.33670737433395 -159.8643573595779 -3.816581616240935
40.37056183871656 -159.59957695468268 -3.7579389502403746
40.41115931965328 -159.5783409479461 -3.7508734617697383
40.292869591998574 -159.80396802691888 -3.8247864545514125
40.29180389499011 -159.71705317710234 -3.789266217005335
40.31881510908609 -159.64120317520252 -3.766767676214988
36.85895231278612 -169.77444651022884 -3.7409754565793456
36.94580169262191 -169.43986601531543 -3.7592744568592673
36.84293274471121 -169.35162763802236 -3.7626133650256257
36.67808907364481 -169.74713884729138 -3.7401105340634637
36.78978009757037 -169.35363881319893 -3.761803931636452
36.52887177731159 -169.77481313884385 -3.736710665893548
36.58419440976849 -169.76312169432552 -3.7380376414709846
36.41005684124686 -169.87877289109554 -3.7295609070025666
36.47080172594288 -169.81902089120376 -3.733561906768664
36.34283825020031 -168.79611058907628 -3.784037194671716
36.29043656906859 -168.80930876558267 -3.7824729394042222
36.121128333399795 -168.9565490155855 -3.772157218848349
36.158697701899506 -168.92312230542063 -3.77441360453335
42.06304795283178 -144.8025201744574 -3.761549402887387
36.1364016833576 -168.3520504176429 -3.8032103399280395
41.93756527821175 -144.84650593733656 -3.7649454700083242
41.99162414858247 -144.84682467637472 -3.764006591956208
36.06715235562171 -168.39264895962862 -3.7998289625008375
41.88701354432445 -144.83491102078895 -3.7653491552876366
35.938685947960025 -168.3873015358637 -3.797771294175837
36.00107210074904 -168.29395863014147 -3.8036412391978804
41.815582331518414 -144.79728096101383 -3.7653722017356417
35.85271034335172 -168.420783935591 -3.794357300393102
35.9106934975618 -168.36457807753007 -3.798285794670388
41.74958289579458 -144.7407885881533 -3.7647121645760353
41.717247956326155 -144.66237634515844 -3.7627524579074576
35.775371535710654 -168.40437466103344 -3.7936541504271113
41.685166439364274 -144.5821404294429 -3.7608363973030703
35.675427788497984 -168.33318948435607 -3.7951622298007672
35.679598832268745 -168.3066515649616 -3.79659450946737
35.576878554441635 -168.26311847111393 -3.7965640188542826
35.34589785876925 -168.88831975826525 -3.760069903926183
35.34369809836498 -168.73670334999775 -3.767725106017326
35.52111182763465 -168.21500662095627 -3.797827204947967
35.28444463942385 -168.7024734232073 -3.7679981160147404
35.21777686560084 -168.55059225736022 -3.774085121500846
35.2931490830138 -168.22985403584067 -3.7917313238977433
35.09338284005925 -168.77966660557902 -3.7596009999171875
35.10777286821312 -168.58174074275465 -3.769895541873741
36.131598410067056 -164.32861107859353 -3.825004465705242
35.93955681070451 -164.22195385870907 -3.8271368910329477
40.804797394620216 -144.60999028497682 -3.774295394565738
35.8979317299507 -164.24141297282148 -3.8239191734410163
40.7167135577479 -144.63800063438214 -3.7763176694953575
40.61944736699148 -144.58456925534063 -3.775884314411211
34.4065974553006 -168.72472626084536 -3.744200487974843
34.37358264731463 -168.71212694403533 -3.744007934627657
34.42846655039744 -168.26900039910726 -3.7669486655175692
34.36233880892587 -168.11709593479014 -3.7723587063593946
34.418545798542176 -168.1003890200287 -3.7747683182870215
37.00323809079182 -157.38166874316278 -3.7675039564945596
37.02528232112566 -157.275755820597 -3.773368229333027
36.91298348423036 -157.44362605514468 -3.7715672529653697
36.970519314434874 -157.40280703752995 -3.774464736755883
37.02050720500918 -157.24795289699455 -3.7665466661491807
36.82138999328011 -157.45673486119966 -3.7688593700809596
36.741619471473996 -157.39547168027985 -3.787312015208717
32.485768334733514 -166.13594602790835 -3.7891220233474994
32.41872344029009 -166.18106539656628 -3.784143724709681
33.280725594038316 -162.52571417101723 -3.7745987013258984
33.34054036134028 -162.41194017717058 -3.7852991643850418
33.35070603425539 -162.3477072501202 -3.7893504669491973
32.31368389755881 -166.27501994485777 -3.775742669574817
32.31675188443208 -166.22031154905244 -3.777939898711181
33.3444544955333 -162.04433940792487 -3.802905603731426
33.394176368134964 -161.78455217303608 -3.818446955774358
31.933405474472597 -166.10269468572844 -3.764713662363872
31.910696887919375 -166.01089474742645 -3.7670990288443944
31.645744499564117 -166.64048546192106 -3.730436244091945
31.82472511242929 -165.9742166921915 -3.76436403379088
32.75973151644514 -162.08713989005935 -3.7480597898469474
32.82459055483577 -162.00515007396373 -3.757293338008363
32.850280164279916 -161.91652240800448 -3.7631103902481824
32.83462436921532 -161.82053838000525 -3.7653041676488628
31.73758294522969 -165.88885657079953 -3.763189232582986
32.77576673003439 -161.76983289554622 -3.761601199628358
31.669490274849622 -165.82959137036528 -3.7621408968136247
32.60058499110475 -162.2165840347407 -3.7283001684830475
32.68477753840655 -161.77631746744697 -3.752866824228763
32.709857434459735 -161.6809301567571 -3.7585641951075033
27.64063010786419 -181.68200327465917 -3.767688851227526
32.573096704169124 -161.68711561614364 -3.745205373140961
27.568242166139903 -181.63503793052283 -3.7672368113583805
27.485791817175247 -181.61167679012328 -3.765478107181325
33.63858349456993 -156.55497440820503 -3.821512839376374
27.37922161839942 -181.65173522528286 -3.7630611370970533
27.758101161996784 -179.9383876244778 -3.794699900161288
27.24661225695415 -181.74768320353888 -3.758544000208751
36.61442869412046 -142.80814805111442 -3.77241887786529
36.671631056569154 -142.7935729064174 -3.771725911317699
27.113474078863867 -179.3622903986762 -3.7883973503512767
32.84515514068083 -156.0179481967507 -3.727027216790003
33.68141121134095 -152.54250831965203 -3.7982513356493977
33.72644382910025 -152.45251236239335 -3.7945118009566174
33.75166672855342 -152.35574701900518 -3.7897680838841943
33.58406936533865 -152.61431485813486 -3.7993715354148927
33.63119294865449 -152.56097651800994 -3.7978463880129043
26.892470834203067 -179.11625376449183 -3.786722567699856
33.44456765739733 -152.64237606894946 -3.7966477236034626
33.4983053301992 -152.62715766312672 -3.797483394454857
33.38211330655116 -152.61672343678134 -3.7932822707836684
33.337070831933694 -152.5948355098056 -3.7907271860465612
30.759953423435636 -162.82504566547254 -3.796988786313751
33.26946450213851 -152.56457084650594 -3.786915074067717
27.007206093329582 -177.6515227782486 -3.8084339853887172
33.20455989372161 -152.5375742752349 -3.7833427092594074
26.836633754769423 -177.79835591620392 -3.802972037107254
26.529502791555693 -178.17998116462942 -3.7905826035671604
35.30881952558811 -142.5963180850442 -3.777745831914804
35.361538206546584 -142.54153245511463 -3.7760026119920767
35.22378098698814 -142.5919805546946 -3.778400923970161
30.010104582835673 -163.17206281389383 -3.742976248392515
35.13000166642788 -142.5649582993275 -3.7783569500468253
26.042091909323062 -178.8728481065731 -3.770755324213376
29.945688498006163 -163.13987470109248 -3.7393934813553207
26.022030834642308 -178.75468485381347 -3.771387319945033
29.86287507769485 -163.11637778877596 -3.7347049300389292
25.916689996710918 -178.77863967798152 -3.7690038619324993
29.780166015238102 -163.12493791614878 -3.729103211090122
26.360097315132947 -175.01118764170485 -3.825274076199164
31.746200811019587 -143.1646970533866 -3.8007453496545898
31.703075079500717 -143.2221972113784 -3.8020988121003665
23.941568010321472 -171.9204608256896 -3.7941171279121186
23.377876906937495 -173.392527459932 -3.7651478413837083
23.578587413761323 -172.62703054376863 -3.777685101808357
23.663027047870393 -172.36237845525073 -3.7823935829697786
23.911662106344075 -171.5188136433916 -3.7963174840652822
23.32851058909267 -173.34876303187667 -3.7638214994258794
23.673941347721843 -172.08196126021727 -3.7848016765899826
23.806101877738403 -171.2742494119191 -3.7952809139289707
23.641749056966756 -171.50200470485055 -3.789033078352505
23.704245294354433 -171.27938607653783 -3.792623990874278
23.782052039196365 -171.12814635553713 -3.795748188105557
23.80979519057842 -170.8980932274231 -3.7985213804490345
23.27243463206348 -172.82769399731762 -3.766953281510006
23.186060889871193 -172.44380630963514 -3.768174688647144
23.311986682870778 -171.97034954864012 -3.7757232385696073
23.540328852837 -170.67686853079948 -3.7921365786136536
30.34165220684171 -143.37708961012268 -3.7983309682398136
23.082131149606806 -172.08519335494884 -3.767843467595165
23.290364590878287 -171.21442471590734 -3.780759437840926
23.27621638434126 -170.9758350376036 -3.782482080505465
23.39584826271951 -170.55261263565032 -3.789105815591263
23.39634039879075 -170.32159846622224 -3.7903913505375844
23.18326654990679 -171.13627107557733 -3.7782130022025044
23.261016989862576 -170.74217194063812 -3.7834156668313907
23.38070940715192 -170.25299951433522 -3.7907440988153347
22.956226375631466 -171.41034837949806 -3.7698379451822213
23.27042615676748 -170.21998483386423 -3.7875187111179933
23.28000056100396 -169.79011320974826 -3.7904759548172797
22.125991505917572 -173.7224558069466 -3.726742744856584
22.83953458059508 -170.03841588516968 -3.7759287138100244
22.914416874212776 -169.14305141487182 -3.783272453967772
22.919737474873244 -169.02928481657327 -3.7842421394194536
21.994951810887372 -170.90275220731843 -3.7445471794152776
23.478912670336005 -164.3238851513593 -3.817101189100312
23.589398524818037 -163.69436536661988 -3.8212703349577533
23.36080294384486 -164.5883484117892 -3.812972909451057
21.569943934687714 -171.4045209431059 -3.728417862626083
23.18804286402616 -164.70828336430478 -3.807470914052967
23.32405032863681 -164.32415387469004 -3.8122697955023237
23.682802592098483 -162.73566112385268 -3.8234094777213254
23.077858816094075 -164.83441299028374 -3.80353585110121
23.178200220746646 -164.264659418638 -3.8074485342009057
23.605089254988087 -162.75494819560691 -3.8211204359391453
22.962088604802158 -164.68056278296186 -3.799994205312045
22.97401742287984 -164.56206183706664 -3.800484092035349
23.1214596854326 -164.2287865678088 -3.8052385707544847
23.151744173309794 -164.16285048539112 -3.8065998869098494
23.52955138072697 -162.56917691761112 -3.8182912272720486
21.435337100484336 -170.39396501414456 -3.7310936647691775
22.778471586458416 -164.69094099775202 -3.7935585522762483
22.165872203701962 -166.60229492892853 -3.770505738647114
27.554076629661665 -144.82732082445796 -3.800131145593392
27.621024339235717 -144.76286980790815 -3.7998700335746385
27.646493268799382 -144.69056530599886 -3.798493695028611
27.636826233242367 -144.56506708894193 -3.7956900786072296
22.8545605191348 -163.6498324036969 -3.7962743466594753
27.45821491817578 -144.84665227960815 -3.7988862102693832
27.61613086303475 -144.42074332834812 -3.7919490796469377
22.547627796861278 -164.31057900492624 -3.7860590917424686
22.545590443181105 -164.1963470850654 -3.7860063005172853
27.35363184744506 -144.8556343189554 -3.7974308679400943
21.975690045886655 -166.33344189245594 -3.764799040035501
22.996641835753508 -161.55136791104485 -3.811074576976392
21.625948461796604 -165.87163439885882 -3.7540512718345433
21.728843306785617 -165.7011590832491 -3.757706911891267
21.735774326163167 -165.56841146228174 -3.7581355402543624
21.37072329585428 -166.70986405376905 -3.7444045974259987
21.358370271502707 -166.51332049359775 -3.7440758142743
21.41765629205555 -166.22084733877352 -3.746607297157871
22.751877065824253 -161.17322578982348 -3.807725971368387
21.228048442631575 -166.84419062689156 -3.7390642255890993
21.205493164466123 -166.51411094090398 -3.7394529659336704
21.843901258908424 -163.30843202954284 -3.7622681006029555
22.23792014881915 -161.61480763495916 -3.787317184869605
22.207113730951438 -161.4587215425109 -3.7876777424268635
22.06408360026022 -161.53204198590728 -3.782882579315505
22.52754639153474 -160.00453721816476 -3.81222790474943
21.951076270153003 -161.38644864563244 -3.7805410064045826
21.33360505064318 -163.4989736743016 -3.744879465172513
21.847454135593978 -161.4555422565694 -3.777043237886324
21.518098940294223 -161.6668389276146 -3.763932441673322
21.6541138315781 -159.87537067006366 -3.7854443199632235
21.98924740022521 -157.8735249277915 -3.807420342566729
22.29633687546617 -156.28698719488284 -3.8190461561879188
22.17976345737371 -156.2081756007767 -3.8151180134337412
22.235423704144246 -156.10799411126442 -3.8167352543443207
44.202657472214 -196.81976976721876 -3.704307921579235
44.06006718538967 -196.7784164340856 -3.704600817349139
43.81807331873084 -196.91819104928868 -3.7015137745786744
43.92949509206511 -196.80148368231835 -3.70368470355765
53.06549502016586 -155.49368900619118 -3.686688020335144
53.067503217629735 -155.40631003458802 -3.6853062843123365
52.87747897062193 -155.62133655356078 -3.6950440482895424
52.568679166033505 -156.49485897736145 -3.7183829291795676
52.76799858075818 -155.8738310702567 -3.7025735953799246
52.79310032650576 -155.6984027554091 -3.6991347417240927
52.859630635781 -155.3994531240053 -3.6922732390427067
53.1061323344363 -154.57283401468484 -3.6707517424092795
53.09964312004317 -154.45642624411911 -3.6690531518912968
52.54686876121462 -156.41752137218245 -3.718074254256374
52.75674659148493 -155.3684843462656 -3.6953464792428
53.0696151624843 -154.28216759074735 -3.667131174019543
52.40124452163468 -156.39111920151478 -3.722679766577061
52.87389312760503 -154.585539459529 -3.6788049260837465
53.0083972094785 -154.21364496203572 -3.6680570172634934
52.98491124320266 -154.1331268601938 -3.6674955296363385
52.326174203924005 -156.35174148336782 -3.7247499551347407
52.455741677504946 -155.8887968905702 -3.713554218606533
52.853356545001226 -154.41287677789512 -3.6766607445157495
52.247103372593514 -156.3135213443725 -3.7268860577154137
52.27228460785901 -155.8759920591103 -3.719620704375522
52.68113430261373 -154.17646631526304 -3.678449583479838
52.246376588290815 -155.3920317957421 -3.713141401196339
51.99342202778196 -154.35168054646567 -3.704638533233598
51.77346650752977 -154.03105849581843 -3.7064078459811065
49.458642051274545 -162.83024687308648 -3.6650036713731065
49.3870395377367 -163.01457765995815 -3.6660207024657883
49.41124591383013 -162.90651946472892 -3.666304225580943
47.485825773885324 -148.24429668721064 -3.721346702176312
47.39311845878246 -148.27080355101083 -3.725164127329576
47.02509008239116 -147.65693613098583 -3.7222349571932973
46.994219195983554 -147.61340788046851 -3.7224547710263947
46.90273285486262 -147.3955339334641 -3.7200747658502196
47.26068980286427 -146.20916937561145 -3.6812821323735534
46.85754973198324 -147.32275057607185 -3.719526040796945
47.035755706739046 -146.60283541573875 -3.696972533933836
46.81396770863882 -147.1580327186893 -3.717001348202923
47.021325671671946 -145.9559977221864 -3.681834530996106
46.75689487236563 -146.78570992797384 -3.709363708855496
46.58922241328713 -146.9225148350891 -3.7177499172968176
46.56347879631784 -146.8687089464248 -3.7168934545248953
39.750135123414424 -170.234418271712 -3.726982642028447
39.59339781909955 -170.33739047037767 -3.7225480129747854
39.63761495401327 -170.2672082899704 -3.725894039996061
39.516490236617464 -170.33836094724103 -3.722800037168736
39.40395926729251 -170.26824841904076 -3.7267348517273926
39.30876980976914 -170.39905493536187 -3.720367194624444
39.327569911865915 -170.28214018250821 -3.7262589962082506
39.3622434494606 -170.25560546681314 -3.7274688080880214
39.19359115884777 -170.2930187928295 -3.725999562980095
39.09263987507131 -170.27492889336366 -3.727101710078381
45.404817720184866 -144.86240206876207 -3.695228906613943
38.99537470191373 -170.41086511018898 -3.7202537521220376
39.01621503899832 -170.28664323294615 -3.7265929722946614
45.28883265172898 -144.89553099795558 -3.6987895139284657
38.82834861716299 -170.4853485611388 -3.7165070863588685
38.881122202722764 -170.44107424148507 -3.718796076877004
45.21169002850579 -144.86150480929538 -3.6995860840075774
45.17362036915169 -144.81148460285428 -3.6993029834654436
38.72897890394308 -170.4793575890933 -3.7167364043489113
45.126597684966924 -144.77731038350925 -3.699260770845931
45.12995213939051 -144.64789954880717 -3.695800026125036
38.63351374503591 -170.51401758177028 -3.7148631523147517
38.5440173726593 -170.58395839803816 -3.7110966225735194
38.53969105368721 -170.5471808512056 -3.713018661596545
38.165550186021925 -171.45159533792807 -3.6653827436175237
38.43966470255773 -170.5290676418121 -3.7136861384447277
38.12293067037436 -171.44629041538352 -3.665387335249826
38.27349455060573 -170.66884693658642 -3.706024849719668
38.3255862406802 -170.57840062317092 -3.7108187565158053
38.3782312360052 -170.50366614181706 -3.714791854232944
38.21032105020427 -170.621577588972 -3.7081787973092255
42.56391047110747 -151.93525382414919 -3.638136032289228
37.65830459034349 -171.42196923889063 -3.663890778679605
42.50680333384725 -151.93683817895968 -3.6408559983350446
37.57460487005169 -171.46556900565287 -3.6610153210375604
42.407758728191126 -151.91682931006105 -3.6444111015618477
37.49115349685855 -171.47262507627542 -3.6599830844943244
37.449135412812296 -171.37505113481078 -3.6645726770497746
37.528062932026785 -171.1326450660682 -3.6777182304137477
40.32276949669589 -159.85875198970805 -3.710852399471397
40.3698405592356 -159.60173050673708 -3.6499126538105964
40.39913106666554 -159.57964341006624 -3.6438453117668326
42.34714631407508 -151.86227885823442 -3.6441610798584216
42.340269315275926 -151.79080527235809 -3.6406265181062922
37.322482683944486 -171.4969730318036 -3.6572601717429074
37.365056190169575 -171.39523372418552 -3.662800848265274
37.40677793582248 -171.27536537436703 -3.669428846224821
37.601569383178195 -170.6959714390378 -3.700789197306127
40.28946325306426 -159.80879822240465 -3.7186730447568612
40.30056087350648 -159.72007750051282 -3.6815192337058797
40.32034228445673 -159.64354228640298 -3.6599798790058644
37.28121121709579 -171.36487992405046 -3.6635981614793813
37.116132115755754 -171.22854190456837 -3.6689957331439187
37.202737887272264 -171.11029553992108 -3.675956628236121
36.99020924256383 -171.29104469716773 -3.6645312009552637
36.36924865658503 -169.9170895927171 -3.7270851858003358
36.325817683258656 -169.98108445259365 -3.7230496232045853
36.008224394515345 -170.41996347849874 -3.695613584200555
30.492965098402216 -188.7600111154798 -3.7121989889928257
36.34868150030116 -164.0804947405404 -3.681110541628981
36.12953699318393 -164.33695753173015 -3.6419648425221194
36.118846063192144 -164.30561810708338 -3.6452728853279743
36.07751353539563 -164.22023635842112 -3.653475572373375
35.97080247632009 -164.2090858405133 -3.6499540302830686
35.88918067911774 -164.2705520097225 -3.638907662574251
37.02118690341543 -157.35197734910452 -3.7165979711327775
37.03032657563421 -157.28142723242314 -3.6973399839495693
36.76825699852931 -157.44303105229557 -3.7261596537401718
36.733504290129865 -157.39096282050673 -3.709405209556963
38.15723894173287 -150.3604442705467 -3.672767845892852
38.075862764713634 -150.38208722816165 -3.6758054657818304
38.03091345772629 -150.3516877005673 -3.674547635815268
38.00215379913411 -150.31361633330184 -3.6728750976313207
33.0731101777196 -168.42276429170803 -3.715197159945972
33.052904428271916 -168.3821435377913 -3.71613764120314
32.893488815025826 -168.55351695321303 -3.7025218332156054
32.98656942941044 -168.4411125396496 -3.7111984549471053
32.31900323884428 -168.40893160159624 -3.6867608937978757
32.27540545051382 -168.41426034673435 -3.6849552784169473
31.523766592446286 -168.98882813957977 -3.6293147464280198
31.492592131809083 -168.92415550353044 -3.630638631824209
31.45246611266322 -168.80644371382513 -3.6339641177054585
31.489634256825383 -168.56656706827306 -3.645672052019753
31.649486226969824 -167.78498922587116 -3.6848141232747142
31.681952743150717 -167.6741996803387 -3.6905696582037524
31.364616159438917 -168.69033890935538 -3.634915702497524
31.54455410445216 -167.74925661202892 -3.681439001408757
31.626945588944935 -167.63141523970938 -3.6900468455161066
31.230137278745794 -168.68143267441107 -3.6296227043931792
31.284929986438172 -168.6672216177137 -3.632408205002054
31.280957050508434 -168.53550515223114 -3.6376367464766286
31.533334037156653 -167.64641478555785 -3.685129990708281
31.200090088758934 -168.58720799378102 -3.6321524526741396
31.167679603640064 -167.69348038951148 -3.6667901009348807
32.561419132626874 -162.2633227029862 -3.7226946194644643
33.95913963907613 -156.39936289212616 -3.677294599826365
33.97870143169533 -156.34399703431424 -3.6744168799414503
31.06345726968401 -167.74145987389653 -3.6601810224738034
31.147419831317297 -167.5696883901778 -3.670682528316144
31.177101293181472 -167.4416925528203 -3.6771721584898387
31.20111788890971 -167.32163377910766 -3.68307430476714
33.85758727472874 -156.48012647682563 -3.673725163845913
33.90077631298485 -156.42279883065555 -3.673348353273239
31.037687902758623 -167.30243542620528 -3.6761197502367056
33.778661023729356 -156.508630736755 -3.667804022966045
31.073592833416818 -166.76580626061136 -3.698022827732474
31.12800756522219 -166.6495755163161 -3.7051718349786267
32.193352933309576 -161.98675268695533 -3.6988527049459563
32.07110423689599 -162.04942505898123 -3.685216780471808
32.79513081991625 -156.01738448626057 -3.722981441136998
32.734981829109245 -156.01070581321756 -3.7177319626710057
31.34235471733671 -159.6698631409672 -3.666073638968041
31.356319684218953 -159.57754705934133 -3.668562293301239
31.552354956283096 -156.6068865138273 -3.6437308609837946
31.593723882204277 -156.58908531118578 -3.6467618117744944
23.024456376423426 -177.76926269219447 -3.709914600105696
22.207640297317994 -174.05087575583073 -3.726140820905451
21.570714624513165 -172.95088002708943 -3.7175604482512967
21.48853430564024 -172.2670439867439 -3.7203508495397397
21.38557710008718 -172.07528850669718 -3.718312250702633
21.27440246394666 -172.07672539828786 -3.7153659768185423
21.117921883158715 -171.65564304128173 -3.7135838737255726
20.90635972687228 -171.2861874032277 -3.7095706978605953
20.61257170888708 -171.58914194524476 -3.6983772781932083
20.84673690900775 -170.29513593929914 -3.71358091044613
20.87062888534517 -170.03236784207803 -3.715330291280566
20.397771307007567 -171.56533905500652 -3.692018264847462
20.216924632954612 -171.60480279224976 -3.686685673943085
20.581627868778558 -170.38697207474286 -3.7044989201246614
20.125768907634107 -171.4866236728242 -3.684633710116536
20.204045310410585 -171.1580707740663 -3.6885825739364058
20.476156115777272 -170.3719625763684 -3.701713222529091
20.055305727557013 -171.62936606903466 -3.68121048273685
20.059603538861435 -171.44097404783005 -3.682486084498395
20.370326262682823 -167.38817554847975 -3.7098134525738446
19.401309515235962 -170.8077979819439 -3.6656956906188514
20.01236452946052 -166.89958486256072 -3.6996534011846514
19.926212255482664 -162.1506775707525 -3.7089886356105426
18.524269698115233 -167.31470194794733 -3.6496780107743176
