ply
format ascii 1.0
element vertex 823
property float x
property float y
property float z
end_header
-32.834796529678535 -116.11225403371043 -6.957194192005082
-33.001495483989395 -116.03864422891549 -6.9374777137812735
-32.9938402907766 -115.691407725478 -6.916036179915704
-32.97844299570371 -115.49125310823194 -6.904051594914806
-33.058122549841364 -115.72845493914441 -6.912790505322873
-33.07250604929913 -115.69195782588446 -6.909101570335475
-33.049766040023314 -115.54960443244288 -6.9017720931366675
-33.11507225730591 -115.45114745099168 -6.889428914878682
-33.172482557684894 -115.30055989807383 -6.874238760325978
-30.26272736230699 -101.36822352869088 -6.918299763486948
-30.383238451010506 -101.40964845278472 -6.917948548849356
-30.64284727501576 -100.96789304206466 -6.897840262606317
-30.784804322343234 -101.09208933403221 -6.90011441430305
-30.886794812216884 -101.06465947068152 -6.897481274925963
-34.209753953240536 -113.62417282943902 -6.963400373718144
-34.20636712654929 -113.56814603705283 -6.960643332862906
-34.73128259592598 -112.77181648697889 -6.890207798428381
-34.763241184840375 -112.60950423669861 -6.879849487398692
-34.7690903032047 -112.55731462016293 -6.876677701316535
-34.86736593739077 -112.60455041535369 -6.874037878999016
-37.57756137308559 -107.05330900255018 -6.966191139199788
-37.96571893999178 -106.49076745965246 -6.938304002166316
-38.14060455892151 -105.6166848502716 -6.905915003904841
-38.2899415013306 -105.80625360230322 -6.908257478887044
-38.19658144244033 -105.63698515065717 -6.905093965007273
-38.1855931694828 -105.45734377582886 -6.899578390682562
-38.35746344450054 -105.9160797470575 -6.910070992341376
-38.333871158772155 -105.84861225132599 -6.908437625613185
-38.352088065500794 -105.6288105399058 -6.900924757207364
-38.32958395740347 -105.55808633278536 -6.8992841053507945
-38.25357337632289 -105.26569526365157 -6.891760739480339
-38.321005754700785 -105.0239065310922 -6.882222789247095
-38.267388152358066 -104.94414663075085 -6.880931613918634
-38.22711910385749 -104.73636299710049 -6.875203096341709
-2.1366442742653433 -130.43697125438752 -6.8179271291993135
-2.166792055681139 -129.90258985609384 -6.820527179718041
-2.27458036130389 -129.9621052761375 -6.823424429500018
-2.3051470423719316 -129.63250110356108 -6.825239345912372
-2.534702867587143 -129.64294280705383 -6.831824292412252
-10.340596533703827 -144.79653640259104 -6.7740285237119355
-7.833647704993151 -92.73544158332683 -6.776944660531047
-8.39652495833624 -92.72991578252254 -6.775432439954862
-17.02831355204493 -125.40055068015255 -6.819076356784542
-10.708916353316877 -95.17298536622772 -6.850658373898605
-10.980424937875675 -95.7309844626253 -6.8684327701493855
-17.74065799730259 -126.87496100872217 -6.811889690971662
-17.475417261465115 -125.5296550245091 -6.840450800007285
-18.184272521872586 -128.39906563814594 -6.7741144902039085
-17.877990581534192 -126.491766949573 -6.83201901384258
-18.672524866200707 -128.62516173247636 -6.785427997426923
-11.846724124898248 -94.67767618068477 -6.830665070428956
-12.115200772312791 -94.71828750372372 -6.83113748944884
-12.35026831696958 -94.33785419023955 -6.817429835935503
-12.428541929831939 -94.2704514492846 -6.814783277575476
-19.338993784643918 -116.17480827729821 -6.870391483036884
-22.626363511342603 -130.78445038918522 -6.79018863504064
-19.489708293033985 -115.83437525685072 -6.86426052979026
-19.612037401418725 -115.71912691103583 -6.866765685581896
-19.418439903929237 -114.86275797475837 -6.806576862296353
-19.365205403735004 -114.76154696186546 -6.797181938009813
-22.894097415781463 -130.28298904617864 -6.825239954729322
-19.57412199204596 -114.79648491327507 -6.812878145481193
-19.570622760977905 -114.49952066775361 -6.794762729392964
-19.531108299920263 -114.4036540276584 -6.786339309545975
-19.8227460867699 -114.4215863001506 -6.805942287865911
-15.603422486776942 -93.84219317833475 -6.785813608540364
-23.754488217356126 -130.39979089229172 -6.829793142029687
-24.736848072503218 -126.56926735423322 -6.796974755516896
-24.83800765308162 -126.69337967513422 -6.787934256076475
-24.922677417650725 -126.55111991042494 -6.803677331001053
-25.010038276381685 -126.39921990591652 -6.820394130282037
-25.10032887922183 -126.23759028489938 -6.83810572623312
-25.201252291601936 -126.04380734214597 -6.859143144933163
-25.228388206307194 -126.04537291552273 -6.859654975101684
-25.617834266590418 -126.84774756437557 -6.788948320991891
-25.9239216408305 -127.00534795761331 -6.7770802378218225
-26.022773153549675 -126.70760293582771 -6.807910809344376
-26.05833042291385 -126.67504223558711 -6.811520014065259
-26.113906552719076 -126.55296912403666 -6.824286398677029
-26.14129813757297 -126.55305327933459 -6.824517971498062
-26.246955353775316 -126.37233623741048 -6.843549094881208
-26.274616061638394 -126.30302464744308 -6.850754405290816
-26.323430750138783 -126.31727853187871 -6.8496501323542605
-25.95506458240657 -124.73045539028226 -6.791415655581169
-26.039246860513522 -124.60146386399775 -6.810899381819358
-26.096656874474682 -124.48863424703211 -6.827427879567463
-26.14180992662564 -124.41144456980798 -6.838907665798175
-26.212408905365255 -124.31356191226551 -6.853808816787336
-26.917942811133056 -124.94745707948321 -6.779931128848901
-26.889282961420825 -124.86479667642739 -6.791080926299811
-26.57270089983117 -123.66199236780687 -6.778959089791351
-26.618932151669235 -123.58249226325368 -6.793788392352009
-26.95058450163803 -124.93426265067764 -6.781909297027715
-26.91134551068048 -124.85618382005573 -6.792399067893766
-26.650797402243402 -123.52363771781638 -6.8046907123414355
-26.68674684785292 -123.47993635020028 -6.8131343204799775
-27.029283682353686 -124.66827950219893 -6.818787101616068
-26.733648488453333 -123.39009374001668 -6.829664332110579
-27.076885125939544 -124.5357698556208 -6.837166524811292
-27.1121626853196 -124.48746097263889 -6.843911249226178
-27.15011478772373 -124.41338777389156 -6.85418563675487
-27.18460674433853 -124.36063655736532 -6.861484136581139
-27.222898614116875 -124.34609678126456 -6.863494563564481
-27.321407386260546 -124.38596722740591 -6.8577981026681885
-27.19148556962554 -122.63398116278765 -6.8373156619333315
-27.63111840718365 -123.72653043826764 -6.779727935382255
-27.695950723124106 -123.70989944966898 -6.7818921159326715
-27.72892731295047 -123.65047395382851 -6.791823506800538
-27.799195199375 -123.66788658624846 -6.787668146516995
-27.799390610637335 -123.61470530916931 -6.796966994154809
-27.785019162953898 -123.4897595595041 -6.819023457685359
-27.877877625034237 -123.54326566259208 -6.8079718057713805
-27.854375523292912 -123.49429472445102 -6.816998292912902
-27.897302669628047 -123.38724021400961 -6.834827548077072
-27.569960736842802 -121.98514635035065 -6.869444189290298
-27.95860113125633 -122.8714256163689 -6.785227535543276
-28.054120891410044 -122.91872138395338 -6.772457852014652
-28.14853889216292 -122.7817590673672 -6.797927378021716
-28.242206069737588 -122.7030867931187 -6.8105669904638795
-28.20287258955341 -122.51738469410078 -6.851163510032275
-28.305610776341258 -122.48464998396639 -6.853198223550006
-28.405403117481313 -122.52700821064714 -6.839074724447591
-28.394870423804868 -122.46533833288538 -6.852500571306849
-28.496133430068955 -122.54757864757207 -6.82942310675228
-28.652426589108064 -122.59471546827425 -6.8093496646078195
-28.601330725333757 -122.45718234774144 -6.841165255317958
-28.706399880132945 -121.98595445695422 -6.816103905423823
-28.80595100977012 -121.98304551866698 -6.806855211172794
-28.868293508833776 -121.84741295804447 -6.831654514053998
-28.965598966629276 -121.81303681649382 -6.82810493149548
-28.977938588978493 -121.71403956084224 -6.849135022194473
-28.972282358086655 -121.66456291757031 -6.860995178351529
-29.01114131721907 -121.59848642902696 -6.870810817603356
-29.78784473914473 -120.99031656468905 -6.85801723971808
-29.78890335667097 -120.97805109798578 -6.859874509124052
-30.51239038573774 -121.8759443110637 -6.844349192126814
-30.49875609577851 -121.82337712496756 -6.85279208776448
-30.346360322348733 -119.53931243388288 -6.869575664727295
-29.236108139889964 -114.28381446774098 -6.87118246916267
-29.19809606509854 -114.25716404805804 -6.8693693987026245
-30.4328001547751 -119.53654397129881 -6.845438729165731
-30.403847067035315 -119.46490289601729 -6.855328337369008
-30.41840270099711 -119.31195673494253 -6.853440208304471
-30.5203298551836 -119.56162786113855 -6.8201521328682695
-30.48725173549466 -119.44597117600456 -6.8322710731775596
-30.468446172555566 -119.34437679871127 -6.8389956989610985
-30.154075688859095 -117.92650525731341 -6.834404314743887
-30.550090351198367 -119.12634050022749 -6.815294269587401
-30.566136053185776 -118.99816676019634 -6.808339147321979
-30.395791322991304 -118.66521189818577 -6.842303521776274
-30.241812642665344 -117.78691051294973 -6.79236000024559
-30.623573298168285 -119.07504859632677 -6.793685062392283
-30.61489377742762 -119.00891360182408 -6.794671602216875
-30.611111996409488 -118.96743759266928 -6.794699543523191
-30.574226247530845 -118.7502273700501 -6.796681496513213
-29.656714133369384 -114.41296925200263 -6.865832249748459
-30.642653012337732 -118.83764080826198 -6.781270381495366
-30.624719003129318 -118.75933549654438 -6.78286340841278
-30.592401202249714 -118.55352560227537 -6.779983916446454
-30.412377529580123 -117.5229696903054 -6.824238434113475
-30.443503073551142 -117.47096797783072 -6.810439759061273
-29.6944307716688 -114.38857558800765 -6.860328936420563
-30.78237858939467 -118.81431265316914 -6.8527166506665145
-30.744641512774937 -118.70290996234107 -6.857234490209106
-30.723325250777876 -118.58615545539388 -6.8564479279691275
-30.685252766679817 -118.52495479822336 -6.862104351580408
-30.47416519956826 -117.49712398121689 -6.807479057168733
-30.901192552527583 -118.79300084246866 -6.822673509026597
-30.970150136183758 -118.56183629794823 -6.794890440845851
-30.659945225417516 -117.1265943012987 -6.843212658537785
-30.985434206382177 -118.39212287352154 -6.780829635698841
-30.777570923998542 -116.93777247546247 -6.798092519026003
-31.17613202550119 -118.28178434955184 -6.854906563464864
-31.18173711428207 -118.19289062611567 -6.8480197416445545
-30.847910675323043 -116.83870775936114 -6.772750625320006
-31.215664112411186 -118.15849038081842 -6.838762205968923
-31.25247494234778 -118.07075104727426 -6.825099033709583
-31.214229334210668 -117.98403740224447 -6.826358181504839
-31.205380913026055 -117.66941085913558 -6.801390048222887
-31.39349675160646 -117.84280498389978 -6.779251978887346
-31.306263600422106 -117.64201840638933 -6.7791169473832085
-30.964481195329572 -115.23534804853645 -6.86794033074993
-30.93852964184013 -115.19899852394688 -6.866204237344857
-31.689482036543676 -117.57201588430473 -6.848990770298665
-31.586997868192647 -117.49531257566767 -6.85973282315011
-31.622169405859474 -117.41787198226153 -6.847871012877761
-31.35607624580648 -115.60612783820469 -6.870049468917927
-31.904705769135145 -117.2781367675542 -6.791132032186014
-31.862878436033633 -117.20536217359589 -6.791764081215434
-31.87371152306373 -117.13624550066973 -6.784172834335067
-31.826356062909507 -116.95582461872318 -6.775549888077465
-31.94195583783622 -117.17447248759002 -6.776559057187703
-31.77698798045679 -115.40787942925921 -6.805880612799668
-32.25506595836773 -116.70989941323657 -6.86720714980242
-32.3029319155214 -116.63410497944513 -6.855562059724882
-32.37048232604454 -116.57612417923144 -6.842767739436325
-32.45999085653772 -116.49479618615885 -6.825515872466499
-32.40588426828958 -116.42973205983115 -6.827026827446295
-32.495457908523335 -116.44281891005441 -6.8171510223806076
-32.507559519809924 -116.38561550832385 -6.8111700937085455
-32.608647837979575 -116.2570606246319 -6.788672328879488
-32.52096165153387 -116.0934059958922 -6.785803516701489
-33.33684497365041 -115.12700400854534 -6.848140666732067
-33.51694914327602 -114.68987177158134 -6.802158136049728
-33.69334271369714 -114.61939396723098 -6.78222544012751
-33.62033198568257 -114.48009720096672 -6.778412883332277
-31.501248325297848 -98.72982128415913 -6.803069250708604
-34.89742490081403 -112.5311727756987 -6.868454771408086
-35.28101045331409 -111.97827015773596 -6.818279331399464
-35.221962168659196 -111.80972448990684 -6.812203704733931
-35.32823453154798 -111.88343481470379 -6.81068958971648
-35.46257262439067 -111.85676940609031 -6.8021594265835414
-35.864544439561584 -101.71966763941461 -6.827739145217575
-35.83092866626423 -101.63595738436302 -6.825612162046303
-35.953176683594236 -101.76334686367554 -6.827392735902018
-38.19070763756456 -104.626215707805 -6.872470937694468
-38.15398516100842 -104.57053775026179 -6.871620643174797
-38.38698652832455 -104.67987110258743 -6.869467726777234
-9.209880362637886 -144.70124949622783 -6.762594619706307
-9.347751851146683 -144.8794440525213 -6.760210664162303
-9.294922681829803 -144.76762766520008 -6.762068335462972
-9.995299545351429 -146.3059472309763 -6.733735552242615
-10.278725320209478 -146.5010687065715 -6.731862472516813
-10.428410880902511 -146.68834859217097 -6.728755843531666
-10.133256880820422 -145.29840748673638 -6.75968475894563
-10.57982995572372 -146.65591295594552 -6.731177712541806
-11.045816643201146 -146.1192934979242 -6.749129227440851
-11.125010126311594 -146.20113707773731 -6.747748852561225
-11.251018408038217 -146.4022149920822 -6.743583054068623
-11.432741746344348 -145.89958834497014 -6.758223672980383
-7.875909836404766 -92.60346036704414 -6.772411225897807
-8.529127201065386 -92.7171030680424 -6.774598754569421
-16.87571417657693 -127.3642722893067 -6.751248772619481
-10.23681353236919 -90.2767748473708 -6.68720732725758
-10.366566578356291 -90.263653985592 -6.686352803863577
-11.32848032725133 -92.89229043178037 -6.77201550214418
-11.782437477801391 -91.5351060173354 -6.724054159113751
-12.102687549033305 -91.86270724876798 -6.734027572218642
-13.500235665856785 -92.61291583410161 -6.75368988842024
-22.370983893044517 -131.24984494642402 -6.757504248947207
-24.460493091747633 -127.40873196455313 -6.709958663838528
-24.594435234239967 -127.15579449638824 -6.737553408519212
-24.727609635353943 -126.8980605151623 -6.765574069409033
-25.35125850804375 -127.67819112588688 -6.702789245785825
-25.434186594598724 -127.66841779438172 -6.7049842073756025
-25.643779241991442 -127.23857197379385 -6.750535221798888
-25.70139172043327 -127.3070417891872 -6.744446116974664
-25.691634983044576 -127.22647441189919 -6.752358056061087
-25.808108246720707 -127.181931200046 -6.7581644306450155
-25.816470269318238 -127.08978033330204 -6.767480776570047
-25.846122827378533 -127.08894039151357 -6.767893580100069
-25.60121503483251 -125.37022729731774 -6.696428529705103
-25.672613254380916 -125.23342403435768 -6.716627114688448
-25.841101952886646 -124.943268177134 -6.759983292472157
-26.25389537979891 -124.2393630316024 -6.671278670610432
-26.595749528577837 -125.48749164703563 -6.703364148178681
-26.38647927437699 -123.97843424472313 -6.7196397539723876
-26.424637745475515 -123.91140691948152 -6.73218119764888
-26.524828947817618 -123.74298635169222 -6.763807231550351
-26.974238942489837 -124.32143812430482 -6.675441183739316
-26.995597864726626 -124.30479333917265 -6.678558908157511
-27.356135426661865 -124.32425911605624 -6.677053975510765
-27.293459302979798 -124.27506498294085 -6.685635904628202
-27.34604114935364 -124.10190689940279 -6.71576529307528
-27.364962092214945 -124.08781395936496 -6.718215224053485
-27.4829444272393 -124.0029523985594 -6.732634055004131
-27.18997984743797 -122.63755880013308 -6.703043674947768
-27.55816420193907 -124.05175788316744 -6.723635878393803
-27.553035596727586 -123.81673357711675 -6.764694555857247
-27.536880472928964 -123.80593212440567 -6.766680136957664
-27.693921457280005 -123.43007370064295 -6.6723629857861875
-27.9154776671893 -123.24218374751547 -6.708100441060881
-27.92322159505445 -123.19433620735029 -6.718012458438844
-27.880494756951286 -122.95721179666234 -6.769015877744822
-28.04888977529707 -123.05623479672755 -6.743646796619324
-28.017202370258225 -122.9790129431461 -6.760889956388441
-28.080658052819345 -123.01300596664082 -6.7517262767432324
-28.110706273607693 -122.96107163502188 -6.7616207260772825
-28.016019113230666 -122.74609237893874 -6.674142439831426
-28.222786446334805 -122.55252367024742 -6.71349380276716
-28.22861041820771 -122.49900042584416 -6.726357245489188
-28.144134189957615 -122.42745118745984 -6.7479545671375645
-28.319993292378545 -122.6245650010625 -6.690654185681429
-28.429643902850014 -122.5676248499375 -6.698045369493631
-28.534523441784877 -122.51915894418275 -6.702673937133515
-28.51573599242881 -122.468955708566 -6.716197976755033
-28.618193425145673 -122.53758358818038 -6.691926112392062
-28.581381087529383 -122.4585158624669 -6.713848527908826
-29.194628933384173 -122.11986161565387 -6.730349985206175
-30.608470928017645 -121.8026749557631 -6.695506172609324
-29.393629422858268 -114.61897493006421 -6.738242210603719
-29.388668396999016 -114.50660572647776 -6.719607424789234
-29.336433969385887 -114.252923574471 -6.679899636245688
-29.281543330817126 -114.21776132958495 -6.67723951121732
-29.401611439328473 -114.28043089576397 -6.680456428670532
-29.552831630133685 -114.33336318810721 -6.6793548365649675
-30.333321420217047 -117.7100543640312 -6.758078668555926
-30.332605299759184 -117.67329371713843 -6.75280159897571
-29.60342192853884 -114.32566855667196 -6.6745452156965115
-30.746459820002645 -119.05426130911724 -6.758331631181133
-30.73886692275369 -118.88103645221102 -6.755617023730134
-30.692180046464532 -118.7925409231905 -6.76525380800091
-30.650826134046934 -118.52226244530885 -6.761504846425963
-30.380851733116344 -117.59521015793844 -6.728976372728273
-30.439924157488782 -117.52368402879861 -6.703313230191785
-31.15068795470479 -120.70128239265294 -6.71126818932314
-30.755966348384526 -118.68146673422153 -6.7417542062691895
-30.460348108978025 -117.49478891387764 -6.693775208905711
-31.243905276178108 -120.73186059833348 -6.68783661359843
-30.845861178882387 -118.58300719536585 -6.710836274045688
-30.558007795438357 -117.29347567091324 -6.761087925580301
-30.13452827226483 -115.10180429821466 -6.756751781902164
-30.127426940685787 -115.048896010143 -6.749170846811641
-30.124463484496182 -114.98710102857 -6.739759648896348
-30.92695602159828 -118.61471141973107 -6.689913194633645
-30.645416524165984 -117.16602381426952 -6.724228233257099
-30.24687192557858 -115.19562875379432 -6.760373480018541
-30.19383302076775 -115.12883217291227 -6.755277508834939
-30.1399358156025 -115.02762130636286 -6.744665721734096
-30.715813214144113 -117.0583207491566 -6.693640279322246
-30.351491510897056 -115.25734376274023 -6.7592232233671945
-30.307272353499975 -115.22031852727527 -6.758111685926623
-30.015722731267868 -113.73101749283111 -6.753594450535611
-31.07230971096392 -118.22855110894392 -6.7482180604537465
-31.030982110664528 -117.9807734198425 -6.737090810067459
-30.40870302441121 -115.2750820747002 -6.755982037802417
-31.136470297485346 -118.29207674285338 -6.7374944092838875
-31.1816195158678 -118.14306446802313 -6.715403837831182
-31.159596686440125 -118.1366651030246 -6.720166184879766
-31.071757827432776 -117.98609187302173 -6.728017139972923
-30.860299242255977 -116.79654963450074 -6.76495588983372
-30.491820678965407 -115.24158187098588 -6.742276303247654
-31.208558449857666 -118.11035565569547 -6.70634661397807
-31.23571154605608 -117.97803317963401 -6.688666496357721
-31.115560440326867 -117.56908259003526 -6.674889122788489
-30.93295715757406 -116.71611673720386 -6.74166024461597
-30.97331461554784 -116.64191254348599 -6.724659375125983
-31.00059234676072 -116.59431403163398 -6.7135001208692335
-31.062699349666026 -116.5184487389102 -6.692540891695025
-31.41467314782023 -117.78580739358723 -6.770354261013302
-31.411918837460306 -117.77247780964926 -6.76975893560308
-31.09658650572131 -116.47307608812685 -6.680517043293437
-31.47643871814423 -117.72721130704964 -6.753137106252815
-31.00610950256848 -115.3594208569902 -6.70158991625845
-30.970972844590253 -115.28031453192864 -6.694652205822209
-31.56821953696693 -117.67140260935302 -6.730192554815193
-31.549543696056045 -117.58094706997538 -6.725889509035789
-31.132190874801513 -115.51340347422259 -6.7074413869587
-31.07719770673124 -115.4472475789484 -6.705177839488865
-31.05110359884248 -115.38597177168272 -6.699919862995088
-26.42180131808238 -93.43864083745812 -6.679155625325924
-31.251548134106457 -115.57544241118087 -6.70083926952978
-31.1953070139268 -115.55867619515273 -6.705674874275939
-31.72800615819764 -117.4853447876565 -6.682234104105253
-31.299264392304895 -115.5643788518991 -6.69334843552652
-31.928177115905555 -117.03064852015449 -6.766356889531492
-32.055120678626494 -117.17578243554344 -6.758607974859346
-31.99772533117057 -117.02239883334772 -6.754683907404068
-32.19970411561002 -116.68022008309228 -6.692043935500646
-32.135899247180184 -116.60501336065987 -6.694712293263043
-32.09685094899216 -116.40266397417686 -6.680503074251653
-32.25758421836022 -116.64877664002671 -6.680135740497917
-31.996891893472288 -115.09298952990875 -6.750650583538848
-32.08369339212269 -114.95486643202157 -6.727383945843961
-32.80676143514131 -117.95207798812991 -6.685926755373048
-32.144722337412595 -114.86725139467723 -6.712018444765448
-32.94494593096696 -115.84922617134907 -6.714947077855648
-32.87159191733015 -115.51191816578029 -6.694516060565913
-32.998937398198095 -115.67558346059661 -6.693894681440714
-33.074001041475 -115.69093454570363 -6.686298506022386
-33.71887968116172 -114.45257701147561 -6.768192460600236
-33.703428767484695 -114.364386202783 -6.76311461739958
-33.787847425623646 -114.21269993079785 -6.745014799483449
-33.80547540427716 -114.12773119757591 -6.737312559315376
-33.88416905637788 -114.13437407853048 -6.73133283682813
-33.84271686876537 -114.06064605810164 -6.7293308935784095
-33.79224173769635 -113.69911005213359 -6.706128505239036
-33.92307007977155 -113.92142582927782 -6.71235699766816
-34.02559745991582 -113.79808049149433 -6.694815799729998
-34.0011587706378 -113.74351208315383 -6.692673638285925
-34.08129980055131 -113.63575034287364 -6.6780916734900195
-30.983799756860694 -94.97177924866375 -6.6748129341011815
-32.699016122102556 -98.40078013805937 -6.771125479730513
-32.650813680752755 -97.94628449282894 -6.755599479195125
-32.98946558743339 -97.51271390483608 -6.734209092660639
-33.11921938073628 -97.3096910694573 -6.7246202161792
-33.538685197809045 -96.61945470513383 -6.6925371883615865
-40.31059355089537 -101.42554523395026 -6.716080588080567
-15.701330773522074 -130.0998235485628 -6.5923373877641165
-15.578880919732 -129.10711892361715 -6.624706065186194
-16.629231158275097 -130.92715573184861 -6.59797951528397
-16.888712078084634 -131.66501907266493 -6.574683453900718
-17.01180240108436 -131.78909390168448 -6.573624376170795
-16.973013605846237 -131.65613298272777 -6.578411745500718
-16.84026141316741 -131.03342476071612 -6.601883797583255
-16.61201926636787 -129.704277477949 -6.649778165712266
-15.509856497834113 -117.19700719288775 -6.631431594454492
-15.528324745648613 -117.15718807696578 -6.631525124816475
-15.738301790841897 -116.71502639453217 -6.632113640593465
-15.744860591039025 -116.67266216925356 -6.631082738821405
-16.172718766633693 -116.27568910148179 -6.647533680638963
-11.36217278861664 -89.39770172985868 -6.6525194413208
-11.52563858309869 -89.44927964144 -6.65365298082299
-11.774799113609138 -89.65949123077641 -6.659679620160103
-19.576336142296856 -125.72806285801042 -6.571391419223188
-19.586398668299097 -125.67385844868129 -6.575305473833315
-19.62953228494974 -125.73351185624816 -6.575123145975978
-12.336635973433955 -89.72648852721233 -6.65937964592308
-21.73549227240901 -132.55083349680694 -6.6675021580081975
-13.38273782864642 -88.42557255077267 -6.6088848056248874
-13.734991993633345 -88.62338959621333 -6.613846217713613
-19.71929061295615 -116.16008986865243 -6.59373756910203
-20.06527970458313 -116.13290276399137 -6.627547495150756
-20.054961836956405 -115.84777879116476 -6.608078677079526
-20.033496042728384 -115.71268875972135 -6.59685152799309
-20.10376572216994 -115.80467509198508 -6.610109176207657
-20.222099455588836 -115.63792731281772 -6.610495736408726
-20.312901226331213 -115.58466966818011 -6.615726309127851
-20.437569239710143 -115.674051523149 -6.634368347259432
-23.75819000895586 -128.6759000851831 -6.570646725565635
-23.954243844291142 -128.3004880655129 -6.611614245727838
-24.08653736085934 -128.0709847944058 -6.636993930319191
-16.44244853992536 -89.507894695503 -6.6282832000089105
-16.58985252605028 -89.58440978500148 -6.63008968372549
-16.59766052388288 -88.97088183276031 -6.608264803491111
-16.53255896532317 -88.47495363204243 -6.591006797348475
-16.583684984272814 -88.29032938696497 -6.584175050060665
-16.923461368233536 -88.22830594726672 -6.579476221050813
-25.120542928874002 -126.1824024413223 -6.574203013627868
-25.19945902876124 -126.04692289576313 -6.594586025348661
-17.332210557781927 -89.04687217461333 -6.605789893476361
-25.238267005586486 -126.01689472167902 -6.599880847842809
-25.32443819053359 -125.85643504006367 -6.623730281462316
-25.41019085083512 -125.69352192187436 -6.647862358261412
-17.43580188215344 -88.30591645542162 -6.57851896009538
-25.483719958683068 -125.59673445737485 -6.662980653522828
-18.173443454617566 -89.14521787882036 -6.602962704174992
-18.315818296474532 -89.22158060413099 -6.604693097081935
-18.401554868127334 -89.12749918442087 -6.600576887586767
-26.309952363243436 -126.1882492449357 -6.604485654600211
-25.963579876564754 -124.70205447415759 -6.583056053326194
-26.42343754614317 -126.19909420486992 -6.604510263294454
-26.349168944781713 -125.77811369719046 -6.660615757550152
-26.063609863805933 -124.52304642014614 -6.616768049857464
-18.547660609157592 -89.22865237717787 -6.603149237085563
-26.43881589533734 -125.86740280899643 -6.649783180399961
-26.139933861986584 -124.38173755168332 -6.643232490710513
-26.20376693359578 -124.30657930840377 -6.658199949458833
-26.51249000269815 -123.75319033061976 -6.5853607130094085
-26.861804133964238 -124.83733941650164 -6.585150724220731
-26.617472660070653 -123.58474541804722 -6.62390647555292
-26.97067074087708 -124.71965084208037 -6.60672449619229
-26.639914921640486 -123.56231862028595 -6.629376511121201
-26.676996272011962 -123.48284722257824 -6.646996698720824
-27.00534873938375 -124.61720671010748 -6.624769067841517
-27.108437557123633 -124.65889058484711 -6.618364530319011
-27.08941250634435 -124.57738664200026 -6.632332939537734
-27.040439205310065 -124.50868546309479 -6.643834663525459
-27.17971926090021 -124.63360956495353 -6.623096717374461
-27.207596984837938 -124.55928501683414 -6.636076105654287
-27.231388457349478 -124.42519225007922 -6.659440653354376
-27.372151045095613 -124.42858787758671 -6.6589003831078415
-27.49624228581777 -123.90109338539413 -6.574543442418191
-27.47885894039404 -123.79597860074284 -6.596710231853684
-27.698798347898112 -123.85691785748351 -6.582266930281765
-27.613108335229136 -123.72988068471493 -6.609949497663086
-27.640456335607052 -123.64768308432312 -6.6270306340674505
-27.717400240683247 -123.74967610989994 -6.604657603524313
-27.736199640742157 -123.59923510434766 -6.636120916633017
-27.675482502586327 -123.54504062693775 -6.64831380724973
-27.662828869984025 -123.45657967248901 -6.667113987312828
-27.81379930378668 -123.7348336543052 -6.606276575454072
-27.78998517942389 -123.57334864977143 -6.6407565653694425
-27.75953263177704 -123.55649917144567 -6.644799518467951
-28.04068753861637 -122.83582831676684 -6.651074900223493
-28.11993256125532 -122.7659049986571 -6.665461306922474
-28.363287110043622 -122.74478479494873 -6.658774113595136
-28.694127120971494 -122.80650693880372 -6.621119357830636
-21.768984770465504 -90.33080550593594 -6.615088515425927
-30.728322083579783 -120.90993877498565 -6.655271046762362
-29.655459226430064 -114.31538241308378 -6.6691407976680255
-30.586656860433543 -117.27506619327988 -6.627679322877601
-30.159861767231043 -115.19755956009256 -6.603808297590687
-30.214895516140196 -115.24366388811112 -6.605873882967023
-30.978690157033682 -118.40053234832598 -6.661272465994985
-31.022475366091076 -118.3673493658411 -6.646589952120938
-30.94604225195563 -118.26217411216817 -6.659218673986267
-30.284440188604464 -115.25240131185971 -6.599203803964685
-31.079493451492297 -118.36672953693521 -6.630655553910813
-30.804852038134758 -116.91780319935404 -6.654043095506369
-31.15139708653891 -118.19035838490483 -6.596346670569102
-31.166768490266037 -118.10368366878564 -6.584334141132821
-30.869492094165267 -116.82253503573865 -6.626217587381982
-31.204523050802646 -118.11241085912083 -6.5748195530685285
-30.94496147348904 -116.70686286806857 -6.592899056138358
-31.371459472733786 -118.1309313042259 -6.669109829897714
-31.439437634664735 -118.08557116789099 -6.649310249221371
-31.444027466048063 -117.87602530677084 -6.630415556036711
-31.402840393255225 -117.77649753302147 -6.630732205041886
-31.525386922724266 -117.76168663612054 -6.600697722990966
-31.440802962040095 -117.73409037424388 -6.61776949803428
-31.160426427563184 -116.35621914147065 -6.653466634627255
-31.20205887486904 -116.2930375566577 -6.637618410431788
-31.527962119193273 -117.74608921141477 -6.598629874474161
-26.505294176124934 -93.31029978076737 -6.673519569426055
-31.782259528151457 -117.33218821051251 -6.657284514556805
-31.76471341447953 -117.23572982770439 -6.651172017784471
-31.73126328024105 -117.18714246862261 -6.652693523842503
-31.861599972752977 -117.24586268455853 -6.633565782574578
-31.84329264944158 -117.13396004254241 -6.625835844381142
-31.826263399751852 -116.9210246030194 -6.606406528949341
-31.979333161313154 -117.15791263427049 -6.602176304179602
-31.9461296077116 -117.06580986630904 -6.599203468666452
-31.927323374599617 -116.99564340036868 -6.595453010606433
-32.037467394269584 -116.98597272319346 -6.573543680532492
-31.81449908083217 -115.37233668462332 -6.602142105673894
-32.24664022911687 -116.45914973300196 -6.663594955134704
-32.198125162407266 -116.2977303614855 -6.654613141668072
-32.34433853891496 -116.42320672789704 -6.645175878712729
-32.541839721325196 -116.43890834268228 -6.61646407739276
-32.41572150852755 -116.0905705717614 -6.600801137801138
-32.64774155578727 -116.29096618251141 -6.586008986256935
-33.07315559795224 -115.50730187241886 -6.670714098372047
-33.121028788809454 -115.40577736397373 -6.656243441755516
-33.17789050029603 -115.21226305479901 -6.632507676864653
-33.326714921658 -115.30652150492791 -6.623585098153981
-33.25085550869356 -115.18819107831813 -6.621921692233317
-33.27374954920418 -115.08505017913666 -6.610053852395219
-33.31132020012771 -114.99938828143803 -6.597984980784738
-33.54057833404262 -115.21968718532999 -6.591043260742628
-34.01676310479857 -113.45845554764595 -6.6697628373370765
-34.16061065643951 -113.20939391855319 -6.639054831605827
-34.35998508770917 -112.92407715141496 -6.6011160755972345
-32.31280639440852 -93.8032961007236 -6.6115821827566865
-33.874458347122 -94.95619545958068 -6.626902886047262
-33.93919135704546 -94.3338429613766 -6.603468826086759
-34.17672981172161 -94.47651389752968 -6.60436927567995
-34.310539569785234 -94.65633404619122 -6.60844353732229
-34.28395091464185 -94.40954286965152 -6.600117370420359
-34.61828397686891 -94.86915100015986 -6.610536398886343
-34.72429085803185 -94.81824615826969 -6.606845371334674
-34.95899627803266 -94.63021582874507 -6.595852287958276
0.6351851875047174 -120.40984553371972 -6.480847346447138
-14.698445364874273 -131.61148008803914 -6.485260624465168
-14.4419881449117 -129.36420499400913 -6.559089251052507
-14.447314047106572 -129.2859542643802 -6.562079294740176
-14.9840551510762 -131.5938245149792 -6.498631033610104
-14.903695458611024 -131.07851721653805 -6.516404315926875
-14.99109014304168 -130.91433319806822 -6.527022868344858
-15.47366047394612 -131.80260118043293 -6.5108124024641265
-15.734178523649396 -132.61157243162174 -6.485150468050965
-15.342104426792286 -130.74943645095917 -6.5496660420001955
-15.662289860995932 -130.76768288840992 -6.563261452905088
-17.994993183643395 -125.06824713880155 -6.47719070691811
-17.867307860081564 -124.59249276423897 -6.486849430328353
-18.080359086184522 -125.0626530493311 -6.4847313224632295
-18.92791314366996 -126.48631918470895 -6.477335321364985
-18.91398765009192 -126.42126490259093 -6.480154963347223
-18.993576512273982 -126.61188656919526 -6.474681932322263
-19.210863998643504 -126.68857521079215 -6.485961211846778
-18.796720794507287 -125.01618155006182 -6.547317882205381
-19.435570176614554 -126.80638159958866 -6.494730950068519
-19.492800712740454 -126.88677968209254 -6.493609128025963
-19.367953736267463 -126.2408339873943 -6.525115332403773
-19.594685718760843 -126.89885894321615 -6.4999970415630814
-19.570125547568708 -126.73488529543184 -6.508947372773219
-19.576901890877807 -126.26072076676019 -6.539394317182017
-19.606527459642557 -126.1856669912764 -6.54622251037658
-19.545730539444925 -126.04110775931487 -6.550501094556087
-19.434743632594447 -125.65590074848231 -6.564651779340447
-19.425445890391714 -125.59387388437972 -6.567451730030522
-20.004966434224343 -127.58145011429293 -6.480889601467314
-20.03979845229875 -127.60255047512169 -6.481650606382508
-19.014989107025542 -116.35850811250585 -6.532059759533304
-19.109400766418005 -116.33723230915835 -6.540761532811953
-19.56976678825857 -115.6085112177867 -6.543313097629874
-19.583273523265454 -115.5474854014204 -6.5405711391838555
-19.525236649397048 -114.945668436051 -6.492246972523979
-23.258112349327888 -129.55305992149923 -6.473637099941699
-23.397453875126775 -129.33142156007744 -6.498544364593593
-23.67564633812655 -128.7770701004874 -6.558744125224183
-24.34317933080718 -128.96747668552985 -6.557769223488561
-24.582849780810164 -128.9288589454968 -6.56651477537687
-24.794572251808265 -126.68749520679734 -6.496827665128651
-24.74399312754824 -126.58718261825462 -6.507602767714344
-24.940181574479432 -126.50397563596201 -6.5260331497767945
-25.042021785298118 -126.31378167111495 -6.554346804670318
-16.92084359477215 -86.3956994988238 -6.514228586462069
-25.681352619905205 -127.03645637807311 -6.47867812894294
-25.618584255366834 -126.7373963406526 -6.51703810502349
-25.612098562612008 -126.65721202587132 -6.527524865027823
-25.762214651417544 -127.06367326314547 -6.476785188078166
-25.851952165221316 -126.9411706884179 -6.495041525490381
-25.835641936590086 -126.89014519771735 -6.50156554098653
-17.64635799647767 -88.23600897725117 -6.574446294783482
-25.909759528489438 -126.8227819278543 -6.512079854909805
-25.95288974865687 -126.75978574985612 -6.521368561790017
-26.022345403827654 -126.58488395451849 -6.5461987999678355
-25.69680138498622 -125.1613962322994 -6.49588364452263
-26.091574334753318 -126.52433555903852 -6.5555796286352725
-25.754790225037386 -125.0604620427638 -6.515042901110547
-26.16830807374547 -126.42526237132361 -6.57024599918227
-25.865233431540148 -124.86887533204262 -6.551376606844888
-18.514408544708786 -88.0062292843604 -6.55948752418265
-26.5723339300342 -125.42529322459013 -6.479579452487652
-26.314219703188535 -124.09775525633799 -6.506850728258069
-18.691958565227004 -88.20804560173704 -6.565398009468632
-26.361775164519578 -123.997378879028 -6.529281414380973
-26.395119686564033 -123.94594743615585 -6.541197399766467
-18.86336192838496 -87.57191695013654 -6.541060792417771
-26.88929299330786 -125.12602984322497 -6.535742235857443
-27.225522921634177 -124.37864440324151 -6.473682000050531
-27.30609171133719 -124.3179862003512 -6.486840732733448
-27.359564967714647 -124.23335676054184 -6.504756499124615
-27.406066922173764 -124.20802323516868 -6.510122910451463
-27.35540277857855 -123.98437963462625 -6.557030018818803
-27.52053058973102 -124.0613937891508 -6.540702582431827
-27.509495435963306 -123.95686812679968 -6.5627679510594525
-27.573318483734326 -124.06414463836839 -6.539820800179834
-27.541865814789475 -123.9939931797538 -6.554799164746767
-27.6098472617053 -123.58726741397042 -6.473369600040144
-27.688033577127907 -123.58930778056363 -6.47220073939877
-27.75031400873767 -123.56328242043779 -6.47785645998337
-27.80276426459844 -123.57239019950465 -6.47471946116623
-27.81202831150177 -123.47621298411386 -6.498417787939671
-27.88937058776876 -123.51722199024795 -6.486648995440175
-20.229849808101257 -87.41030048288003 -6.523511888618872
-28.006421464853414 -123.36848512045636 -6.520406458054886
-27.929917729570644 -123.30154769722512 -6.5391189346699905
-27.940156835580336 -123.1807855681204 -6.568750025306813
-20.973276502172613 -87.62674753307283 -6.524565943520507
-29.370531303865185 -114.3358622215426 -6.509976226284228
-29.35613716668418 -114.32295598667476 -6.508423747531062
-29.42489316556276 -114.36911622306982 -6.512594583866556
-29.359562839574426 -114.2582623982994 -6.494929084489052
-29.520997672733337 -114.30931136119679 -6.492900418910896
-29.936468190165435 -113.70481394252536 -6.547084512028759
-30.70909430676815 -117.07067772432413 -6.564019488455516
-29.98762101375095 -113.6574127570454 -6.535458833230448
-30.81528773610325 -116.91045791939327 -6.51122320347619
-31.321079866306146 -117.96510232064759 -6.528910742870482
-31.323089740522423 -117.88923760332104 -6.520628192298648
-31.033884847106535 -116.55899193716888 -6.551626162819549
-31.444174505189128 -117.97525594303427 -6.496395611385047
-31.095088729426568 -116.46458458417291 -6.5242795296454315
-31.125194597012936 -116.39393324749642 -6.506847639206631
-30.99110870407317 -115.46567193439247 -6.542657861300768
-30.997264732125004 -115.36804223080316 -6.525609634908863
-31.07163902789807 -115.47763369291575 -6.5329751794497835
-31.585191396352773 -117.45059548717454 -6.554970457427881
-31.600894711506182 -117.42838650772018 -6.548922335489776
-31.7155130444767 -117.53960918556179 -6.534515575093806
-31.69369347661531 -117.5079997255811 -6.536259644493074
-31.809059946849505 -117.43678031828964 -6.502215127663387
-31.755173832188298 -117.26153354994238 -6.4951215259620785
-31.88381783843067 -117.3894451864032 -6.480052332246609
-31.85602619115329 -117.30068741989864 -6.476726005570866
-31.598853678232388 -115.71444124469856 -6.488925077827567
-31.61125543881691 -115.72847154659672 -6.489022164290738
-32.109377132026154 -116.71971819337747 -6.531232552547148
-32.02873062841724 -116.6761801493834 -6.541273684049556
-32.19102202745054 -116.66156504833033 -6.509543672058589
-32.15283095798347 -116.32656904180595 -6.477207239383539
-32.10786876177232 -114.95815488690216 -6.511220835787279
-32.17913153857089 -114.86193656638433 -6.48962845341315
-26.786383806457863 -88.07795258360296 -6.479107045690751
-32.93087060841019 -116.10456134509897 -6.5246922082475916
-32.9281678591917 -115.70937143928876 -6.485000784625818
-33.55901754207251 -114.62552909415811 -6.535491836016636
-33.63653356265455 -114.49982468969213 -6.515037437014876
-33.72551802007061 -114.37951185779613 -6.493754244085491
-33.742873990321314 -114.31567315029503 -6.485757804429085
-34.81138496724658 -112.65425791760619 -6.544534183089835
-34.84776839186844 -112.66446157019746 -6.54238573772353
-36.86606840156756 -108.08103639833408 -6.51744418214561
-37.183759026605884 -107.61420513963193 -6.474713386846701
-35.33708108044846 -93.99194524272417 -6.5661471601202885
-35.890640152331784 -92.49738029542286 -6.502612786045147
-40.07299494341035 -95.91353589508822 -6.537114637539344
-40.062761106134055 -95.74090819322977 -6.531369249911341
8.23751767196855 -148.04014685985823 -6.384113681470636
8.019736469667745 -146.87081998349902 -6.405272010772796
7.778336865827459 -147.27575580522637 -6.4050771810288465
8.044539255477968 -145.697468043245 -6.420192083919285
4.964751435336797 -150.6423641621828 -6.410312024663069
5.608757318379158 -146.8900467294086 -6.458148490069366
4.674621928241766 -150.79789577001532 -6.413103001266604
5.4037886648181335 -147.29828950613216 -6.456345231038045
4.8591419956084785 -128.03382331104982 -6.38844932805719
4.850633942119426 -127.91232459298078 -6.388239844025311
4.8114064098993445 -127.78005115603563 -6.389066478183928
4.88639195917381 -127.55616570041161 -6.3850043408274
4.867156290949179 -127.42979532365952 -6.3850964462573385
4.638072499647816 -128.3368972447621 -6.398288655171649
4.767901559655318 -127.64701885985406 -6.390108240162917
4.503971262532755 -128.42062879521055 -6.403724520496979
4.24499351883793 -128.46734928578397 -6.413839993076236
4.674692327899006 -125.95847919361107 -6.382699119567217
4.461562504196532 -126.73213969998487 -6.396588282830781
4.3033021383200385 -126.81067437833744 -6.403309389508741
3.630665432961795 -126.4231802943874 -6.426995189841904
-13.660668485450492 -130.92816915418157 -6.464019302751883
-15.553954583919689 -132.91082255806933 -6.4641915994099834
-17.375270789600822 -125.69964356384014 -6.395160762391066
-18.97778835756537 -126.67900181731639 -6.46939713086952
-19.626217637778055 -127.63043648455564 -6.452678428972096
-19.97703104485797 -127.76053938864013 -6.466295705331133
-22.9730690599301 -130.1019841801198 -6.413707263546614
-24.620025755886886 -127.08972991386389 -6.438497345721194
-24.905561716996917 -127.64014490005877 -6.377614894571785
-25.238693969498318 -127.72924302950938 -6.375673836733009
-25.386948961878417 -127.66273536793119 -6.388281180175081
-25.61578860674021 -127.51312152360377 -6.413492946930762
-25.54841198357503 -127.19536960675518 -6.454397841642416
-25.6181408884171 -127.38668230669451 -6.430460104671297
-25.61142016631761 -127.1859182414685 -6.457135286638557
-25.352556005079524 -125.77770701401037 -6.379136143383662
-25.988957249490934 -124.62205691352335 -6.385478245251418
-26.354659134034215 -126.0269358739782 -6.372408982338866
-26.07737642286961 -124.47772565144375 -6.418925363263751
-26.429696552827963 -125.90546618282089 -6.394701669689846
-26.41581647649576 -125.85232712541665 -6.403488020332604
-26.171812782763308 -124.31033806881233 -6.457229209683422
-26.218458767910683 -124.28844467384839 -6.46391325453199
-26.59110935287092 -125.56531625850641 -6.455939671041204
-26.55118647456397 -125.53355026166301 -6.460642892399572
-26.46854575174585 -123.81434690597082 -6.389600298763302
-18.127445644391003 -84.51055490645223 -6.437147958596317
-26.505543529608243 -123.7439399439823 -6.408304864765831
-26.888868308807304 -124.84907052435601 -6.371197210621316
-26.567481479221197 -123.64404961821194 -6.4353143677613485
-18.244728045768504 -84.47387507397582 -6.434753621522351
-26.947261296473577 -124.82163070666223 -6.377875548358303
-26.647799486646974 -123.52869149350016 -6.466875918472371
-27.060927528706834 -124.78286922091952 -6.387551395744378
-27.01365718897787 -124.68753428904324 -6.406838229449293
-27.04311422549242 -124.61852955831061 -6.421651867431688
-27.114528537291804 -124.52125504402605 -6.442824225994415
-27.23061887024024 -124.69216704143304 -6.407990290840526
-27.221231227994167 -124.59471639356093 -6.428355472181504
-27.1505692446433 -124.46259996045836 -6.4554676689200425
-27.187179249953807 -124.39205632672063 -6.470573000171623
-18.661607469101178 -84.10562820026438 -6.417964359503185
-27.27465296106505 -124.4486375157236 -6.459280793938956
-27.47119898413881 -123.88225635051187 -6.400827275812654
-27.547834892859136 -123.8558175302328 -6.407251162601984
-27.53012978443195 -123.78083486008512 -6.425813409197527
-19.49652644708322 -85.87317985637242 -6.47458296797105
-27.65002235890516 -123.78827815176463 -6.4233147059197995
-27.640095015118487 -123.61500015259136 -6.46628308245736
-27.714954272307256 -123.78797993175391 -6.422680730771614
-27.732900521473194 -123.69891584702339 -6.4444876165239275
-27.687357473159345 -123.61059283478887 -6.466916873170525
-19.977756186618386 -85.8513801687609 -6.469522620193636
-20.20335098517395 -85.76646957882924 -6.464411564424819
-20.31130573797596 -85.14426802117634 -6.440905122764065
-21.75443236143862 -84.96027979664103 -6.420384005871311
-30.21492903881665 -115.22583848884061 -6.434489225158719
-30.903447004937142 -116.78098997623194 -6.467760436021813
-30.90762289429032 -116.76091166465585 -6.463177374904598
-30.95967113151872 -116.68660027538323 -6.437789499427575
-30.984031580184915 -116.63329452556619 -6.422507332081738
-31.030207823769132 -116.56156100912743 -6.398832202542719
-31.488788460370134 -117.62946543439048 -6.447428726509213
-31.54128456793931 -117.75689513250651 -6.4477244483648475
-31.58190922952845 -117.6607659921038 -6.426215249766765
-31.587837322878105 -117.61355063384549 -6.419247282575791
-31.623365404282907 -117.71283501448939 -6.420905007767372
-31.715266288371435 -117.50805606740674 -6.373035477990006
-31.757232970625466 -116.93128877226466 -6.454382863335056
-31.925795922474688 -117.2523738377573 -6.455448465599419
-32.01559019649324 -117.31758773844038 -6.44212760226807
-31.95683840810905 -117.20343931497477 -6.442889243782684
-28.906168024709796 -102.72934784646328 -6.413340438937648
-28.861844898873784 -102.52643216202966 -6.39954913464782
-32.03917538137832 -117.10460815232214 -6.412967284874057
-32.031914996852144 -116.98911624261468 -6.400913272262276
-32.02182657872696 -116.9011691149569 -6.39234852611236
-28.97844374318595 -102.50839239923924 -6.396361229708478
-32.10196609487809 -117.03804209198945 -6.391068445238433
-32.088129872017234 -116.90557750566056 -6.378234681272694
-29.041115929251156 -102.43103651459943 -6.389812131888796
-29.151062421454043 -102.51973091834968 -6.394288937898279
-32.25347448965992 -116.01583020788013 -6.42029743753668
-32.54882241236477 -116.32631605902115 -6.4051846478181655
-32.513339931914466 -116.14337075222632 -6.38991441442673
-32.56857176030381 -116.3368550350345 -6.402737477664055
-32.579587833577804 -116.28601154892678 -6.394817950263607
-32.543856785579315 -116.14800909609967 -6.384991671850612
-32.278820851376395 -114.73590767190466 -6.460574851370523
-32.406747616465864 -114.51524419482323 -6.415559108059899
-32.4509113289052 -114.43982842153298 -6.400128056431057
-27.106595551556442 -87.95738687337453 -6.470910153435218
-33.072995067204616 -115.7189223154431 -6.464512556900482
-33.08207700045034 -115.68570862377172 -6.459682885641518
-33.09975129668721 -115.56926904521787 -6.444864247615489
-33.06274803774069 -115.4865419515264 -6.441472714596632
-27.216165369475682 -87.83919564469988 -6.465268030264255
-33.12108564913849 -115.48824839829216 -6.433135068046207
-27.33069761185769 -88.01327342139865 -6.470253468138129
-33.18679305973325 -115.20530876204175 -6.392775409532482
-33.249383296921046 -115.16061499498036 -6.378842919134019
-33.793021298920486 -113.99474442016884 -6.4493171081627825
-33.876629054652525 -113.99550220196716 -6.44027849164769
-33.81412094231047 -113.92211068995651 -6.4399233459366165
-33.934924818733386 -114.02016221156158 -6.436303949156847
-33.859038760154206 -113.63789167629139 -6.4068317535495485
-35.515574281207265 -111.60248655408745 -6.406919542619538
-35.59549516818686 -111.57634747876475 -6.398589805029854
-31.509537775569132 -89.40944609968744 -6.464584631839897
-31.60943386696118 -89.45431898524342 -6.464682083339133
-37.492126021797695 -107.15298326838558 -6.432871173254262
-37.808183055229605 -106.68013375922308 -6.389841686335035
-34.323146334831804 -88.20780464134269 -6.376321630134206
-34.64758308174144 -88.77588662125643 -6.391330846705664
6.609873841663227 -151.77444921129114 -6.358888441271491
6.444062968886929 -151.844122977577 -6.360937055851036
5.600168114098796 -126.75876088981337 -6.35231876531161
-16.899652060583684 -127.35317356325731 -6.270957701803086
-17.815567973597727 -128.17687027184726 -6.29090410914516
-17.907993807395258 -128.15704514030784 -6.298823858182302
-22.708056396291333 -130.59858502241553 -6.35927594258596
-24.150236171506926 -127.91535220436556 -6.314150693369694
