ply
format ascii 1.0
element vertex 828
property float x
property float y
property float z
end_header
66.30509460889871 -130.8938894177572 -0.24494700194914143
66.29462558415695 -130.65137216205812 -0.24239780981998504
66.1532862713088 -130.9906809441647 -0.23841653450847522
66.16137775145214 -130.7873726878767 -0.23718234049997888
65.40823719287161 -130.4705377854504 -0.19715777416945557
65.47180152854591 -130.38296849257694 -0.1995728806526459
58.21799798658233 -152.9104678460402 -0.1914180333418377
58.24924942592641 -152.81735857741177 -0.20186402636680734
58.255082475840915 -152.75426697053032 -0.2081838609910548
59.290714800854374 -144.32337663169702 -0.2628330060416272
59.29030165967654 -144.20118210171125 -0.26987196511004885
53.653271039052214 -149.8474245324701 -0.24933713906318433
53.622630969013834 -149.75716226292298 -0.25593273700128016
53.50832515189967 -149.64840861316745 -0.26015384446950596
53.4993750462142 -149.4691027792597 -0.27580887386907005
48.00123526440093 -157.1524162042804 -0.2707591075694653
44.685035074790925 -145.17105270546486 -0.22520370074003704
44.215678986852204 -144.7757879085525 -0.23667712957758535
96.9188119743431 -158.3530246338772 -0.14313237846973803
96.67956259478353 -158.3795293822618 -0.14524466634467337
96.68842538327257 -158.2382205978901 -0.16018867680848559
96.44539980735922 -158.68595255744947 -0.11719872329316872
96.41329519042014 -158.46805240773148 -0.14125246251000156
96.26262423229069 -158.7182408685981 -0.11750079935076063
96.28835544391461 -158.09447726309196 -0.18382191422486027
96.06061694879108 -158.53550514570583 -0.1412842825366637
95.99621422555968 -158.4528040823753 -0.15147526384533827
94.98841460396255 -152.6801583747003 -0.13576624906650792
94.79589090263792 -153.0121652574501 -0.11361219119620092
94.64738472875638 -152.96250414888115 -0.1268644853915346
94.5504777595027 -152.90919141796522 -0.13755982981841408
94.3163335665193 -152.87122453933853 -0.1544152902461574
94.2849066609105 -152.81459206454764 -0.1617588722929284
94.18941595343247 -152.70250542200668 -0.17814438747490602
94.09174862084578 -152.65236100350023 -0.1885398680337823
92.59081041951136 -147.96705944661917 -0.09476696656924766
92.59325289356265 -147.9000556463568 -0.09925093143132768
92.57911920885572 -147.71820156556726 -0.11305924574074988
92.40760588152715 -147.9170965034336 -0.11370566210728794
92.48601612742931 -147.69404931787787 -0.12253650959876183
92.60188609654332 -147.27916624150083 -0.14104174212878162
92.47201995800567 -147.56749336584932 -0.13236821718133884
92.58772365225283 -147.05650396245957 -0.15706519975016064
91.43580121096508 -148.7449525493526 -0.13756209699468258
91.19476016128802 -149.24148941895527 -0.12214202306330801
91.32525195265885 -148.67223389866032 -0.1521300370777957
86.32247022818099 -160.29094630454648 -0.14253510312681705
85.47715605921431 -160.57084159899287 -0.1254472376067568
85.48036124005351 -160.48442617710012 -0.13535885914084944
86.99273643332641 -154.00942703012703 -0.0913566568813361
85.21143173906393 -160.49570972633774 -0.13852637486301422
86.94132913375552 -153.97774174391083 -0.09921228542391825
86.85074361221106 -153.91422795208362 -0.11376474200792352
86.85270820552627 -153.82662471052802 -0.12221464171905327
86.88902014847604 -153.73709640051032 -0.1276535344636086
85.2921504422894 -158.018299131019 -0.09353030044942412
88.74691328860679 -142.26484315343376 -0.09600191624081622
88.94510960492345 -141.3937062585749 -0.09137656730930765
88.46401837434331 -142.43145330293285 -0.11852699496421515
88.61192200801979 -141.11962221606677 -0.12334640024951671
88.2179440198383 -142.01413521833672 -0.1459277754006103
88.67696389643574 -140.16635930986183 -0.12779797504812251
87.82092763157777 -142.94392577982774 -0.16756315410029055
87.84463394152044 -142.83975350429785 -0.16700637080446523
88.01191719577136 -142.07001591888576 -0.16288242215267568
87.98499410443983 -140.91648451170443 -0.1773704565787143
79.0492248632292 -158.0667432939267 -0.11101853664147432
79.11204408393785 -157.80406870564315 -0.15925887955229778
78.99249696246858 -158.01775120509362 -0.12458086625350417
79.07596109424162 -157.81452910479834 -0.15970987359905453
77.35654272118445 -161.81285315160198 -0.14072829477541937
77.30262199440836 -161.56360194743888 -0.1689972087035999
77.2390216414641 -161.72082530554576 -0.1511933162626643
77.2664956861852 -161.5579422716267 -0.16963025384131336
76.74038192597277 -161.58465593202783 -0.16663340159022266
76.71821331510061 -161.47105210474405 -0.1795384424564448
76.47139761546347 -161.5979595893855 -0.16495670340277513
76.30254356579617 -162.10340208697346 -0.10750887654547459
76.38356854464203 -161.82191967641262 -0.139442470286818
76.43630092591613 -161.5632325224779 -0.1688131255659443
76.2361068084591 -161.7814835762609 -0.14378620686035282
76.2147240650794 -161.73384439046058 -0.1492039354809629
77.61541810319538 -156.57266753805857 -0.17719254995206757
76.16168889026738 -161.767664650621 -0.14523791956901144
75.352664339598 -162.10447655860412 -0.10496274969415731
75.08466685309612 -162.19630467984945 -0.0936685005673118
75.13336765249196 -162.1603528086147 -0.09788251311436691
75.08259102147395 -161.8569919543665 -0.13191562805304458
75.10048383817684 -161.78363305669953 -0.14019466205928943
75.22137976044442 -161.4934515208764 -0.17340879600446213
74.95218961650322 -162.16091543561473 -0.09704535554759686
74.93903819405776 -161.99168811771253 -0.11610617567129466
74.86542502115381 -162.06518093402983 -0.10745322621228415
74.88075758753918 -161.70314704195843 -0.1483686318374916
74.57558559057 -161.5591323971411 -0.16299901145681306
74.56033663801152 -161.525005763813 -0.16681692936759174
74.0926710286764 -162.18920689883151 -0.08956426859117128
75.31313660108775 -156.43800792947386 -0.12275449279336725
77.53086907796877 -148.1356049027674 -0.1479020887403244
75.24357196341951 -156.49519056349803 -0.09307034978327167
75.29327036989609 -156.35649956644278 -0.14467640410434413
75.15112050227593 -156.4299027804506 -0.09705599974878432
75.15820373783001 -156.40092834642837 -0.1071191209403679
75.05769585677326 -156.37564170219818 -0.09622328909908018
75.0713318640799 -156.23833101006088 -0.13907709886696606
75.0329941314626 -156.22926999863358 -0.13420499628938187
75.03957659288331 -156.1527669002266 -0.1572921988838163
74.84189789416034 -156.47499068173016 -0.1319527367621791
74.83958232484451 -156.42454886975034 -0.1447838715686377
74.38322323565659 -157.29556267816776 -0.11182106060014285
74.09929810807154 -157.14099066643075 -0.1136199732701515
70.2483994101111 -147.79432578698825 -0.17864889661605088
70.17596019784693 -147.7887989631339 -0.17061705473360933
65.36792404289424 -144.16479712971878 -0.15096064282909938
65.10283504508885 -144.21656417425294 -0.12588374215797293
65.1164838787007 -144.08337680539304 -0.13004320939581415
64.8663993548804 -144.58341530679152 -0.09549994021460562
64.99514232262109 -144.19412997600696 -0.11669809830997813
64.77555672951696 -144.4365113661107 -0.09078882973574309
64.84296767185583 -143.57370951814437 -0.11626396588276378
64.8845998556195 -143.4971367182029 -0.12160073775692448
64.90098834166682 -143.43525064999724 -0.12416572926658764
64.71228696608509 -143.6453808388233 -0.10310098041214599
63.663451316294335 -139.2216590812475 -0.08279607354317986
63.4836018163109 -134.40331528402427 -0.09665771116831523
63.549500017297184 -134.35008819866982 -0.10133835661635104
63.57222329716079 -134.22757503132325 -0.10276792745696839
63.40169915366691 -134.4314962455364 -0.09132029867600666
58.22194870206627 -153.39512987934168 -0.14497263760928414
58.19190410690322 -153.32982416092048 -0.14978074749047454
58.186017245797274 -153.26582511132116 -0.15568183912566602
58.19901835409539 -153.13664622071823 -0.16878288147336984
58.14657606138053 -153.19781018234863 -0.16026040052979307
58.17798247273977 -153.0698191461829 -0.17414265386447525
58.119343297114824 -152.99968534634021 -0.17795842906481252
57.75179429876205 -153.50107605428113 -0.11117252085188645
55.9245164257038 -141.81795052609723 -0.15977077583371269
55.927135650337235 -141.72137419542233 -0.16562855364524287
55.80628978901171 -141.54378105240227 -0.16672854397615655
55.802873614519 -141.43910151278513 -0.17255210657225595
55.37596369549234 -141.78444735432723 -0.12156090945689224
55.34488270075829 -141.66466652907232 -0.1260350997597638
55.294638312583835 -140.81265040347813 -0.17063446927517845
55.05488796114844 -140.55286265937505 -0.1679126958125412
54.91298742559791 -140.67552756416217 -0.15082861609359655
54.53447417084399 -141.07268625491287 -0.10072226525394701
51.78324652246665 -150.6285595412254 -0.08566480654264208
44.22531390221795 -126.92124322705212 -0.1109478821066997
44.14972376114547 -127.05133098090589 -0.09961766827839846
44.252900927204664 -126.74967430272007 -0.12039241689883462
97.70865718839512 -166.50882308793112 -0.07644024575893149
97.66501243549247 -166.58029630147658 -0.06914847012610625
97.52261287452352 -166.59440135787037 -0.06615128017482363
97.48866006461749 -159.20552800491643 -0.03988880095257197
97.29720563793853 -159.6097770718413 -0.00023449949148823812
97.45069512136948 -159.04666161611866 -0.057757987971835734
97.25043219210517 -159.22492079360504 -0.042701558667971096
97.27860479819932 -159.0838600841479 -0.05730545537254694
97.18749486154249 -159.28335861420499 -0.037688420124959876
95.07086419730646 -153.74873730269766 -0.02408770419707884
93.77816795939984 -147.94641461042764 0.004525640744148074
92.65805558199771 -148.76033893877303 -0.03196335071189482
92.82363779804193 -148.12678204149967 -0.06376243297028039
92.4971574199617 -148.87949061171798 -0.036979563676339255
92.68906239503116 -148.3084866854462 -0.062208251177204854
92.61698731201292 -148.08374215318622 -0.0843406420683539
92.656095843813 -148.00501094941356 -0.08658523565085163
87.05414975775619 -154.21958159315986 -0.06459219122660009
87.08072263027772 -154.1116501111201 -0.07308963891730103
87.04665923978555 -154.16650804397278 -0.07066049672263475
87.04579922811004 -154.0598732195309 -0.08147389341302669
85.24251220481487 -158.80825939745696 0.0034233895372286494
85.34661391219782 -158.17986325698917 -0.0705951943182972
85.3151847392866 -158.09688264626126 -0.08256918349658038
89.35456276347985 -142.62713784244335 -0.034494567380959795
90.43501125396519 -138.49102205527745 0.0005256228868111279
85.2557009739494 -158.31588896691295 -0.058283220497676425
85.26785824197482 -158.1464698558424 -0.07885576954908835
85.28717943825741 -158.05071200530554 -0.08976288939945387
89.34594562025944 -142.30367156214135 -0.04132942350724611
85.07140776571896 -158.61805491693852 -0.029503173533258487
85.12641052190472 -158.29233439069074 -0.06790768386312873
85.13921776301275 -158.21355227620538 -0.07713076605157954
85.18334059695115 -158.18060835982254 -0.07897514940915173
89.6112193961089 -140.86221253253504 -0.04080365616610271
84.97010019108575 -158.25580782804738 -0.08053891624392706
89.15322548868443 -142.40932366234514 -0.05700232344396805
89.13360552829275 -142.3011648638443 -0.06067879134712939
84.82510661818355 -158.44540893717019 -0.06397076806650448
84.88121562698896 -158.28448036882295 -0.08148819425691134
89.00525882674948 -142.29956720546463 -0.07230290247332083
84.69698183317266 -158.56818812031253 -0.05479502979370343
84.82176431668503 -158.3580151806704 -0.07523052698700483
89.03317067018327 -142.09931790857777 -0.07310991458101279
84.60331847900092 -158.60627047625758 -0.05461788542430712
88.93705908049662 -141.84989222421265 -0.08555276445801996
84.47009433837061 -158.86312910662627 -0.0280732553304619
84.45879729993389 -158.78777444442127 -0.03840742257700014
84.50660820049657 -158.6933183937003 -0.048246995134558324
79.26797297094062 -158.36551353657848 -0.03648523207245913
78.94182817055754 -158.65807140455038 0.0034762865411503974
78.96964971375702 -158.47576989887997 -0.03259137646624777
78.86221982241895 -158.37393220489437 -0.05981505773956863
78.82450743044252 -158.36632425654298 -0.06350464246706955
76.98372281169412 -161.05205859845623 0.002743283811963426
76.9489259931126 -161.0221216326496 -0.0017648230913371865
78.88019795324723 -149.53074795592588 -0.04064608872750686
78.93315914774242 -149.4502718098346 -0.023864024563724717
78.75584942335622 -149.61652031059873 -0.06540752148464013
78.8135290211701 -149.59788604310327 -0.056961886603339895
78.69385016298034 -149.57878282186832 -0.06605723627287596
78.63293107221413 -149.50662566586448 -0.061405083988420595
78.59232068538314 -149.45443369006102 -0.05751839857703578
78.5536609012103 -149.3944879509737 -0.0521569206537047
78.52919455773498 -149.28925427691976 -0.038767584967162705
78.82775280168687 -147.7061075517131 -0.03457952504794193
78.87704536582156 -147.6700744470901 -0.02711890111816717
78.74576285698853 -147.72267792768994 -0.04187188113943763
78.64901060985946 -147.70777942420887 -0.04621843010779636
74.75834927253925 -162.36185013412052 -0.07361933255806674
74.74974744184756 -162.28550690111976 -0.08211064476759888
78.58780549970598 -147.64700711797846 -0.04277823406207548
74.41162073078377 -162.39323538554987 -0.06837616704328853
74.79620471383072 -160.99919065638053 0.01168990465466524
74.23715427694823 -162.75337603801486 -0.026973178272665654
74.7568838338336 -160.89321070203664 -0.0032362370359833026
74.22457717591891 -162.4612004620591 -0.05971338452769315
74.1183411878293 -162.37096840731041 -0.06930017155842294
74.12621757363696 -162.21583264076583 -0.0867382325297752
73.79546089111815 -162.69693622922566 -0.03087742493761203
73.70367587181426 -162.52165665529597 -0.04990472830990078
75.19110803293749 -156.7071805945745 -0.017592560195475393
75.2354429696064 -156.5184323455102 -0.08441695432974261
75.13718651485235 -156.48193775553338 -0.07869655871566295
75.04434324981614 -156.44780654448303 -0.07224507915986189
73.62989905006067 -156.733094211237 0.004946059863170538
73.53640264303553 -156.5772794817829 -0.012106545652982081
73.51167052461209 -156.5690068923971 -0.009693595946488331
73.86632984712303 -150.560400747395 -0.06047991832377764
73.88837500120819 -150.50336116968134 -0.057781646827033795
73.79661362200976 -150.58157943979626 -0.051577961372184955
72.59980808636654 -153.39974497037724 -0.07760601433850878
72.49983503519239 -153.40317550446719 -0.05533697147324346
72.33482394569357 -138.5675201970281 -0.000568540669496187
66.03203733417202 -148.92532453998513 -0.06295346296679294
66.07566225944194 -148.8758739525246 -0.06993116008674383
65.73712773080535 -149.75966910597108 0.010956043909861934
65.79025862302016 -149.4608137325475 -0.01058493764248003
65.66845926787727 -149.659339374885 0.013225651606904254
65.86762278578898 -148.88749197793427 -0.047112913223846364
65.85256034688192 -148.68289761280028 -0.054859645709437244
65.85701511621984 -148.6362439413285 -0.05734930468864197
65.85735745192581 -148.3935541205834 -0.06809277319351525
65.55110116602226 -149.30292018590393 0.007532995162707223
65.56225762630514 -149.06813718582583 -0.005357734134653125
65.63436982824545 -148.9115894805801 -0.02075073085550372
65.65107173718502 -148.84709667593845 -0.02564204783012225
65.434384865131 -149.19893515745846 0.015124694412441242
65.4742043650136 -148.9752710153481 -0.0003955809232427665
65.53438234918278 -148.91123166648688 -0.010025060739347058
65.41417218961509 -149.09402786945455 0.012001617509888485
65.47102209269062 -148.92716764645482 -0.002313085818043348
65.10554960350805 -147.86195275537486 -0.011471364219294289
64.91162100197883 -148.01881713859333 0.015862018645403264
64.94109454646924 -147.95647317708404 0.009971455816919272
65.01346241177217 -147.75338302347794 -0.006263798271054721
64.29245530343036 -144.75022614316956 -0.03711477372027017
64.34829691945036 -144.72405982854565 -0.04304423211017938
64.23098907162785 -144.77096360296977 -0.030543214134975516
63.926842553064546 -144.95535152673767 0.004150587734639277
63.97114368093399 -144.91900942372789 -0.00134851205436326
63.982201530481525 -144.8225867872917 -0.0051966666865299604
64.00338245099849 -144.7332775396119 -0.009766814815077574
63.85050297119324 -144.96815533671898 0.01185396814281292
64.0202958658318 -143.68693018606092 -0.03893334615107413
63.717303335981555 -143.77377184659397 -0.008536469820310533
63.67893887042748 -143.8145678445691 -0.004015032895368309
63.61699583766344 -139.27770591209372 -0.07868871863549531
63.54220831839136 -138.9701667739607 -0.0760121627580631
60.63127895462848 -149.71016751071969 -0.007145529746056312
60.55460369267382 -149.87488086234325 0.011725805922004229
60.6063128339172 -149.76702740479035 -0.0008020100456953561
63.27000649106435 -139.30915376357072 -0.05057820245356037
60.43465636396646 -149.77852229456963 0.014187770129225008
60.419375951270794 -149.58191780206812 0.00037944553874003084
60.32537652149513 -149.30239778888455 -0.013037165452484789
60.397604431687355 -149.2331797783244 -0.024055792538122178
60.42740349913251 -149.14722082300628 -0.03283420776380486
60.40843181585704 -149.07677556618586 -0.03655916116470004
62.972940462451064 -138.75536950775736 -0.0331722781600261
63.042096834883424 -138.7239110964618 -0.038873817550102885
57.9969483080475 -153.97203162292027 -0.07738047628412903
57.21184930186208 -154.28270084134095 -0.007364142294274734
57.19269896131718 -154.21415595167235 -0.013195203517593068
57.1393640569262 -154.349975947528 0.002951185025731329
55.9722590708065 -144.559507827242 0.0030893025256588658
51.82873333609107 -159.82513616182342 -0.056111108930078535
55.84333359574843 -144.58432288512233 0.014799163489721767
51.809536646557945 -159.7343142157323 -0.06508007582104214
50.456675345613355 -160.21360668018593 0.0038699649494322585
51.69687625764719 -150.70435246094527 -0.0744106322907574
99.0737184604551 -168.22583609537963 0.07006806816975342
98.85405995115639 -167.8807411191316 0.04002852400953172
98.69467786506452 -167.88859533860995 0.04259949069929303
98.72180823657308 -167.6476157977632 0.019532437288058535
98.70637890679097 -167.48663382375892 0.004489124811575929
98.5269360135998 -160.31018384163602 0.10058763140367599
98.47334643829304 -160.0591357011391 0.07234864906560312
98.21739972306139 -159.91515570940993 0.051549908952672974
97.98258301206816 -160.24139652649615 0.08206029108233959
98.12529916207 -159.65664711916196 0.021772067675895457
97.73421004685628 -160.02673700854632 0.053759404023253854
97.55213018995755 -159.90245473418048 0.03659123419161592
97.43752203556616 -160.17420675351522 0.06367575559909922
95.95401717756332 -153.6421994821136 0.014570090496443644
94.4666099170539 -148.2314603878155 0.08440015293845748
93.94000475572356 -148.15487440308226 0.03350816921609567
93.85178975374532 -148.02169060631135 0.01625578067415412
93.47973996765492 -148.65146486964753 0.030672408114880367
91.336023203571 -138.68550706819883 0.07907638520657345
91.33873485269154 -138.4607708292794 0.07638246088642942
85.29735756121242 -159.56277409714787 0.10376445786443389
85.4404411170282 -158.83627131336294 0.01700505061603197
85.15346199208922 -159.51641143740522 0.09068065422637694
85.36190310375504 -158.83269468988456 0.012572895875751389
85.1446407950984 -159.43469941969767 0.07955567165942656
85.07563895891892 -159.33669188394413 0.06337506313754182
85.04221553930934 -159.26009127700326 0.05174819723860469
84.78819446432492 -159.7612484235093 0.10564436756783868
84.63769068917509 -159.72167796740266 0.09329904825836977
84.77670952080219 -159.07185542142042 0.014182311182481255
84.61660174048468 -159.25305030262305 0.03002758597424382
84.5025246822126 -159.4248397007645 0.04716076773698741
84.5404431065399 -159.31808857612154 0.0348953732775672
79.32312917747238 -158.15783093254566 0.08549814156133162
79.27740198234115 -158.15690312677472 0.08121724658341223
79.26942714123106 -158.0414164577065 0.05401076297818452
79.27067658290296 -158.00274314624465 0.04531750942584112
79.22309205542741 -158.03997671566793 0.049519389046154494
79.00777643552978 -158.12604312690885 0.050916703608620884
78.99130101118703 -158.14037592511843 0.05290293379318323
78.3273321223252 -158.40237409410042 0.06993883606757256
76.8979345753559 -161.600500727841 0.08422559371395932
76.93374569699918 -161.51698116322657 0.0718541696941224
76.82336691776203 -161.52805343533734 0.07346307829163945
76.72638462545122 -161.51783210692687 0.07201937376425338
76.56179225474024 -161.70849112381907 0.10065067560623908
76.64031079109655 -161.5744790101926 0.0805906373964731
76.48406865494131 -161.77054791421315 0.11009441156452526
76.51145631336281 -161.71241541051555 0.10131096616578694
76.39545883929401 -161.56889150477755 0.08036851254184252
76.45223847039588 -161.4262310439658 0.059019396298860105
76.4811110724793 -161.33467231672327 0.04526157008063225
76.3476587562021 -161.5743943971271 0.08140908659335389
75.72897709049676 -161.72167828628827 0.10697030581795697
75.69204728210224 -161.63718690579603 0.09481149251872578
75.5763126712204 -161.5695804623805 0.08578096120551404
75.57522126390108 -161.43670282569357 0.0662059777482491
75.51522535101832 -161.55645524351823 0.08446129228094756
75.14876221247299 -161.13586961650194 0.02665933069679771
75.09080445174493 -161.1259978616684 0.025951057188072335
74.94405183790312 -161.16708034927893 0.03406233497301736
74.82002603536107 -161.24858459520175 0.04784451289759972
74.75980480811405 -161.11429634774623 0.02905116674940289
74.72237894835338 -161.073417495056 0.023724513598840202
74.49269183416115 -161.34043047266246 0.06650901275314913
74.42123949741462 -161.42788146362483 0.08045654381149459
73.19849766157691 -158.3053142691648 0.04310876521763185
73.23712670391215 -157.74156988996947 0.11065829119823656
72.72926697177618 -153.28001282610307 0.04706625846910106
72.6527068327982 -153.32410446886607 0.06781982780628137
72.7002952718415 -153.25469958815648 0.05379914991751522
72.69578779312045 -153.19748975983939 0.053550263599012604
72.50853892620619 -153.49964344449216 0.11121899190900852
72.52684279484268 -153.45778189881335 0.10478706785400527
72.56713110361821 -153.3575706909101 0.09077704516227403
74.03501235701643 -136.24885283872305 0.06405093977365106
74.09205253246873 -136.207906119399 0.0650482699878101
73.96831262436582 -136.23900223015238 0.0661490808777403
73.89018688718488 -136.1664638443158 0.07165648182430617
71.71856358454679 -138.423217762513 0.033232644940634604
71.61465605998872 -138.4755681633536 0.03562222687592165
71.67578086291823 -138.4767384428963 0.03262064543744425
71.7412704470619 -138.3029305696398 0.03777522557218349
71.54852909198438 -138.46151566404058 0.039325281940560064
70.7660894024077 -139.77910266629075 0.021966963082546087
70.78969306283757 -139.68956248502457 0.024338905307273784
70.68386610551339 -139.8014150528993 0.025813274575121392
68.07714839869476 -149.44356248461548 0.10104196490023942
70.58049184070222 -139.77023900329505 0.03323423639864065
67.98401075745345 -149.43015436282897 0.11340412420162149
68.02060549958745 -149.37041114359766 0.10702627132058651
67.93152374458664 -149.235028454281 0.11589488126639402
64.93628666310052 -149.18929851506033 0.06936442352901384
64.72593681124678 -149.16964521137314 0.09160356295764727
62.125321602046085 -152.48604938101863 0.09642812671932277
62.08395621676708 -152.37768874935404 0.09035313213932938
62.07290078279083 -152.27366277158703 0.08215741527871767
61.93037833220003 -152.53716188292987 0.11744080587322392
62.010603883163526 -152.18541697690824 0.0797176195991185
61.936122557222205 -151.85307917043656 0.05734610082360492
61.86193770448445 -152.02783197325394 0.07856980128959634
61.88648630873564 -151.92334806495703 0.06751727546217223
61.898007299273985 -151.79388014027052 0.055479241546192215
61.84445225971482 -151.7313919323638 0.05469275677675722
63.29900267091019 -145.53342524575976 0.08503770263969157
63.177743646914976 -145.62221132719068 0.10050523098249231
63.239797557951015 -145.56170028390608 0.09211790675801135
63.563173021225914 -144.3227674481213 0.02070756556900122
61.550200057999895 -151.62160809216488 0.07005137914071913
61.48776844115621 -151.5542522001352 0.06962928841391558
61.49995938396904 -151.50138961709575 0.06413846845166371
59.025259853505275 -155.97871673264413 0.07381314970640673
59.115820341901895 -155.91085773058205 0.06226774352306075
59.14070340866204 -155.8456220539257 0.05426313284035711
60.34411539038835 -150.12222861888128 0.04832935257661064
54.038235505675786 -143.81658688275937 0.10458617872840903
53.1353184161667 -142.06114988215586 0.06272598047577937
42.13115127256578 -159.26357359422445 0.030258903241083157
102.43881545879555 -184.74286539712946 0.192944474721767
100.19137107169173 -169.59097688840106 0.18589859365634642
100.20599834103946 -169.4872499650394 0.17597621955189302
100.01080915028558 -169.5864036359108 0.18749500829440513
99.76839018474757 -168.9842468609732 0.1336028285925599
99.66269716364899 -168.80718688801878 0.11813469413392053
99.70050638817911 -168.72039424336273 0.1095199063314618
99.55331420485501 -161.00243940234853 0.19651864644471195
99.45745960736625 -161.06043819638438 0.20086112837422765
99.44841200379939 -160.88986240124242 0.18216183395809638
99.35644953766231 -160.78187408395598 0.1685904260969282
99.08521957761378 -161.12171333414338 0.19997478067037533
99.10057677015483 -161.04211039338728 0.19164369984678253
98.36263314552804 -154.19853117495646 0.20661790929207302
98.19362332349831 -154.2720161823374 0.20471375232644307
98.29973391058299 -154.12546423629175 0.19554208168356846
98.0076731676625 -153.91064888049982 0.15710674514090206
98.02560424446747 -153.83636234392404 0.15049207391990072
98.05923702220839 -153.76133472131716 0.14472540976628534
97.77899165750046 -154.4931113267084 0.20437871832090537
97.77586794017155 -153.9907492364555 0.15230688898739153
97.50982757662365 -154.07006100873153 0.14554669688161326
97.57774070214523 -153.70756246897494 0.11223209730958628
95.45454516269942 -148.52048649181987 0.19181157209553468
95.49452857449485 -148.36473071673333 0.18333972667512333
95.45036199715909 -148.44856726551004 0.18591946890411948
95.34374414050718 -148.34706759462003 0.16890731833328343
95.17330344478277 -148.33427569843371 0.15316470315969877
95.08017018339532 -148.29525104295206 0.14214623778126945
94.84743626658516 -148.30538494165245 0.12278674059952177
94.76566289053355 -148.26402231012878 0.11261599466915229
92.10487043238466 -140.88175613368406 0.18743316106872943
92.10801885440803 -140.78325367441846 0.18556666107314856
92.10563924717577 -140.6909322305103 0.18334590231051906
91.92519163294742 -141.1366888455998 0.17599527205257837
91.9719938965479 -140.7187846821448 0.17132330381477234
91.81523870003635 -140.76906264552545 0.1576315865300144
91.77610025411484 -140.71156843479358 0.15276539165898462
91.72486010446204 -140.66194278523977 0.14696353683269248
91.59271390482786 -140.686959594708 0.13514228417632057
91.61839126460372 -140.56536015900622 0.13512849518747472
91.62089918056412 -140.36748494086538 0.13154221513435838
91.46417041153396 -140.42029164312223 0.11810844858002167
91.77726800100535 -139.3998542137925 0.12859849836406045
91.45912107184775 -140.32865874369577 0.1159492673946465
85.43911278202387 -160.14260875325257 0.1871560409050772
85.21528142991104 -160.37852318525927 0.20877852952508613
85.06217750318801 -160.4014321596805 0.2048627576483455
85.01451942128362 -160.32480167763532 0.19233432078764645
86.63790265520986 -153.8267834177341 0.20708611935909738
84.85944908754172 -160.447537489251 0.20207920658504186
84.859978308514 -160.38186584998218 0.19314857200708024
86.52895146498204 -153.9363913465876 0.20389371907891185
86.58455650254392 -153.88187980749854 0.20564740175448937
84.78393018850674 -160.45718687125455 0.19999077763141826
79.07887744116186 -158.0767744334365 0.20043132426267452
79.08919916380795 -158.05211499743086 0.19498093069622513
79.10198511990714 -157.89458255016592 0.15502759014801182
79.09045269093428 -157.8014083214715 0.12945622622441522
79.02806372274962 -157.89461981908073 0.147004383869888
78.57178819319097 -158.20107047103716 0.18612843921337974
76.25691927227311 -162.11725934390387 0.16234981717777663
75.57015187737001 -161.74927791312146 0.11248130382968013
75.29599231831979 -162.20947372816812 0.1831363360889755
75.36762616695775 -162.12466278005292 0.16986903763204708
75.35507406944097 -162.0516784596502 0.15928578451935138
75.2011693004762 -162.12936108799212 0.17233523763463698
75.24338751340724 -162.06140307325188 0.16190924139905505
75.31477595935034 -161.98113924273602 0.1492894541449754
75.15131450346747 -162.0644565309096 0.1633561275355655
75.01354080235488 -162.2252640085763 0.18867039289953103
74.99760060350833 -162.05464362308533 0.1637409333154496
75.06221738789259 -161.90528035019682 0.1410139142798097
75.12025290463701 -161.89044056372035 0.13811846592489974
78.74126124799588 -147.71721889133093 0.21255111096841817
74.92483920015653 -162.2324377563328 0.19089916850479738
74.92550588292242 -162.11640897403444 0.17374571499776081
78.66021627409211 -147.69050030449853 0.21071162244386277
74.55900479649776 -162.30654983233924 0.20682574588724156
74.25083212963753 -157.18120785018257 0.15225346535559048
73.6026925189344 -156.80246676179718 0.17116972984732093
73.63858094896817 -156.72013126448158 0.14511468144578243
73.1916912221375 -157.920130550488 0.15281105474115053
73.22364708998761 -157.8211093167957 0.12860659028562238
73.55992513926181 -156.6025064450489 0.1333496977706865
73.49222556795459 -156.5650670226123 0.13822253103704285
78.58975650139958 -134.31161548649004 0.15666267746716622
78.67190472513295 -134.18259965743118 0.16482808950962857
78.4421348217806 -134.39541530678545 0.14991045882787124
78.51675038585819 -134.34143011329638 0.15384181719362622
78.3717987495127 -134.39787983745066 0.14868052993327185
78.30331921895552 -134.3767233218481 0.14896998725693944
78.23768992560173 -134.31193665976843 0.1515131596578727
78.18131785604854 -134.10193517686037 0.16224670600184488
72.49632443035425 -153.52784759539702 0.11559526050102709
72.45277978071383 -153.3782740985587 0.12086640594067433
72.3700381423389 -153.36696062424787 0.14171832979046317
75.69264689902043 -133.15561769148073 0.2067159771239473
75.58603333340413 -133.23656077044552 0.20311608734350184
75.51083609250833 -133.21706985530355 0.20464702798429824
75.43401774883708 -133.1739433499253 0.20770827576828155
75.35625401239211 -133.12312324151333 0.21103676548666406
70.45799261236792 -147.71775852161946 0.13034662602091895
70.47480090816832 -147.61808955823537 0.13187811095833712
70.3258798358585 -147.86072894502607 0.14274215515445343
70.38667376731337 -147.80772574786843 0.13651150925270272
70.2814434799343 -147.8599876698126 0.1488271715841194
70.19522531046971 -147.86187189382437 0.16043494120052082
67.91928507802466 -149.51677768907174 0.12430754974726588
67.90478517787533 -149.44698670787736 0.12454827039370464
66.92693943078666 -145.07784346888153 0.21127765772536855
66.86828324078837 -145.08774786607358 0.2179912126989696
62.19647806494193 -152.883223690345 0.1260137368065095
62.11664317699426 -152.97506918508964 0.1411501394491581
62.139631781876346 -152.92724098857562 0.13485265144492686
62.16643516447895 -152.82812479941884 0.12358359697427646
62.081190675493644 -152.7657526502426 0.12515773111033024
61.879573237943276 -152.6869330873492 0.13515662694069763
61.870500537594445 -152.58075668646578 0.1264123997884412
61.67720163274187 -152.98005325602657 0.17891731774387676
61.77319032011825 -152.61959898868247 0.1381060945877255
59.6947654777131 -157.18964912151037 0.16819933893572103
59.73104658853426 -157.12481974127599 0.15943575405427213
59.68331276554225 -157.00978918763573 0.1495078366886875
58.95869946708159 -157.04796163746545 0.18956318885338086
58.261097204490014 -156.65569717331397 0.18269656728297523
58.29556973040603 -156.5539960383686 0.17027262620640626
58.26066264370283 -156.49267957880852 0.1655938406991242
58.104199534845684 -156.77210608258622 0.2027889485414076
58.200270247657926 -156.43509562720314 0.16255382386611839
58.169833253148305 -156.37390475629854 0.15768392003665443
58.12936743784867 -156.3105578383215 0.15306932873321477
60.34258187765001 -139.06866846923197 0.19354684005095724
60.401866359539554 -139.0141791044618 0.18744100816273002
59.37561273671797 -124.24211277432133 0.17222904821824958
59.45580624288961 -124.13830375570976 0.1673510898769759
51.73419098014015 -153.07116104408723 0.14811103889129296
59.25266598006597 -124.27180037291235 0.1793160716623543
51.635279395775044 -153.24130693891263 0.1695964024111838
108.06051815735128 -188.8911001908272 0.2829252218234857
102.61791305469563 -185.16705548506098 0.21530041419112655
102.01327310875247 -184.65639775106706 0.20090043746774744
101.87890662272926 -184.92076879985527 0.2224024151793158
101.80312844827841 -184.61526392661438 0.205210086622025
99.78479661499783 -161.67393406757733 0.2742172395310887
99.2992737110633 -161.26975507842064 0.22041646041014618
98.88344503358078 -161.22948483022282 0.20761491367493967
98.3179141355198 -154.3416812122056 0.21890814677895865
97.96907166746394 -155.15006174890823 0.28383704396866705
98.05796756592937 -154.7834529761202 0.25030807677142985
97.88067581917417 -155.22111258216412 0.286398313816735
97.9335029477173 -155.0389376055063 0.2701345380788853
97.98923847530835 -154.92987426327934 0.26179988814430444
97.99677613753093 -154.85641866652966 0.25450266937712174
98.0250404277122 -154.711063925914 0.24087825175100908
98.07454106495096 -154.4181476170784 0.21316390108213912
97.74096862988162 -155.36532300080353 0.2938386304239109
97.72214369386711 -155.29075374397235 0.28486472164845833
97.61673074039925 -155.4985971935006 0.3010413802539711
97.65004481653791 -155.43074565991068 0.2956763926668413
97.86805380331802 -154.63876259913556 0.2245374799669333
97.44540976999697 -155.63464361262376 0.3059480690944314
97.47734382162308 -155.56433024614225 0.30021991155657757
97.72281244728507 -154.56593284228663 0.20878738087075832
96.66343725732295 -155.7327248149908 0.27263386205769957
96.0730988806222 -149.1156213218708 0.2927212162082551
96.04306910180905 -148.98633910181795 0.2797489980839152
96.06364962970042 -148.90586664657408 0.27515967346975767
96.11791939501663 -148.74266664239036 0.2670160683639209
95.93436011520107 -149.08617426685825 0.2781639188618059
96.08156754465776 -148.82429502933624 0.27027003992173304
95.8164531082047 -148.7654439046715 0.24242403392810719
95.81357844865312 -148.69361881862622 0.23654857033025345
95.66532895612467 -148.6660597414321 0.22145118775481842
95.7139307442758 -148.5798958620867 0.21899462290548688
95.68252421486922 -148.51960378051416 0.21158794828965455
93.42882406144946 -140.2093667552723 0.29888239564910024
92.37034005791035 -140.93273107038203 0.2139419719856157
85.34497048171876 -160.38048409467507 0.21497583013282906
87.10735581653866 -153.93333548792614 0.2768493850654863
85.1897470240633 -160.40423871711624 0.21103661574248678
86.86841494789083 -153.70544732024265 0.22468414604563747
86.9428903655612 -153.66325519195718 0.2301053203080312
86.78774921115007 -153.7463828062749 0.21836113292186532
86.70892085546944 -153.78685621634204 0.2122560565584517
85.3268018902059 -158.3517749585556 0.2803844134193034
85.3123220248486 -158.25902916306484 0.2661682763652291
85.33756298958241 -158.217081047377 0.262432226780114
85.2619781864726 -158.28858090361146 0.2660813540473135
85.01763165930686 -158.28345925840426 0.24490484600290796
84.93153184090338 -158.3125848544642 0.24184506945875928
84.75766361231915 -158.29916535092448 0.22548572830852964
84.84465243243932 -158.305877477545 0.23366822465328307
84.55411273768092 -158.70787911512267 0.26777477139832007
84.60518619739946 -158.66546556823565 0.265721760150728
84.65201658245945 -158.43374755287064 0.2360029968228472
84.68381765407716 -158.31485892523133 0.22160144805111992
84.42526572974026 -158.9504397985637 0.29321623607057923
84.43167881399954 -158.88351003095286 0.28379477730107383
84.4719708148852 -158.7840013286802 0.2723269976898901
84.61788546106824 -158.36737426294414 0.223662444635774
84.62609201918504 -158.33769096654908 0.22009274722456773
73.58493021402501 -182.8486513851556 0.24467668534707077
73.49447276981138 -182.7797814194128 0.2414446147570204
73.39733115906421 -182.7782504305944 0.2405433242592816
85.1449276371447 -137.06062399631963 0.306570585507973
85.05904720575334 -137.00983619183089 0.30256006566678706
84.95484917189447 -137.00066936475648 0.29566143489297936
84.86496971751697 -136.9568383973244 0.29119667827064366
84.81889352796418 -136.8940643002313 0.29064744272199694
79.15778876219392 -158.29958449283703 0.26764018283180313
79.13297490436159 -158.25939360364265 0.25442441698463125
79.01712852645359 -157.87946161469213 0.2923181127894878
78.76578198246435 -158.54976206745118 0.29870321047805115
78.78059697550975 -158.39081587482494 0.2563062387678754
78.6403713628793 -158.44820750558856 0.2601963380667589
78.7242358172114 -158.31355280956262 0.2301278743039714
78.60735249365054 -158.4490028076819 0.2577717177723986
78.61687624586949 -158.32853470570595 0.22516326728519864
78.63869343832432 -157.9834297586891 0.27910648370671653
81.20087088265377 -146.64923760360642 0.29794614583289736
80.30127574549262 -148.35653824820656 0.28656557823865314
80.28773586670692 -148.33070501907494 0.28800660288639834
76.6170151565883 -161.44276348935705 0.3071894425462862
76.5931434777891 -161.4419639753967 0.30718560851045384
78.8398139494909 -147.6873082725585 0.22452973577986035
78.87936113757875 -147.63939712887225 0.23474008610185026
78.79509174733724 -147.70705265123084 0.21812541358658843
75.17427178835456 -161.29912517934105 0.2982983400277648
75.14299989821781 -161.22180450390408 0.2849353403750663
75.10340382323112 -161.0925735909011 0.26233111054715685
75.09570892992599 -160.9847184192308 0.2428855893603834
78.59961435207393 -147.6286074039753 0.21587330606517918
78.58647477016407 -147.58037027313657 0.22229213766644595
74.99088135626599 -161.14593363944812 0.2746134941716476
75.04612113920585 -161.03457229524918 0.25305128121827036
74.72324735860269 -161.2788955072909 0.3052915811181256
74.78316834737198 -161.2107774418812 0.2914564529189363
74.23235536884982 -162.35558076483366 0.21908983966544904
74.03763452406965 -162.346535973401 0.22105595791431054
74.02215476480875 -162.30736087617584 0.21569728028495794
73.76756637393598 -162.73298281032663 0.2821632415065327
73.62370546379292 -156.7717882508485 0.3088421880747201
73.62642394488388 -156.6962000680538 0.28896127723097687
73.56811145926655 -156.60550138226182 0.27931577937048235
73.49231151235128 -156.56476654578813 0.2865618285544369
73.47442803219444 -156.4503950122287 0.2632492669958253
70.39093770281218 -144.82632391375978 0.27693693377539286
70.30752844028328 -144.8081680933916 0.2869360659376823
70.19816707682975 -144.7526667961002 0.3018666366721261
70.13880266662376 -144.73792415044514 0.3090124287711735
66.72754196637652 -145.31525497419415 0.233211799524345
66.79267458396993 -145.2467379663628 0.22591165359168475
68.83619890120569 -137.31805879908057 0.24232116633290568
68.8701543756472 -137.23848063557236 0.24338747654304216
66.66131837821045 -145.38300110933838 0.240741291566555
66.76646577237511 -145.09159668195022 0.22952706355605867
68.73405091056671 -137.33520240376566 0.248357565630428
61.007620378595746 -143.92207438651639 0.25960241295540665
60.82081816223894 -143.63443594671998 0.26845735929481696
57.23281449383404 -156.97770866589082 0.26786409375273723
60.35042558302483 -142.93224704636575 0.29187152012336814
60.23557932799837 -143.02249676546742 0.30623438661791824
60.34810663990115 -142.80185277737172 0.2879633017198826
55.62613165871495 -147.39438145670155 0.2268610438502936
55.37267752422396 -147.22670732721525 0.23490732690554794
55.03806366341063 -147.86039331754964 0.30943474992522724
55.04772829965182 -147.7806090024894 0.30255984518208745
55.14911370216062 -147.7296370671226 0.2905177540829629
57.863059425632684 -119.38795746437025 0.27805725428458583
57.7539290854925 -119.46996593989783 0.28368323599251055
58.194373842189705 -117.90656192021129 0.26752649375920035
58.25580549893238 -117.7117232381299 0.26563320202528784
58.44771214095488 -116.12424375482021 0.2665261528694789
58.29033731022813 -116.13790924138814 0.27431923904019095
58.17495847088444 -116.2384429738278 0.2797807968423367
57.90313652186228 -116.01991865672035 0.2952953047203748
57.41337931658012 -115.70518460127002 0.32325419951587486
39.85424116521181 -148.6151701511631 0.3189715877720065
108.42158346474754 -190.52129733086696 0.37956486420333735
108.41546976954524 -190.26855648344983 0.36266987959900976
108.51581234592842 -190.1317463549957 0.3506705845858684
108.13930560650579 -190.43861009527356 0.3829741051208013
107.97749856301456 -190.4994432060679 0.39264347723115844
108.01370665949663 -189.32330384740138 0.31324095745850045
108.1360315433098 -189.21624250670425 0.3024238507967334
102.17396251528871 -162.31878114874797 0.3926993777105734
97.73219049871855 -156.01407826117338 0.36270713844441427
97.68177628376621 -155.93777461832315 0.3516825483327739
97.52982527460796 -156.14278622836412 0.36527272491800633
97.60119542638621 -155.85999472401656 0.3387983326397548
97.55077001072719 -155.71229961409938 0.32014262056003906
97.17708616545404 -156.6820224424227 0.4042432955786679
97.33243217514544 -156.05794674305977 0.3450746119384045
97.11764262549806 -156.6010083918653 0.39206955700679935
97.05768865862345 -156.31784976611007 0.3578512402277314
96.95196583387506 -156.51644729493935 0.37356295244312654
96.95474905716715 -156.44963327571224 0.366440004287097
97.00730037218699 -156.38421062820797 0.36223970161228425
96.8950341155394 -156.23355884821618 0.3395934877806479
96.89915472209746 -156.16365587424235 0.33226020614808505
96.26011651592702 -156.65789576246218 0.3504308031013186
94.75607372092915 -139.37886961335553 0.4074432806606285
94.75346424085926 -139.168579796448 0.40206309025496134
94.02453469031023 -141.4590827195321 0.3911678682342521
94.02403201317212 -141.3658361152857 0.3883677315653513
94.07009436958555 -141.23530744242046 0.3892081731230619
94.0399093842087 -141.1632511618025 0.38409293017553336
94.09420025092062 -141.02464620891223 0.3855926493896442
94.38883980098595 -139.9991201096916 0.38716044233783053
94.09451764041049 -140.92763243842154 0.38289603783188264
94.07872554983084 -140.84285547405747 0.378957116071458
94.22689410877095 -140.22989521217087 0.37720583336502034
94.05015990311202 -139.56613113340575 0.3436102538775092
93.90485756310851 -139.99849754522862 0.33989207725640025
94.08537720792397 -139.32060473656946 0.3413231043405307
85.52030056544493 -159.05038537192976 0.3961979712818253
84.36406710651757 -159.55033084231945 0.3794105540933659
84.27218555842319 -159.65841151654317 0.38932437938291575
84.30230292897058 -159.5845693303077 0.38006223078428203
82.99616000896992 -158.36585848202034 0.3533317860392906
86.1694773144843 -137.35350673461778 0.3728995698344
86.09876960549872 -137.3422632025362 0.36772481592455475
86.02685775148248 -137.2615909356329 0.3649437304593337
86.03091359840349 -135.95533422165545 0.41284112818635244
85.93241775254346 -135.99334530150202 0.40418004547721886
85.86471809018413 -135.96673415288546 0.4002556664140744
85.27444723572297 -137.02441286815326 0.31724887955657155
79.11948832420686 -158.15575366070075 0.38697352214849157
78.98609023756832 -158.25461974778128 0.40060846727523214
79.06089834524873 -158.03728362913435 0.3445561355237181
78.84653435714701 -158.62629676092783 0.32663748499527556
78.8449093891578 -158.58642923358903 0.31559556071336625
78.9332252632147 -158.2078881101418 0.38033531190557035
78.96025717759181 -158.08036846378192 0.3450919095651739
79.04206314284015 -157.98164055276072 0.32565084214751816
78.88429193124254 -158.1675656521493 0.3624808481909494
78.89435754827942 -158.04154708326348 0.32558106889920757
78.87391198195843 -158.00715288531865 0.31286126031485995
78.80141196427115 -157.72236671245471 0.3630493132533652
78.76050535121628 -157.83371425926603 0.39446534761251284
76.9598561924788 -161.7281699408426 0.35955463537842514
76.93429885167039 -161.70691539499714 0.35567382914083767
76.63318403621075 -161.71671323037603 0.3577552354363729
76.69723085173116 -161.6315918730451 0.3418678126491097
76.7586581390943 -161.59124370878328 0.3342796751637507
76.5013756989741 -161.85368029239635 0.38341769057761943
76.45033202499029 -161.8570588030643 0.38434919912230137
76.45304588666123 -161.80212754739466 0.3741316154573793
76.566854784967 -161.47843191586804 0.3139378959415464
75.6494313461397 -161.77897099210432 0.37766346173621534
75.63602974623147 -161.62625130400403 0.34988504348058336
75.57501274873043 -161.53787780817314 0.3345979382645421
75.63157021134137 -161.5038265302019 0.3274427587566848
75.54106640843509 -161.44779840413634 0.3185981142777996
74.38030696336166 -163.31021455828545 0.3566335836709378
74.30876854497306 -163.27056501987607 0.351802551888065
74.28290061129215 -163.13734829478707 0.3326560180089484
73.19827956510525 -157.19452900281212 0.33987759616579916
72.89161512672007 -157.88077055553194 0.3703190866606678
72.90761887409428 -157.79847996388415 0.3493674849761774
72.7565001640958 -157.97019620530193 0.4106081986395409
72.85205773711229 -157.86757899044414 0.3731965170498466
72.88567170234569 -157.76955427816407 0.3461465439090825
68.98185446731678 -171.97443929519295 0.36782126282886174
69.00616533475244 -171.76003791949657 0.35076155107538654
68.96219089853155 -171.61939848683718 0.3392918489363681
72.79632649274978 -156.07471754276452 0.34571079541346683
72.628275847332 -156.08685176542224 0.3902154632568233
72.46986620128092 -155.84042903581695 0.3838423542352729
71.22817154212743 -147.5383879313928 0.3607237411510704
68.41162853469399 -149.36622170614788 0.4063187259476524
66.08016511106325 -149.68494202542863 0.3869969148881829
66.11073873936421 -149.60825526729923 0.3797017569887162
65.8409812712256 -149.43806470864317 0.41185403543995847
65.87930656679981 -143.85818684279116 0.3367414585362183
65.82353099253268 -143.91188251281432 0.34263173393611135
65.83072706186756 -143.7365169559651 0.342875243342428
65.27602932618225 -144.66151660324888 0.40423964231684706
65.37496396530659 -144.36242785709885 0.3926226800749082
65.29048660070974 -144.3938754289565 0.4024566143589756
65.19335921397246 -144.41478830107482 0.4139753983627221
58.59771236903421 -141.45693951174292 0.4175015619555926
58.571156364181384 -141.34647302843808 0.4167802129976419
58.64642632315253 -141.21155840145877 0.40522247565926195
58.48769086234793 -141.192425041848 0.4200039976142378
53.90652878890448 -156.13862092601633 0.34616632173504813
53.739200161727155 -156.47276615783142 0.3891269934878847
53.74949935050084 -156.0707247036798 0.34700302993924037
53.402202123490284 -156.58209002917374 0.4173021826656724
53.55079437994816 -156.0041568295471 0.3500983447761534
52.92951904117122 -155.95879347713083 0.37649674164779534
54.93407158390633 -148.4070166471514 0.3598028130120905
54.9848548840401 -148.34354729058578 0.3507608115678231
50.80967547295818 -155.26599195959943 0.4120048409974564
50.78501374970368 -155.1760725079801 0.4041417526286011
50.877336606929646 -154.81972817517817 0.36363395989773895
50.91013934892888 -154.72773795491926 0.3527666286730158
50.91932949270216 -154.63989391059667 0.3435095956140841
50.66282662262648 -155.0885276778772 0.4014314309793219
50.65285369033111 -155.0022857629663 0.3932337263272683
50.54729001086659 -154.91640568764382 0.389884663293494
50.69092208638375 -154.45826026527632 0.3368143783385995
50.71702894612886 -154.36573336446983 0.3262887621102981
56.748319151266564 -115.39716422185728 0.3611115340369251
55.901007971842546 -114.43141441900762 0.4129846733325824
35.17955015180444 -146.22584870519395 0.33150268400485783
107.85832659842475 -190.87026759359145 0.4208868995677446
107.87290543498908 -190.63168182001837 0.40436255082268535
