ply
format ascii 1.0
element vertex 821
property float x
property float y
property float z
end_header
-7.944428803930762 -151.1965132993967 -7.959869263030165
-8.109857443440664 -150.25871086054784 -8.003283238848123
-8.111338671202475 -150.12538309640485 -7.912436302271349
-8.199363791623203 -150.08536244004705 -7.944587908165023
-8.174469584965996 -149.91982516969958 -7.925442702325894
-8.291439299763228 -149.55154140584833 -7.971842940499151
-8.608406619673133 -147.88487443926493 -7.88164730895614
-8.395419020188243 -149.61868851472244 -7.9844223919183674
-8.371586300585996 -149.45619012625318 -7.9813496109956725
-8.695839140143198 -147.95668895098837 -7.878829743296697
-8.74548151108156 -147.79987472202617 -7.884468479330843
-8.103567826665252 -151.254660743061 -7.965038551820128
-8.480647623625929 -149.49043276731996 -7.9833124633128465
-8.800666204753437 -147.87102135745047 -7.902152293257397
-8.505811033443313 -150.06176208203644 -7.99337488161253
-8.340302378020734 -151.2763648551941 -7.971460566938796
-8.614596842424874 -150.0866497334428 -7.995174651531365
-8.970183533483674 -148.0665441280715 -7.948880145127033
-9.035208062007012 -147.96204552860593 -7.871280684958461
-8.895100927770804 -148.97319409180824 -7.9797306819144485
-9.196590216514435 -148.11013623672568 -7.962560553035703
-9.271650551120564 -148.21708474877866 -7.935200300452436
-9.238349401787904 -148.13062381342425 -7.94493191007549
-9.768246016269588 -147.2063213999458 -7.8784370227361915
-8.952796320599058 -151.92631495178006 -7.968782437286686
-9.041769201485096 -151.38776720346274 -7.967042284205707
-9.079481263643531 -151.27102655124983 -7.948867274447649
-9.835378611636907 -147.43228036052886 -7.879061265781958
-9.786948023208428 -147.34708674307714 -7.8803608656405135
-8.985573649228659 -151.92110223594034 -7.964846680690387
-9.006805553346108 -151.8850639584064 -7.959858039468355
-9.078655656457679 -151.78568325063998 -7.980323522282765
-9.112899681980862 -151.65487617866333 -8.008342958470093
-9.114675715379702 -151.3611220003524 -7.972423957053844
-9.118094568852293 -151.28449280773808 -7.955290888914818
-9.918859443318624 -147.42694676252722 -7.916062312759005
-9.938068021681072 -147.38098955658174 -7.9156627549780545
-9.106761891503059 -151.84290012621042 -7.9631028733714935
-9.136330892726116 -151.7876806870745 -7.975723274150328
-9.157751069263373 -151.6843882813771 -7.992716273151843
-9.181446385625925 -151.6250927045525 -8.006030701478164
-9.21969117994799 -151.3676246453302 -7.993581626473952
-9.216540948631907 -151.24681918001943 -7.978445898948424
-9.246200428899929 -151.23578146552225 -7.974303677960826
-9.997901462114857 -147.72506710912 -7.868448488647318
-9.992176080159624 -147.49743105603503 -7.932731547439847
-9.234757200096665 -151.69647403046716 -7.979043140935765
-10.256956856383166 -146.77233135851233 -7.923339219401582
-10.329054117501236 -146.575085983264 -7.883756238545114
-10.324812047659137 -146.8835775002801 -7.912732164807816
-10.307761642709048 -146.79940579221847 -7.921307997784613
-10.379711656462934 -146.70249010510375 -7.873127344761939
-10.364257226122337 -146.60831594791168 -7.87279791391477
-10.510875830115141 -147.03861690565822 -7.890443120954247
-10.62435565609087 -147.2857633913809 -7.906643349723492
-13.993689129609516 -153.64732492050788 -7.982778356377853
-14.104817268839003 -153.0137076078923 -7.919460934856907
-14.348288567664966 -151.78601456458077 -7.924523342413615
-14.373306389095092 -151.75194575686228 -7.925103559308341
-14.382275506433146 -151.6258568118327 -7.94118119122439
-14.491389306556822 -151.1363010967133 -7.8876982532260955
-14.521210307118661 -151.05374420951955 -7.908707463067584
-14.568358353303667 -150.83170525226362 -7.9354165739983396
-14.954899350624125 -148.86307640747575 -7.831079268826646
-14.098011789469602 -153.76536889094962 -7.940461372404133
-14.072385517694402 -153.6936244766356 -7.928559666156629
-14.120596140147521 -153.61953505413803 -7.990802072290213
-14.187582433657086 -153.17381762479664 -7.941694761758007
-14.16599945207817 -153.10756516435924 -7.939934255562794
-14.144702828350741 -153.04396475810694 -7.943637234551203
-14.27846004345582 -152.51854882648158 -7.97117789737267
-14.434650927083732 -151.91098382185254 -7.895743435577203
-14.434048398280256 -151.84924928473671 -7.917716617121197
-14.438566934151643 -151.73809551932553 -7.933853048560904
-14.487055467481893 -151.59819702967684 -7.920199803407569
-14.56305729041251 -151.37103370877713 -7.909561345088766
-14.58824447347137 -151.1473205256797 -7.917786383429395
-14.563239105107513 -151.04243614694045 -7.87275368679248
-14.633262616039499 -150.8115158842148 -7.932826628604197
-14.634141857811148 -150.79934548226626 -7.938580661480655
-15.064815312099054 -148.90364391829098 -7.864741136088954
-15.064949138360774 -148.80388269462438 -7.868474397649965
-14.116226636245592 -153.9738387463808 -7.991444315106539
-14.118721064851755 -153.9614520515699 -7.991361535692874
-14.10672908630015 -153.76824226000403 -7.932099594909768
-14.164447456693228 -153.73376201122207 -7.92954069435403
-14.168321749597741 -153.62872378961004 -7.955748423571898
-14.199238694582279 -153.5387980588509 -7.964428068768549
-14.26527553244663 -153.24398605278918 -7.9592511446541385
-14.264294146452029 -153.13661650202832 -7.938577194417983
-14.342659225935567 -152.90993567632015 -7.967803060290121
-14.395548307064477 -152.80175092855436 -7.909086921463968
-14.377355676141224 -152.74745159356465 -7.921567515578718
-14.395274155170874 -152.64624492364777 -7.934615208525964
-14.380356138887109 -152.5403413133401 -7.949479939327052
-14.470333726759778 -152.22637909597165 -7.931341281444548
-14.523065969999186 -151.9355358301515 -7.921242322051608
-14.532694038199175 -151.70003300439342 -7.965361094804419
-14.607158827460212 -151.5868658002888 -7.8756330111596995
-14.624921666147173 -151.47095783944587 -7.917126269835535
-14.63756865810984 -151.37205064766152 -7.920483240952963
-14.674331161211587 -151.1680917286573 -7.944699204123083
-14.711759824963702 -151.10733848469965 -7.947438703670747
-14.790473181649457 -150.70728161506244 -7.908500079756081
-15.094720260858324 -148.88395479244627 -7.873112648525066
-15.1512278597771 -148.7767158299415 -7.891401722865745
-15.187464026820763 -148.74860545506263 -7.867659329385687
-13.945839759226883 -155.49141261668453 -7.972858168866674
-14.193137825423074 -154.28529714598918 -7.914121069005226
-14.212149742380742 -154.1143096795385 -7.9702302722276075
-14.193347049633372 -154.0776109291573 -7.977079503596022
-14.271416859254492 -153.75598605261672 -7.9260221087693505
-14.264274688471806 -153.65018628153794 -7.941596390385401
-14.300298501540931 -153.58025132981575 -7.9485150928894175
-14.410033979690557 -152.95218721049147 -7.952369325929196
-14.432190310823662 -152.8224553455601 -7.9318506811613085
-14.44044477819348 -152.74066448881024 -7.9222366854890796
-14.45558185869944 -152.65375123555035 -7.9051193556575265
-14.538322518593699 -152.31484177298574 -7.959284406654204
-14.567114751166825 -152.26348307176826 -7.933556755954001
-14.636367804043594 -151.99914834382656 -7.962451468653208
-14.69517555008068 -151.607043039787 -7.885692995453505
-14.704274486649911 -151.48210344316013 -7.900061493168973
-14.732736751527463 -151.389730546803 -7.877578757865279
-14.75976696866502 -151.1738741945989 -7.914903683585255
-14.869637208556089 -150.70058331946865 -7.901766199096366
-14.92540289565881 -150.64889186271157 -7.889811041557341
-14.93023322748805 -150.55328926966556 -7.852560713572224
-15.060424006846217 -149.68337515906288 -7.837372926979131
-15.096034801254401 -149.62666804724833 -7.835370061882814
-15.272606750072704 -148.67905926677724 -7.826741659410748
-14.019674118993413 -155.6088115225764 -7.993200901950062
-13.996212657441314 -155.50959716169152 -7.984690330640851
-14.244823880894065 -154.42692430726277 -7.9648348550088075
-14.257275330863079 -154.3433582262385 -7.917153687266843
-14.295084193033283 -154.2400456150312 -7.9689625871658105
-14.229800616575115 -154.1449980302243 -7.976031696501023
-14.328541258785748 -153.83763645151336 -7.93124518796945
-14.345974829074928 -153.7511013907113 -7.9314209018418165
-14.387505546014824 -153.68461678973208 -7.953751176639964
-14.474292255313255 -153.43108599261956 -7.981403829998761
-14.442831306929238 -153.41058674636793 -7.917411666122083
-14.518400879312587 -153.05457689235797 -7.901932713493593
-14.497647078248612 -152.86636262781573 -7.928993258974024
-14.595567980285043 -152.64800424767722 -7.916682679703188
-14.625407673358234 -152.34188467645723 -7.937337331692668
-14.631380103244634 -152.32952924583245 -7.924317019544744
-14.689398429383091 -152.0068041446687 -7.9480348087617205
-14.811646471829022 -151.61395718845748 -7.879310765282148
-14.805089665364543 -151.51880505537284 -7.880084400339222
-14.819860583743706 -151.3349010558457 -7.86743443275622
-14.94868289254346 -150.70304288845665 -7.90436478704437
-15.009483799407697 -150.60526312690953 -7.877159653795023
-14.99527129233056 -150.56392693027607 -7.857988675808688
-14.068832470933216 -155.70559737594607 -7.959262193643235
-14.344709226774897 -154.54103088087638 -7.945832545049673
-14.315728701460163 -154.46686675528926 -7.944732917309227
-14.334373542281716 -154.3569318230213 -7.9361074470504835
-14.311222276512462 -154.29412705337802 -7.94736680073699
-14.467279522065098 -153.84347769348767 -7.901780095891199
-14.448923390946455 -153.77247022440088 -7.9225924028799435
-14.46680335122205 -153.68473822308405 -7.941989653378672
-14.493987915342446 -153.55853523292606 -7.981086737098906
-14.503983092439443 -153.45142255134311 -7.954093173762628
-14.72662392785394 -152.38158813743215 -7.920179483837622
-15.107055344368383 -150.6023041805608 -7.894040945300252
-15.302755839631068 -149.74868538174528 -7.833914065956334
-14.140645657702098 -155.73458767513895 -7.974149582588751
-14.370353915223703 -154.55670917731925 -7.944834872723938
-14.385554050425771 -154.48735243036498 -7.939791531170442
-14.394856443930017 -154.41665480482678 -7.957637507339231
-14.537865798880349 -153.8810217500566 -7.9090076363931265
-14.564426601762554 -153.77305570712895 -7.910773868987943
-14.56170400414163 -153.6788697926263 -7.956700447809897
-15.364625049108112 -149.8816417111745 -7.870230272573099
-15.366056768472365 -149.76943887864206 -7.883196727687477
-15.413951485908271 -149.67438918947292 -7.853485546045776
-15.484108524372495 -149.27340806643343 -7.832212431104158
-15.47295808217434 -149.16572155436927 -7.8808893384306735
-15.508880313723072 -149.1055812709865 -7.848074483084659
-14.235548962622328 -155.98511388157831 -7.968397201165887
-14.591908589729542 -153.93390599167313 -7.909061198789272
-14.657501221922889 -153.8035159409442 -7.93461397746919
-14.621325474645838 -153.73120506860124 -7.950037690474436
-15.442711603513933 -149.88980913813955 -7.8617081127484525
-15.434683322005526 -149.8070630092347 -7.913629306372571
-15.47592308940331 -149.72409263096324 -7.872949261174433
-15.572110392508607 -149.18653811243087 -7.872648842111319
-15.568006370212002 -149.11450133646002 -7.881268611869734
-15.618919308080962 -149.02108597475507 -7.852221450120462
-14.309401850628486 -156.13925260045147 -7.964749872615074
-14.747450698693354 -153.81656750968347 -7.9457185064459805
-15.553031309120746 -149.82554589794844 -7.882561415305833
-15.541381558281083 -149.67198340853574 -7.890647534916842
-15.577702250814209 -149.61154733589248 -7.918170756305213
-15.654060047495635 -149.56571546211708 -7.915573957320256
-15.693725971371544 -149.1994100580231 -7.914288510855084
-15.702058611348438 -149.17780176780008 -7.899362025853769
-15.772220175721955 -148.85688514923592 -7.908012320546973
-15.588825396987042 -150.04714335743236 -7.865732492145059
-15.73484332967655 -149.5341407591204 -7.8977428204644795
-15.785905339189679 -149.13935316773535 -7.871329268132769
-15.889836144400348 -148.79498720675247 -7.869970236582343
-15.721481611942991 -150.02280107165598 -7.851814186369546
-15.748455944543984 -149.99119850974645 -7.912274322557663
-15.82901732908627 -149.98292941983678 -7.901516632905356
-16.062271863591526 -148.6815501626293 -7.854731236497659
-15.99733945940877 -149.9287836678311 -7.9203343329377915
-7.388805871987883 -150.778823864655 -7.901926242467503
-7.402743097729124 -150.73379054422415 -7.919245598664386
-7.426260967572405 -150.61486914101533 -7.917514698448062
-7.546924555530441 -150.22252955366673 -7.895452685774351
-7.508014565920282 -150.66253879573296 -7.903480294552013
-7.546059753617704 -150.51220120953406 -7.849657865542944
-7.554840977102729 -150.46779627270783 -7.849011572911862
-7.624438876284448 -150.36142912940795 -7.858284808552203
-7.633298426011394 -150.26146753692834 -7.899193885625558
-7.691515085775402 -149.9424974740962 -7.877178650239705
-7.677747600403854 -149.8042586227158 -7.890988075872989
-7.628757016085027 -150.5614777849448 -7.896901465718592
-7.6686995311009705 -150.4698063943102 -7.8543292171177335
-7.714204349363102 -150.37396676745473 -7.870870603185285
-7.741174359710042 -150.28627454885438 -7.903360667719862
-7.773690244449735 -149.98699341448312 -7.881277312429155
-7.787679405553677 -150.5602935222197 -7.89445343681543
-7.7840456001649 -150.36759727517153 -7.89006515785729
-7.798609753706392 -150.3174830960964 -7.905961296033114
-7.898107874275688 -150.02517776355097 -7.9031137163501235
-8.393534610274319 -147.65019242034103 -7.81299909577739
-7.838921047664952 -150.4661902690378 -7.862122369369647
-7.898914393827509 -150.40913699789238 -7.895339009326326
-7.920991036062163 -150.12028749259673 -7.905904946263089
-8.106581123988978 -150.46871055327787 -7.889533070411086
-8.591336653815356 -147.86033099017016 -7.865386966409008
-8.590252103881973 -147.8441487781339 -7.849843277601248
-8.65993340224253 -147.69206144573877 -7.864277585479923
-8.713154627474626 -147.77472467841974 -7.86811976798886
-8.828578509268858 -147.40978400653736 -7.7764245336041204
-8.81591427304166 -147.92783991986644 -7.833031750368019
-8.813958880493143 -147.86947607987383 -7.838817377387537
-8.900564829753446 -147.43162606300638 -7.7883367460893655
-8.895453643530951 -148.03709320244332 -7.823336733990159
-8.883201995803512 -147.9610354259646 -7.829138447999037
-8.870791503669126 -147.8866987375705 -7.834855675542868
-8.982106500684875 -147.55382770207984 -7.792866652877606
-9.023531112926939 -148.06847352245333 -7.807944426859759
-8.978569821435254 -147.97996062841503 -7.833178597424499
-9.03163129834245 -147.8934548820078 -7.856332239343615
-9.024901770079456 -147.5906038077561 -7.821138652317323
-9.071900680613904 -148.08373638920753 -7.808273870610692
-9.091077946807252 -148.02257734441463 -7.803051422072652
-9.174029799207945 -148.1258409431623 -7.790870034815562
-9.1481206746307 -148.01597375018423 -7.852017215607808
-9.255128617610074 -148.2143165891109 -7.794732903018842
-9.228009632718924 -148.1544430194695 -7.787082657161751
-9.072540218273264 -151.22508622490622 -7.860677721048168
-9.098197981385162 -151.2139523703372 -7.857302087712781
-9.134610896611303 -151.19996281853585 -7.8663321666581965
-10.000235564931993 -147.74607910915034 -7.807177469201191
-9.965466218334871 -147.68719108475366 -7.795456605078252
-10.020234456034682 -147.58195646754368 -7.778966310977223
-10.060829466977808 -147.86476353090467 -7.782506583259676
-10.015766522514184 -147.76577774077043 -7.818691075921098
-10.057083533053042 -147.67628889652676 -7.8082387339883175
-10.056062657830072 -147.59727685205755 -7.76995497349845
-10.161189420985846 -147.90742446610966 -7.81108730137995
-10.118596663966498 -147.81236079092488 -7.828520784833298
-10.178323247326581 -147.94927146352612 -7.816249189487982
-14.408823651625012 -151.1285828013031 -7.7778055180149845
-14.431906321315935 -151.05730944068912 -7.784897184225643
-14.358545651074978 -151.8956918307753 -7.780999489340941
-14.38913579371962 -151.79528827304716 -7.81237602221012
-14.39741891447939 -151.76699112869804 -7.839827462070661
-14.42844887131356 -151.6000611404979 -7.811070879875943
-14.441084350680232 -151.44479124652844 -7.77337233535603
-14.492536600498699 -151.1306133943997 -7.803376654722501
-14.494770048629434 -151.05161701627935 -7.80788663211396
-14.046798645341745 -153.9648846352288 -7.812913291075557
-14.076396727466818 -153.6904237010643 -7.850639434080653
-14.06477040408422 -153.63310533398007 -7.857632390999365
-14.17578209277822 -153.16920195763544 -7.8843992446390185
-14.177175061275687 -153.06095143057118 -7.884961660939806
-14.392827830454452 -151.91708387004567 -7.782897435450856
-14.427129128908108 -151.80786976600376 -7.802668089007331
-14.452772119591199 -151.7726852967352 -7.841106969595126
-14.45837783320251 -151.6044583167425 -7.8084055622428075
-14.4530554685164 -151.57988100073655 -7.809139480762238
-14.522433542979261 -151.43559437808133 -7.807414550732962
-14.54813225444349 -151.36480247333634 -7.833229337136278
-14.563343721178603 -151.13256679404955 -7.824199672246874
-14.574440148451675 -151.04337765189456 -7.812828607324347
-14.781009514245465 -150.30710907931626 -7.797213503498582
-15.003522038880824 -148.94442526180256 -7.810657748872481
-15.065034061802915 -148.91299648416293 -7.806060226557573
-15.049103292024261 -148.80627967039362 -7.810501648732876
-14.081959681781743 -154.1073115214401 -7.813980407237791
-14.096767140640193 -154.00030206194867 -7.810574848507997
-14.12736275226263 -153.79363598783738 -7.877831666124097
-14.161220780825087 -153.71900821327924 -7.808398484799594
-14.162484105730735 -153.66702175629783 -7.800090395014782
-14.290533150357078 -153.28804440440788 -7.852424889281435
-14.270053212351748 -153.25076653874623 -7.846330798741843
-14.274790921859932 -153.1380499218432 -7.858689508114604
-14.353998832620434 -152.9467018019425 -7.814833969458908
-14.348962100096784 -152.75330578092377 -7.846501837921047
-14.38826171227914 -152.67840526712672 -7.858983869678373
-14.496886920813479 -151.80710735580828 -7.779857489959844
-14.52753893613778 -151.7948766361281 -7.79466879978623
-14.604552026433756 -151.55824574888433 -7.831714447602532
-14.612005331466412 -151.4768233424869 -7.810149198267301
-14.61664638352428 -151.374537654766 -7.835062810550696
-14.630818845093764 -151.14661112280936 -7.850395539426339
-14.663266968372763 -151.0409467222607 -7.808214912496008
-14.83756815686733 -150.28970944496513 -7.797411251966452
-14.897488603738687 -150.22655198094697 -7.785058467855648
-15.106932746442206 -148.88096809563007 -7.797298807069808
-15.150606162775558 -148.8254436371344 -7.74643305137183
-13.953061575029553 -155.42083105680936 -7.863864070045565
-14.19284999708611 -154.22459252356725 -7.81121677203833
-14.165171793964443 -154.13661018125958 -7.818461168308253
-14.195213059724178 -153.81043934997984 -7.819253138028628
-14.23049137356459 -153.76971767960876 -7.80467941012072
-14.332101170084485 -153.3122282957064 -7.831082041670688
-14.38349829306403 -153.22568758670113 -7.842223837242423
-14.400662844737365 -152.9661605378022 -7.854509169705711
-14.4441007359348 -152.8230846531482 -7.8525550814844
-14.43110080580522 -152.74605016562822 -7.818358090525763
-14.440950536629765 -152.69630979256266 -7.840201332974538
-14.692938230354406 -151.54138447384486 -7.82505589739408
-14.72780190360704 -151.4806191585269 -7.82883437543908
-14.73141213374953 -151.43470254788156 -7.847493174410449
-14.890668967491695 -150.55959207003966 -7.818393961484516
-14.986329941031 -150.219012480349 -7.801815583103645
-15.093174788394652 -149.76100489453435 -7.834644341294068
-15.208097659347679 -149.20142615236614 -7.732428787815182
-15.199841850003892 -148.82132275587588 -7.738790111126851
-14.003346323267543 -155.60263317098867 -7.877086661095061
-14.023109780307044 -155.5445420167881 -7.842148534132044
-14.24264294086782 -154.30430830162516 -7.8103044309377685
-14.224544686541376 -154.26546567287866 -7.812206483059849
-14.352301160571308 -153.7587679590288 -7.835614902071913
-14.350988444569627 -153.70329780591035 -7.853366389553
-14.425945896560433 -153.39403179710638 -7.804219126543501
-14.444746303442514 -153.2793980374945 -7.819356184177649
-14.494457883255178 -153.04072629065377 -7.858673166025515
-14.466593034575482 -153.01241102800168 -7.841997905206351
-14.805738203043875 -151.51446978338393 -7.8103318015623255
-14.797608716249803 -151.33456428375897 -7.856226677917687
-15.02560330275233 -150.54841474544702 -7.827422609836255
-15.118020093975545 -150.19720243959603 -7.791569112597138
-15.134407131170075 -149.74312177870667 -7.831998864349598
-15.20044316426863 -149.63303363579092 -7.828318434325586
-15.265282590266379 -149.1785527052965 -7.736969333811804
-15.354264178810567 -148.6504035309508 -7.721858374731885
-15.429403992571487 -148.59530804998707 -7.749967640746221
-14.065672688174766 -155.7191307774076 -7.911073725814905
-14.029556273238088 -155.63844854806405 -7.898628120155906
-14.292163865979768 -154.44990810120905 -7.804702331554696
-14.464022285927793 -153.7635978512541 -7.856120778723775
-15.109823442345146 -150.52361792962714 -7.776127815817374
-15.164547793998361 -150.1985167098513 -7.813835850375571
-15.18869506698775 -150.14071691073408 -7.767008245402202
-15.277113921044222 -149.75525256221076 -7.822337194853975
-15.30169292726558 -149.63319387537203 -7.821521214111881
-15.383275273071092 -149.15861483809115 -7.774232923546741
-15.524224616470367 -148.53434022456887 -7.743402481728272
-14.130684641658302 -155.8314595040392 -7.841724933400495
-14.337346298392362 -154.6150897314669 -7.812458047073616
-14.547546952638642 -153.79064711162758 -7.836935770494084
-14.559156505239404 -153.70250769277524 -7.823861484738282
-15.303575268416509 -149.95236655036402 -7.785784775935735
-15.362879526278096 -149.86540201188487 -7.788787423369293
-15.364145916495755 -149.65982441064807 -7.8305785253100435
-15.485913869476642 -149.14550454252478 -7.812487375799288
-15.49731913871743 -149.10646430784197 -7.770560558502709
-15.555501687505771 -149.01824507102077 -7.754248799765424
-14.660563749042474 -153.82463642364553 -7.841311830619547
-14.648180386670656 -153.72187681390037 -7.821309090466507
-15.38265334253322 -150.1203295053106 -7.798903701485856
-15.414469131078402 -150.03782403643356 -7.7419102044625845
-15.459638453787642 -149.89464739923767 -7.772801631398832
-15.628831264585504 -149.20357822502518 -7.795440400948905
-15.598188032045371 -149.09968106402968 -7.75688788644905
-14.719474086310562 -153.88444569067696 -7.8601406931277245
-14.709720051421183 -153.8179846939295 -7.82800732302689
-15.480886833464186 -150.08883260531883 -7.80638068046347
-15.506133544769492 -149.8994082623827 -7.735406339950756
-15.557625065070738 -149.82683367298327 -7.774394409072752
-15.715738528827535 -149.13028939602773 -7.751284258059566
-15.702351094082147 -149.06278812269284 -7.744387451529146
-14.823636699894587 -153.98514923380952 -7.853480922967069
-15.6212215006873 -150.04452838307236 -7.812064237817992
-15.769564091877548 -149.11601556378395 -7.757221868041488
-15.785058621294453 -149.04895545420305 -7.749382601681504
-15.732708979321659 -150.00878690815267 -7.820513443025164
-8.129973757998236 -147.36832724018143 -7.750128890259668
-8.12872874854608 -147.3497566660703 -7.732291281383868
-8.307899934009036 -147.55393107699595 -7.732733101906316
-8.347357621038434 -147.56722915881983 -7.735746195405068
-8.447138874235224 -147.6540167599983 -7.729202849673436
-8.5764967036436 -147.76203660385858 -7.741491841333979
-8.547547267885031 -147.72267045530833 -7.738306900502033
-8.770613408213787 -147.22065808914 -7.6696514220125795
-8.829127705836745 -147.3212531026573 -7.67471431441345
-8.785615062621968 -147.27424932156933 -7.69463909130219
-8.913601758458885 -147.43507574394363 -7.716633552617265
-8.880025757615979 -147.39962184502085 -7.7456065894182915
-9.014627156097845 -147.5692609748114 -7.7579753475399675
-8.990463497936265 -147.49317957953699 -7.703796031298606
-9.03027542562794 -147.9034730620497 -7.713060889705119
-9.126354068817154 -148.0357143169721 -7.701475609896672
-9.064686725192391 -147.94358359118732 -7.6795485867777575
-9.191939053069616 -148.11634756975224 -7.698843566381464
-9.288452830072877 -147.76383977773756 -7.665862353461835
-9.969441731746404 -147.8627765344394 -7.661382993128768
-10.041536100027969 -147.56052384460565 -7.747178635181555
-10.174258222626579 -146.65728979678954 -7.678351999948745
-10.062673863518667 -147.86670883905282 -7.713012022020325
-10.073367378244079 -147.78324989802218 -7.712845599861406
-10.08013324761699 -147.6793155362738 -7.6712506685490345
-10.068585269700899 -147.60083314383164 -7.711329838743996
-10.107408966052917 -147.90530269222182 -7.724405862307717
-10.138709249347825 -147.7926783236066 -7.692778361283439
-10.145512356414512 -147.73441877565233 -7.662334676152708
-10.204372178239957 -148.18464892288253 -7.711515548673912
-10.231847288772117 -148.12711438311823 -7.706410412197188
-10.189246218006971 -148.0570508157252 -7.691530716890011
-10.27363991993332 -148.2412056626114 -7.717368594996772
-10.273627460783555 -148.14058159153984 -7.671629356689482
-10.342523477235302 -148.31899815537983 -7.725678532843545
-10.34197872665133 -148.24887483702537 -7.672767105475341
-10.326996676918489 -148.20088974651316 -7.6631169052725765
-11.075500683302696 -148.01356700903008 -7.72664157176974
-11.074223792094115 -147.74081679930822 -7.70501617749938
-14.400260465290643 -151.12786017660804 -7.729908101363143
-14.357165337620174 -151.83545463036617 -7.760201789093515
-14.368260068614642 -151.611173943403 -7.67744348994585
-14.464875768923465 -151.44289385240586 -7.721722935124675
-14.446704372764792 -151.33081559677908 -7.728576332091742
-14.459326683726506 -151.26864894982856 -7.7146436344969676
-14.453383796151929 -151.1310298522382 -7.733825014860653
-14.492095046117406 -151.02406757413186 -7.691891986487867
-14.518369545116995 -150.97305948278415 -7.659572607556745
-14.05965120473889 -153.88269937128146 -7.737240992636802
-14.041548601831433 -153.81633741954033 -7.724532801154041
-14.102820087051667 -153.7013805212963 -7.746069584549416
-14.089418165607675 -153.60220656502597 -7.760082210842526
-14.05191905047404 -153.5380915914043 -7.7730397598149885
-14.446582469501012 -151.8490497803473 -7.757853666590532
-14.499984881496621 -151.53004997754763 -7.671819835741533
-14.49869695152989 -151.4456259889367 -7.724262313552623
-14.548373155871971 -151.34116568823742 -7.719008911513499
-14.531547783887063 -151.27385203137828 -7.694816301552124
-14.600279215800226 -151.03106008981698 -7.687799410097674
-14.86111757428022 -149.73667574360158 -7.659830717432787
-14.899180293716775 -149.70272900007865 -7.655378118578164
-15.021881646348026 -148.91241859499598 -7.712425834392088
-14.113156134224614 -153.97822722687636 -7.78138767591447
-14.09965030423158 -153.9257480631876 -7.734768053948446
-14.129494115778867 -153.8071504931771 -7.741524875006438
-14.148696448070055 -153.72510702848467 -7.742910128775387
-14.129649800107188 -153.6307956047758 -7.792049169179376
-14.402248841703056 -152.74266731531645 -7.759433497374967
-14.541814386050993 -151.9444435260677 -7.750395118970392
-14.557836559954112 -151.89706726637783 -7.726011733976135
-14.595753793727326 -151.56474087986953 -7.711920296187514
-14.59718243745439 -151.35623066493343 -7.741562552595334
-14.63352666663679 -151.29171471778807 -7.732822869722455
-14.74396425712552 -151.02104661200772 -7.684055432900365
-14.78187827700683 -150.42471050516727 -7.66764972371542
-14.921321115916978 -150.09201376906427 -7.713944704916591
-14.93256591567248 -149.692008881634 -7.651080729499062
-15.136406866035246 -148.88572734529126 -7.65964304192288
-15.138762034356684 -148.8250257595983 -7.67434534132588
-15.190933814177072 -148.73834144006125 -7.691304496009132
-14.163247782769853 -154.01875163834765 -7.7012638760980545
-14.186761875239139 -153.90198143359 -7.700483193197982
-14.219881720542022 -153.83384725475955 -7.736633914573498
-14.217127351262508 -153.75065172464718 -7.782189375653456
-14.340109316037923 -153.24214173564496 -7.7611644833863975
-14.438812120946032 -153.01330445194372 -7.7641703140485685
-14.403723643567021 -152.98453501339398 -7.726045529537406
-14.461246667502975 -152.8246752994514 -7.734406537749238
-14.439974623170706 -152.77803301751376 -7.737073082585412
-14.640652308499496 -151.95065208374905 -7.715928534392306
-14.65018687799315 -151.91991279382339 -7.703304772336672
-14.70021433771285 -151.65486893789608 -7.713951202990714
-14.871681894086569 -150.66902557708738 -7.680406252560531
-14.918062941286005 -150.6348226747649 -7.689683829348855
-14.984212526164095 -150.08963568109368 -7.691910298717359
-15.074784854790307 -149.84459156136072 -7.664594139532312
-15.08281732367478 -149.61856031339107 -7.659833351250116
-15.13440710483684 -149.58172867631168 -7.638000349606202
-15.22415514407424 -149.17190856672022 -7.694680987916214
-15.220464026533266 -148.83455104597428 -7.628733171201986
-15.263476200727869 -148.7123025624582 -7.651198244357184
-15.326804312045018 -148.6603652739846 -7.651410854456589
-14.017041652958458 -155.61173785036138 -7.7320702240803
-13.995314232163297 -155.52849422135992 -7.783286025037145
-14.235472727528936 -154.35707521043923 -7.797827090011865
-14.311365629020079 -153.9303384775394 -7.758556746699243
-14.439619398060728 -153.38409278495183 -7.715737641874884
-14.481653582097815 -153.32397528379926 -7.743369672407059
-14.49230717899498 -152.83972595629118 -7.694167476320992
-14.67368760516278 -151.93899591911017 -7.688145981431181
-14.761671530769897 -151.63367343937844 -7.747443496372184
-14.95451634338549 -150.6858829954202 -7.664150474407069
-14.994126850966836 -150.6321517249563 -7.676170730767625
-15.019821462536147 -150.5460820269815 -7.693823539290235
-15.075511662816048 -150.05126597865424 -7.685147504031392
-15.20487885698601 -149.75841747399593 -7.700126798885762
-15.163633789267532 -149.55616254979756 -7.63466577818879
-15.293173183293202 -149.14913482821655 -7.703371156476803
-15.37285769311527 -148.6275416648561 -7.641846458382248
-15.432234298997667 -148.60194464450083 -7.699189369713729
-14.067455668419313 -155.69201141972525 -7.740772545356242
-14.03802071812533 -155.6175575035693 -7.766884968968134
-14.37300351044144 -153.9754459613068 -7.758124559627922
-14.47951336555054 -153.67136444779112 -7.783976842916877
-14.536212556905738 -153.47674603989927 -7.742166219508156
-14.547046631050735 -153.1024294015394 -7.758810750750287
-14.781470170043594 -152.00807965675787 -7.699314720606331
-14.868008320995486 -151.68706769578054 -7.713868864770454
-14.843975130569877 -151.66278697738736 -7.723096474727812
-15.106019788513294 -150.53508724099015 -7.69600447185656
-15.124997008011952 -150.47240148097632 -7.659743988192923
-15.187559967828104 -150.02634605181026 -7.659976429873526
-15.229708404799018 -149.96544369374402 -7.666206243384833
-15.261345159318335 -149.9093933623306 -7.717670882608138
-15.231512986709264 -149.7704600050566 -7.6550318856835435
-15.27434969117767 -149.4999476620409 -7.633710857881617
-15.399880871295938 -149.08521313523104 -7.6670116828172885
-15.514297021100523 -148.55099600626576 -7.675465412223204
-14.157061955385421 -155.88348336473402 -7.822589454538505
-14.582648756592553 -153.66445294427024 -7.73837692371198
-14.556544986622068 -153.6348700027146 -7.724921807901543
-14.59948785458501 -153.53080630499292 -7.7484259432019895
-15.182536150379368 -150.5204577556143 -7.6676418269615265
-15.336683887325407 -149.95134346642888 -7.7165319326367205
-15.325786653370063 -149.89860010627325 -7.700821851584013
-15.368064572966276 -149.67531073142516 -7.6817321377026895
-15.422389160772102 -149.42537792174835 -7.629294569489325
-15.484733451175563 -149.13470410490433 -7.719037277180832
-15.597772875052769 -148.48713962507222 -7.6953100262351315
-14.196768589440614 -155.97859920011842 -7.817101214399192
-14.448185761799195 -154.7986120775402 -7.801957806334585
-14.652291736321873 -153.7198513514215 -7.747929872284028
-14.67212216485935 -153.5926620448727 -7.7543371273479265
-15.451110648192238 -149.97865758643556 -7.725489505065825
-15.525083711010735 -149.9759928801906 -7.725894361258816
-14.627700687967103 -155.05896200429066 -7.785294603085016
-15.63092164764079 -149.94013267928463 -7.724048472676535
-15.748665894687047 -149.88697506976604 -7.714332465125919
-14.78232264714267 -155.27443199924002 -7.7943545740362685
-15.83296600764222 -149.84419128756755 -7.707427808070962
-15.144590816705994 -155.7843926728644 -7.755002517407281
-8.55033450332889 -147.16927996758895 -7.576109568407641
-8.714052746042052 -147.3483110182818 -7.566629554319423
-8.77198888924484 -147.21346003540512 -7.653192865396665
-8.720936068081341 -147.12252841140437 -7.630986185203654
-8.872759771497165 -147.27071511529928 -7.653132614332911
-8.836647055983473 -147.14112841224173 -7.601507643609325
-8.896713762317393 -147.52702790523347 -7.588178204410686
-8.99529434460339 -147.1957700723279 -7.590054117337921
-9.024978403920324 -147.48126544975216 -7.655976838427087
-9.022359953404967 -147.373759275772 -7.60118638258966
-9.05534699761996 -147.6642333264885 -7.59278491006053
-9.0519703083225 -147.60909105479925 -7.594151170977752
-9.115997600920629 -147.53718369892886 -7.580014231265067
-9.086137067757335 -147.41309243610934 -7.601098486286005
-9.175547995303106 -147.61167600344297 -7.629966687768964
-9.167643672109943 -147.41775750378056 -7.641381545303845
-9.282031890940702 -147.76304641697578 -7.657471595253164
-9.247104804457539 -147.6626828108061 -7.596615954015833
-9.260613499187272 -147.53748999220264 -7.625524622300953
-9.30408393513499 -147.41992025650552 -7.577638621543933
-9.40354595850934 -147.53538527491287 -7.574839774186491
-9.407409113012392 -147.50520128941682 -7.598166407375921
-9.68641192102077 -147.5410793107748 -7.600681687050372
-9.881445320986384 -147.8082118651944 -7.655188027746557
-10.09144210383225 -146.54949547898883 -7.582580825287123
-9.922267899873068 -147.78498582895958 -7.638489894379372
-10.018949069447665 -147.65821091334396 -7.64674610874198
-10.104217333306757 -147.68207428079282 -7.63982943223402
-10.07409887264784 -147.63020240631212 -7.632535008466549
-10.136446199763073 -148.03454438389718 -7.593403118421669
-10.090481234172529 -147.9305014920001 -7.60044619210502
-10.167757837160696 -147.8207813693723 -7.618689845056958
-10.179788744452434 -148.10450668508687 -7.597825106927847
-10.25668938667259 -147.93234197850919 -7.6413764770499135
-10.215799234251437 -147.84228108863707 -7.654345188200242
-10.301599132187299 -148.16532156840674 -7.625734098067513
-10.288967861651916 -148.06959544170113 -7.60748644020158
-10.354422938279493 -148.21879502085181 -7.586413370786384
-10.367940424976585 -148.17475429022417 -7.631239521900578
-10.430808797197946 -148.08937450809907 -7.622069794090114
-10.443820374659238 -148.38386176318457 -7.5636397242579605
-10.506108622108354 -148.2638442410968 -7.628002685113481
-10.474713140645875 -148.21410630232782 -7.611934022261919
-10.518119717449139 -148.50168201626556 -7.567678419878643
-10.568832908768545 -148.31090624104098 -7.607319234762012
-10.605089260163087 -148.36949419682963 -7.625156527077511
-14.31286113036495 -151.09124661892676 -7.6372924440289385
-14.331629493437296 -151.05279415993724 -7.654898183379787
-14.378033086262505 -151.0940301579481 -7.621585328885708
-14.352136838225485 -151.05233417459826 -7.641814505301502
-14.412331949645509 -151.61262467195934 -7.649929600768083
-14.41854924629261 -151.5571038846838 -7.597428287926521
-14.49747052012279 -151.11610328191327 -7.631173896953868
-14.483263422655254 -151.03595997015262 -7.626693851402278
-14.056064994660868 -153.8973047970811 -7.677669281579771
-14.06120527740582 -153.81241807179498 -7.684243632340442
-14.178124984103073 -153.13759995962565 -7.603168055644083
-14.4516511927343 -151.61883635458886 -7.640453506483719
-14.493789201986905 -151.57891434620203 -7.586491540991827
-14.583584281796494 -151.33349442673958 -7.581547523322038
-14.59390718519863 -151.30138790563154 -7.641485492352826
-14.581375477679163 -151.1226660017833 -7.609891774226606
-14.610585795944003 -151.02897311604784 -7.55798221905433
-14.610466738295237 -150.95604649932812 -7.622478932520504
-14.76306056069809 -150.38084270669566 -7.621067884778516
-14.917858635458854 -149.69265509574143 -7.630730729350624
-14.120778196271653 -154.00336074895873 -7.666519551467744
-14.102613905881173 -153.91483186818306 -7.6623641502380995
-14.118537921089178 -153.84823421948946 -7.672189120420625
-14.274364734598539 -153.23781074358055 -7.664508333548384
-14.275634244260143 -153.16537456774375 -7.594893611318298
-14.399315047124247 -152.7464265606265 -7.602906960815966
-14.590594439507047 -151.67126957349203 -7.610982317227901
-14.595591108578326 -151.4846438132698 -7.652318792906482
-14.63222443670757 -151.3392660110983 -7.624025719133013
-14.631480237047922 -151.2974307755739 -7.6195700875064984
-14.644295491482538 -151.12864067177676 -7.582402429011495
-14.691294260708178 -150.9649409408522 -7.604983608428614
-14.824918248010919 -150.3812302982435 -7.592982737268931
-14.975151131171321 -149.68016865892565 -7.61149748422503
-15.00839710605518 -149.65786951166993 -7.630016787436133
-15.183800345820803 -148.8482056685332 -7.539500365100783
-14.219367372839638 -153.92177697472317 -7.690189972425128
-14.21389219702263 -153.86129141442117 -7.686087038572717
-14.352742624070176 -153.3150627813155 -7.631479961499168
-14.315950702626754 -153.2833516332376 -7.596896063040982
-14.402641342841925 -152.91840417613366 -7.5866007548227365
-14.453725372499452 -152.79214985659888 -7.593380870264638
-14.665276442346608 -151.71582851272453 -7.5868293166470675
-14.721826043273932 -151.54397542209384 -7.629642074130896
-14.72558776377146 -151.52529531650384 -7.629517139922201
-14.702329012738065 -151.292183271603 -7.637734686877793
-14.900736682429482 -150.3551810896296 -7.595370774404504
-14.903192683563054 -150.34298474967284 -7.595289203928359
-14.989253274048078 -150.07958611628507 -7.594404437001627
-15.069540212300849 -149.64533310524664 -7.577902213551321
-15.238286204959252 -148.82335726655478 -7.574035719658136
-14.012098067824134 -155.5917071555855 -7.6742099554903245
-13.99353449623466 -155.56310665560687 -7.6402922987695385
-14.293407975019315 -153.97314625862862 -7.682971390368698
-14.423523408257308 -153.37749596527635 -7.641233010053401
-14.555085659171231 -152.84603883623737 -7.63736731033556
-14.519981760805148 -152.8194827812829 -7.606414517710644
-14.747949188522929 -151.72362166976166 -7.573969415767732
-14.800037339628664 -151.48677917102194 -7.64426503841881
-14.973681145212856 -150.7319623054422 -7.605888002441961
-14.99387704002135 -150.4867843137879 -7.620458317535936
-15.041663558523279 -150.42472742761234 -7.61249212808941
-15.125128891435812 -150.0250535901078 -7.5817582475748875
-15.149191077996255 -149.62457742936846 -7.551358489227586
-15.181089660853967 -149.58666478928833 -7.547252018408612
-15.376358216393983 -148.63356340637858 -7.592952640762418
-15.422400864803674 -148.61555105157896 -7.5970468813199465
-14.038585618212913 -155.6388855471409 -7.694555540842365
-14.342288045999606 -154.44735679027153 -7.620487527919209
-14.330881226548119 -154.39753415626623 -7.635733289917088
-14.340414813654505 -154.224359237414 -7.600606255931425
-14.316460967512409 -154.2122947400408 -7.604406418474862
-14.593381642596235 -153.0980667247933 -7.622672568908278
-15.108498506676273 -150.6760382773192 -7.6027739753428385
-15.125234946013222 -150.4219000920243 -7.568232470745437
-15.168788353160897 -150.39577456897206 -7.553931210211449
-15.166192072993793 -150.03211063473074 -7.593927169303595
-15.225784512400594 -149.99355406080304 -7.542351626474648
-15.276729916220809 -149.77190089468613 -7.615433364969514
-15.302926378551387 -149.65925872983917 -7.601635307107463
-15.400428232778044 -149.26305516520915 -7.5332016425756745
-15.397903200254419 -149.17880753518725 -7.605001918853827
-15.473555579663177 -148.7495076676047 -7.576615032464288
-15.469666777753961 -148.59089039342624 -7.532103609365535
-14.40031225374264 -154.48058889778233 -7.6116974763693275
-14.660673771547089 -153.1736355538526 -7.6291109706942555
-14.656191270243339 -153.15050478128765 -7.613242485458244
-15.154444850792926 -150.67761826784294 -7.594339144040576
-15.220410842242362 -150.39477380661415 -7.55899634950163
-15.304172186420647 -149.9792464918937 -7.607836315765808
-15.344408359299146 -149.87648118432273 -7.5858755188640865
-15.35127563898305 -149.7755413552996 -7.583467591669747
-15.386303164998987 -149.66128694536297 -7.603369431180039
-15.427621632392238 -149.60046039126215 -7.585970140823391
-15.482159930694255 -149.16640308680476 -7.57966731847524
-15.497619514975913 -149.14204842248316 -7.5599144401433085
-15.511983854324452 -149.01655784973892 -7.599567203176844
-15.633509601510802 -148.67598594635905 -7.571749573967373
-14.750987877224368 -153.5213793324144 -7.624093212609097
-15.389337817382218 -149.90992343580285 -7.604644028828536
-15.437197233243948 -149.78941111541903 -7.569815579591264
-15.440135148048284 -149.71576878185118 -7.595182400104591
-15.44438448559474 -149.64574997747064 -7.596008450347534
-15.621035107262056 -148.99504011146698 -7.583656372492839
-15.654422351377763 -148.93905092281958 -7.555404934763718
-15.730151460286386 -148.95997614395125 -7.599754287158435
-14.864264589062067 -153.62450265961692 -7.593560498332099
-8.88910901572386 -147.47125645311357 -7.495218296505973
-8.942454434386264 -147.52760760031958 -7.482589104987193
-9.0559924333852 -147.638880936885 -7.483490243265944
-9.405328670107462 -147.52605526318297 -7.55350655338005
-9.359207552690266 -147.45878374973935 -7.5291714313328475
-9.705449945391914 -147.59720756710917 -7.501761746569738
-9.672671265027134 -147.54168133431438 -7.499887462829843
-9.75578862175851 -147.67758768043754 -7.508533519346146
-9.874154130741958 -147.77634677481012 -7.531811043328805
-9.961641168500785 -147.96734797616014 -7.5156916982413255
-9.92516092504723 -147.8731455560593 -7.506389902945863
-9.920727648757047 -147.80024127058445 -7.493390956079838
-10.012049190936976 -148.02491640621977 -7.503140262215241
-10.034596782089842 -147.91897717068838 -7.501690155583856
-10.13404714212784 -148.03380442921363 -7.550136861241263
-10.211656384866826 -148.10397694975902 -7.534425441604926
-10.269217543341005 -147.85812320862723 -7.490010283281758
-10.293219040499743 -148.23097948590856 -7.5189448140551605
-10.27732558635361 -148.15085938691354 -7.536734269867108
-10.360205985814705 -148.01042611365557 -7.544304433201398
-10.334570275943186 -147.9658314978399 -7.52430212073555
-10.349531058122015 -148.3233221112181 -7.512067488683602
-10.326248174468756 -148.21069502073533 -7.5381505641644
-10.441491746693405 -148.45535737838188 -7.5542441354879655
-10.450830680311372 -148.3888119886388 -7.519476089227068
-10.521165254307768 -148.48007951416216 -7.541476447016016
-10.507550383958145 -148.41821117962115 -7.50831591881698
-14.395282010637922 -151.0567811470671 -7.476366124184498
-14.082354674947515 -153.08356820758058 -7.581323869111572
-14.427474407520323 -151.50925445631887 -7.516448857548486
-14.48381265400607 -151.04287229070505 -7.502915332379715
-14.646753763442808 -150.5121879628731 -7.524393735945622
-14.645577033302274 -150.48858451862588 -7.546252268187189
-14.199150599085035 -153.19193408410743 -7.557358790512292
-14.179655715809883 -153.1349641897691 -7.526920615109139
-14.500691364966531 -151.55509731866755 -7.529994114458805
-14.494816235129058 -151.48790327617132 -7.506649081781073
-14.547634768281553 -151.32047183800978 -7.4698815740679345
-14.574396655075331 -151.14171036295104 -7.539561520400332
-14.60083480724425 -151.0385658581711 -7.516521502027019
-14.594920202354485 -150.9634193112791 -7.488327614752927
-14.732653991896411 -150.46824958237784 -7.520242352539864
-14.26005184650261 -153.23753502998068 -7.562039942524773
-14.368741118325707 -152.7652159499793 -7.546492151808007
-14.579316665225901 -151.83832004304338 -7.48987542812513
-14.548172174775143 -151.73876847244804 -7.526403127474924
-14.608609842000687 -151.64552672708672 -7.484771133455928
-14.5908151378082 -151.56943003228923 -7.505310897966694
-14.623929275924054 -151.4588322980167 -7.4878313823719305
-14.637313212757963 -151.41849472381543 -7.469988331119
-14.6658339652216 -151.27453429032946 -7.536563247927813
-14.643322038403795 -151.12159010862197 -7.516764146905447
-14.719576654720345 -150.99602503183033 -7.476941934438778
-14.876151480133508 -150.34829641194878 -7.531039318930418
-15.060896156899911 -149.4390073515829 -7.479671002311375
-15.1729590062033 -148.82248486423651 -7.423295676949937
-14.19604266329728 -154.02620659760467 -7.573976763081575
-14.275948919474395 -153.88451709799844 -7.5508369101898465
-14.376822848568574 -153.3335675080688 -7.49831005901415
-14.32838027677835 -153.26078294562325 -7.5400293143802175
-14.43898211882465 -152.95273392047213 -7.550689621552819
-14.449746566194849 -152.81813549845708 -7.554599882617261
-14.421714728951109 -152.798878696031 -7.537059202718348
-14.631016145426985 -151.85909686235124 -7.506518624526443
-14.653886111787848 -151.79272227548387 -7.494306207122904
-14.66140677246418 -151.68923671213375 -7.49602558399244
-14.686305683680567 -151.62605284635043 -7.470416180460767
-14.724626448773268 -151.4612276932455 -7.479861293073701
-14.739412526710327 -151.39164290998832 -7.508667409970693
-14.720564587715437 -151.2628934720505 -7.509414218663312
-14.83805922426904 -150.98285305165996 -7.461771589557854
-14.969948861938825 -150.33346634070924 -7.521077566397359
-15.114027033811775 -149.59821387505986 -7.487821848174146
-15.095307833940698 -149.449837020489 -7.461475596295969
-15.225899465326453 -148.805662542157 -7.480911080039478
-15.280036538381944 -148.77847361113797 -7.453614269748154
-13.986099754714505 -155.59495017521488 -7.526907732434167
-13.963295066664692 -155.54959594240495 -7.547330876435239
-14.278730481015506 -154.13764363091292 -7.555472208429512
-14.26578053478546 -154.07702772835339 -7.5149339254099345
-14.333055381106401 -153.94743871088417 -7.525415010676863
-14.3496362259866 -153.88815444580644 -7.537536590702631
-14.42696355534674 -153.27757547023188 -7.526106050208722
-14.536082827997589 -153.04169266167767 -7.562293305315689
-14.48259791289587 -152.9861395647494 -7.564235150017798
-14.502879811734637 -152.8341393335163 -7.572814930535186
-14.727477617085754 -151.8765548833994 -7.515097907245747
-14.736547090477773 -151.80060384136578 -7.505138137643598
-14.770954261304617 -151.70157771351975 -7.492289448587172
-14.778160405105806 -151.47843159095981 -7.469045997988438
-15.053232516550048 -150.41211230959183 -7.530538925226565
-15.042171314845222 -150.31085115169986 -7.485273427281674
-15.215893166957379 -149.57825666764109 -7.5000459355154865
-15.228002815824455 -149.36607693039187 -7.450283787851795
-15.280705156366462 -149.2685862471772 -7.503238237202539
-15.324644079572446 -148.75593867176232 -7.468200197729797
-14.372992022976174 -154.26822107610172 -7.5738920206640135
-14.329678274172007 -154.21529946968818 -7.553105851914827
-14.38412206323867 -153.99641330060996 -7.513151967038714
-14.495338901799073 -153.3291079219539 -7.500601182710469
-14.596173463099985 -153.15507766091145 -7.537396819115328
-14.58388513133486 -153.11277656856288 -7.55792053154973
-14.83293369062371 -151.77722139384434 -7.5225039848226025
-14.864268916633298 -151.75792795352612 -7.530212017681373
-15.15265850783947 -150.3775487643397 -7.5067882919415165
-15.217704364363609 -149.9406606747144 -7.487416074101414
-15.28705275651503 -149.5236899266058 -7.474876737551896
-15.31961477235 -149.482810933627 -7.478344810147342
-15.361551377207505 -149.25070786945204 -7.494622757173442
-15.394856011206773 -149.21236250984634 -7.475425023081685
-15.499441593033938 -148.55630272773664 -7.481585695106145
-15.539306781858752 -148.5407098338302 -7.491092592057977
