ply
format ascii 1.0
element vertex 836
property float x
property float y
property float z
end_header
8.160248966409405 -132.10191108834806 -7.135194806695759
8.366436016787546 -131.43624305208107 -7.164636013903862
7.125241220412852 -136.23473586358332 -7.1783963593590645
7.15935002791238 -136.19518209633367 -7.183013457131979
7.4188505159772875 -135.08042640382 -7.156949724532402
7.53248012726859 -134.74231221383545 -7.183659548915751
8.299822808184741 -131.4057467996965 -7.164273996417838
8.289882183402117 -131.18819197739387 -7.171851667233321
8.387068798013708 -131.062656400939 -7.178949179028486
7.062501470846976 -136.19041700024223 -7.182443339756254
7.434066399084866 -134.67464482527313 -7.186378318417037
7.915920871108609 -132.48678349600556 -7.115497402764704
8.255151341415353 -131.25143020175062 -7.1688845116417355
8.099686956470254 -131.27619969159562 -7.164244059259465
8.197290166167404 -130.89212627930988 -7.180564385573855
8.128844262394994 -130.5610212490731 -7.1913293858286975
8.166367347963945 -130.45929384636423 -7.195754220019221
5.550825109703376 -140.11354868978395 -7.194445625697943
6.236461335809219 -137.24658034954314 -7.166356405787724
6.416116414107428 -136.5419554826631 -7.145447683575618
6.424996648917174 -136.45359674411026 -7.154301568922122
6.248374548869756 -136.75195714617664 -7.126349616131445
6.291998322875411 -136.71500244136593 -7.129445940191159
6.306160515244767 -136.60333857225544 -7.1403001972484095
6.3367322857184 -136.5448648932182 -7.145829509421824
5.145849824341494 -141.1683867505823 -7.104735723521593
5.3239468383676 -140.43480163113884 -7.153160163827015
5.347153979055195 -140.39783924999332 -7.149116204353111
5.3495623888152615 -140.15562877531514 -7.140162880967507
5.410757183563973 -139.96422002381894 -7.12888366187218
5.420289677028043 -139.84011106512446 -7.1261310987398945
6.021766241812836 -137.43228781316103 -7.153477576576199
6.04611777783334 -137.381101736691 -7.158289650334697
6.218795964405733 -136.73824786214743 -7.128082935918278
6.173149683660207 -136.70772417930385 -7.131676099968866
7.478803200500728 -131.12749284414457 -7.15535557139727
7.521212200311556 -131.06606756761232 -7.158674354008226
7.549734811528319 -130.912013222235 -7.164817889613073
5.158029975033134 -140.564564206348 -7.176444923488777
5.212341313442544 -140.5004215102337 -7.167846708258112
5.259722745765734 -140.26363145834347 -7.153539177962923
5.238870150979602 -140.14204591192996 -7.152344409820429
5.292487301316012 -140.04843669345092 -7.144163283460427
5.307872062458005 -139.97358320399297 -7.14104516566043
5.371260831289364 -139.8766369652273 -7.132337023208234
5.3503169216410225 -139.66738049487253 -7.133998349509136
5.856872981068531 -137.52282021492425 -7.151705349934058
5.94276472633569 -137.41978978241622 -7.158818446984799
7.40384868072161 -130.9598648412745 -7.159898630442666
4.993681981686196 -141.14646949951947 -7.113214538876573
5.117095237531679 -140.55870951759448 -7.180461468814502
5.117409854201588 -140.41321815016082 -7.174455468419935
5.135055629600249 -140.32235003958473 -7.1692627116040155
5.16256813019438 -140.26980873730085 -7.164510454790384
5.184268714743135 -140.16133474570458 -7.159057511142058
5.211296991588764 -140.0424146976931 -7.153455534682298
5.224557271762251 -139.96009069226588 -7.150645598968446
5.251947686868585 -139.86456988568733 -7.146363920725497
5.2996162529757935 -139.69594669964133 -7.140072011805822
5.8510741406232185 -137.4798726382774 -7.156787891648798
5.859101461484312 -137.44523771816125 -7.160234812893908
7.318652944972364 -131.04815770991368 -7.154540349362164
7.34482213663493 -130.95736577403338 -7.1586449363975335
4.948037782241663 -140.4996453898127 -7.196090595762412
5.086326297174939 -140.28492915078488 -7.173476547983487
5.131832840843417 -139.91592818623 -7.161112307670978
5.146685191404906 -139.82745802089812 -7.158705267019806
4.71681867063227 -141.25451376848414 -7.135855651996658
5.064327232907465 -139.9561034568661 -7.169475065186636
4.533068693924739 -141.4412191087053 -7.155921284159877
4.621332852497913 -141.33394223115098 -7.14548750095209
4.6634950655481955 -141.24658086009748 -7.139005919410002
4.716968190204254 -140.94686960856598 -7.12390432285283
4.9134071420757195 -139.8670645599529 -7.1868321821396455
4.983919866965028 -139.7586382893486 -7.178196852894239
4.975709775205134 -139.67231928316292 -7.179520580228578
4.434878747643687 -141.59216065003412 -7.168982532811158
4.488758980574584 -141.44029793271807 -7.15874467975613
4.504011960912475 -141.31726519163493 -7.1525341145036085
4.796387813509629 -139.90947347045963 -7.100095292093062
4.849348510198769 -139.89068197637968 -7.194606535904708
4.881461105185966 -139.64261310472185 -7.19124389180843
4.4684613941126505 -140.99494445377363 -7.143237223266906
4.7093637548430385 -139.9593076202499 -7.107398833648647
4.7955443189041445 -139.74387621467844 -7.101157299498871
4.907598972180443 -139.232408017355 -7.1962829977991305
4.40497536928185 -140.71583083175165 -7.140351710642254
4.285333255891974 -141.10896276834254 -7.160103551474587
4.265244854160223 -140.83287517613013 -7.153772565068793
4.363862032768011 -140.76066922781456 -7.144523305832302
4.043162878172563 -141.27273472515986 -7.182819785375125
4.152050028131828 -140.79925212789632 -7.161665286328398
3.883310551369325 -141.24487978905694 -7.193487552063499
3.8603301531224155 -141.0498014319314 -7.189824965215704
4.705480895891523 -137.34616721725308 -7.118201361500874
4.533649893261386 -137.72004503271364 -7.099544524853057
4.530277902909233 -137.5201824193695 -7.113033560100591
4.5574196885825735 -137.42443889765784 -7.118540299339338
4.626189038019349 -137.34449686320926 -7.12145180890601
4.4322587510289555 -137.73009750586914 -7.103411482169138
4.499893120671019 -137.4776778659408 -7.117221016604036
4.53465160937478 -137.33632163749155 -7.125724273435338
4.358804194506167 -137.72761052025137 -7.1068660510270085
-13.501935712661083 -164.75172629267064 -7.184732684663531
-13.664595013134878 -164.76473074414974 -7.184203810009533
-13.746819693748375 -164.68279045618587 -7.182928196397322
-13.687719888499458 -164.43436805282056 -7.179179734139585
-13.609644097460393 -163.82212656020835 -7.1705903431093745
-13.590069703353741 -163.6299533889877 -7.167662907347693
-13.641543228301671 -163.52656821187784 -7.166263607660018
-13.724436432622571 -163.45100953650277 -7.164837055481778
-14.050746066721732 -164.68754637922606 -7.182144360022786
-13.778724240305586 -163.33879227216326 -7.163364267076313
-13.323342208959161 -161.40114937124525 -7.137773258884169
-14.137691953477429 -164.61052812198812 -7.180586800347965
-13.882296398349872 -163.2866041417753 -7.16227441179157
-13.58913942315412 -162.14960697761805 -7.147478781996634
-13.576509301623425 -161.98110027000047 -7.145098568907477
-13.49323479269863 -161.73849393378273 -7.1421840638932
-13.928161824914596 -163.17819297341305 -7.160896027215642
-14.017575308958286 -163.10810360810243 -7.159631459901143
-13.631288763596284 -161.56653473840174 -7.139948446198503
-13.57017175448238 -161.34825057383748 -7.137051727018207
-13.51800152479477 -161.1485986956304 -7.134743327680866
-13.537187362799283 -161.01856269921987 -7.13298260094926
-13.443117443405544 -160.62076595302028 -7.128168151782073
-13.355841172134301 -160.23666748676155 -7.123603381644751
-13.283906688642379 -160.01981028401536 -7.1212023406882485
-13.548397059031476 -160.87904439800957 -7.131464617959432
-13.561034672564947 -160.59124894441024 -7.1280484479604995
-13.31743282189844 -159.90910740594808 -7.119818485854616
-13.39024015366909 -159.84069690557047 -7.1192841142136345
-13.275267147794722 -159.44537355739214 -7.1147665900424935
-14.250368523172472 -163.18819545713305 -7.160630760523602
-13.48600795758843 -159.7912128758077 -7.118698652629276
-13.429895240020198 -159.4519504464626 -7.114928973373238
-13.47395029452261 -159.35370246949 -7.114106293649075
-14.499731688411156 -163.29052495397548 -7.16155053839592
-13.48839844667463 -159.2280320165507 -7.1126619026185605
-13.630399309930603 -159.22605072906504 -7.1130666422197475
-13.593441143690423 -159.0547740315243 -7.1110874820465595
-13.592969273713532 -158.92013081730676 -7.109871047488149
-13.583103545033765 -158.7745202047671 -7.108258901991019
-13.675986934625907 -158.72347538481625 -7.108137728663397
-13.706435430056306 -158.61574078865922 -7.107037253358107
-13.65456489533154 -158.43748103786186 -7.105339501564475
-13.435258162140606 -157.7206772534164 -7.0981174994057135
-13.718731550052397 -158.36298862031256 -7.104693603232549
-13.763964837496562 -158.27314901925325 -7.104141511060364
-13.652376809615806 -157.78215829823216 -7.09927262442387
-14.811316621071182 -148.2663018740356 -7.099946453079457
-14.812621521923546 -148.17646989765814 -7.100677395996787
-15.072296848307204 -147.20265377656654 -7.114403661559433
-15.051732665607048 -147.1092455456571 -7.115099912643076
-16.31901595879602 -144.06333334863743 -7.183800123724822
-18.100543036390306 -115.88774293154943 -7.188127400099022
-18.18214640886505 -115.97751882141444 -7.1832585861472396
13.656741896093827 -162.28718835041605 -7.100277754200084
14.81389811567053 -155.56561081808835 -7.100012086107171
13.588652973011772 -159.71104908574546 -7.086414523455252
14.35783217796241 -155.2862257900676 -7.086803183292454
14.740633979269369 -153.6214890048655 -7.091806301110043
14.1678686609057 -155.13607909771488 -7.081273692526131
12.985699891469388 -159.46502669236668 -7.0712976064837445
14.705937974396573 -151.52466511215061 -7.085722923981264
14.95680945082405 -150.60622056483535 -7.0909964588942875
14.690977451887258 -151.25965799990297 -7.084682869170541
14.878497301355779 -150.57129236950013 -7.088532430672513
14.476668556068715 -151.6692651512099 -7.079434355664992
14.709145034586992 -150.91924433575483 -7.084400568861262
14.720702824202444 -150.71207984279323 -7.084237860467781
14.711785320726012 -150.48117318200644 -7.083450062268613
13.781133248741085 -154.06008752719987 -7.0673571980638075
14.177235779716879 -152.38048506289988 -7.072688781386843
14.689793070851378 -150.53069006321795 -7.082987480728306
14.758895051692157 -149.89731205830782 -7.0837599516963285
14.934968794157172 -148.7511498896268 -7.087832843528859
14.30091074553409 -151.15783481974464 -7.073184207930443
13.771189342126695 -152.83741111716088 -7.062776600628901
14.237743559266296 -151.142991861234 -7.0711869985439915
14.407994721740206 -150.34143548859907 -7.074285600112402
14.700002522738071 -148.9892030330653 -7.080778664905724
14.974911397525968 -147.96778337611929 -7.088706336422258
14.29018879463736 -150.32224487446877 -7.070832051850087
14.457397450201583 -149.52663359342756 -7.0742081615265455
8.892733488061536 -172.09047003810338 -7.062978699049583
9.267598972458089 -170.51334480835925 -7.06003978762251
9.371078560462522 -170.37939252518197 -7.061026338703648
14.377291483391684 -148.96765791579273 -7.0709208015359275
14.422901009224809 -148.8912155536373 -7.0722015058921635
14.569196592101132 -148.21984053698583 -7.075957449984412
14.310004550530447 -148.87311334342547 -7.068675224545022
14.470613708257439 -148.21804453364103 -7.0728786384896924
14.461653396719008 -147.71153433899642 -7.07230872998755
14.218293533949709 -148.40017593115095 -7.065266776063126
13.711762766071658 -150.0320702065229 -7.05344344601143
13.843301338647546 -149.70798122965022 -7.056534976168409
14.239047856971318 -148.10315894481477 -7.065668701831856
14.370504033956529 -146.983016666064 -7.069433350909344
14.097109405514708 -147.55825261046272 -7.060838896286234
13.823502323070665 -148.3129547840848 -7.053240307258415
13.88931568098853 -148.07799337621353 -7.054830973830681
13.974722557944908 -147.63582825563918 -7.057070304629957
13.622936063398125 -148.42227437570284 -7.047351856197117
13.67605226779355 -148.1984256467554 -7.048591286844889
13.773785737178795 -147.60736569603066 -7.050823374398222
13.822413604517731 -147.49556022905404 -7.052148509734178
14.421435661546038 -144.9183489356691 -7.074285053291928
13.361712655589455 -149.099948619366 -7.041198382370264
13.506017179565394 -148.24552974391185 -7.043627746994248
13.731856827962957 -147.4913791664342 -7.049341274206309
14.283922261602623 -145.2493518758873 -7.068565200522062
14.305104365369132 -144.88189167456892 -7.0702843860788605
13.564037271687605 -147.56306465144533 -7.044338709666867
13.642433932550485 -147.49075757090094 -7.04658594707807
14.251388279153126 -144.9352931895836 -7.0683064280027565
13.17677350036497 -149.0156464950488 -7.035753355729611
14.080472815751016 -144.75331011662482 -7.062780956009975
13.658194989879647 -146.0831338145579 -7.046612182611649
13.817948698348014 -145.529270312691 -7.05233289657495
13.459551778711322 -146.3593872741712 -7.040159916482511
13.510149556599004 -146.29724571115932 -7.0418048461803
13.686374079447656 -145.482534892664 -7.047995152131267
13.857054309195544 -144.7535298766913 -7.0551116389044655
13.91972691490469 -144.43571167294547 -7.058186069747588
13.373117591359756 -146.53466893866195 -7.03752407796766
13.35066181763909 -146.3029333152868 -7.036720339222779
13.454321887837667 -146.13716709447243 -7.040014332104151
13.535024814731457 -145.63145238015002 -7.042766313187869
13.739852626032809 -144.84407274754628 -7.050789881361399
13.800262776342763 -144.74266117826966 -7.053097543520898
13.911799308652917 -143.9713773022319 -7.059449990183628
13.792180109290296 -144.2976451275008 -7.054064102225216
13.333740317342684 -145.67840667607155 -7.036150163846409
13.406078360093737 -145.3649400655897 -7.038808242064664
13.605530485081875 -144.42644586677758 -7.047163884549847
13.847597989970293 -143.5668960189008 -7.05896024892532
12.54509641377987 -148.72912662335216 -7.016720132335969
13.20730268257672 -145.80362101062943 -7.032024128188189
13.181643229291167 -145.68270342539873 -7.0312130342866475
13.482696107114734 -144.50133691585486 -7.042803836025678
13.598457128890784 -144.20974015709407 -7.047540360075045
12.366009039213901 -148.94642174010096 -7.0123602944561325
12.456754084492896 -148.6399585470935 -7.014074707651074
13.060234670649773 -146.0445694884675 -7.027431065499558
13.242588969133447 -145.2570891560997 -7.03346352706795
13.496134660107064 -143.9566629202811 -7.044827270526155
13.528813719536947 -143.78613970027837 -7.046592719492964
12.216003809041997 -148.98169883091617 -7.008311142367029
12.274864411068261 -148.8876508453727 -7.009611316178838
12.341473194607385 -148.49705011868957 -7.010343939590503
13.022790847486188 -145.545382383968 -7.026178482691689
13.289892461446378 -144.6923622633291 -7.035810779688344
13.431517936229987 -143.8737864743561 -7.042754386893614
12.203674377850149 -148.8700354455754 -7.007546584958377
12.86329598795773 -145.94638098229908 -7.021117862809494
13.12823849953215 -144.802183104275 -7.030124078975331
13.522523802155824 -142.96504044809268 -7.050069176702392
12.007640515124095 -148.8874055317688 -7.002324156705674
12.042838719811979 -148.836867386911 -7.003082915832296
12.086175144094787 -148.79768120857506 -7.004100114009622
12.19892671042761 -148.29604474252486 -7.005869079011529
12.826585921563488 -145.8041030823981 -7.019888937384294
13.095980418827684 -144.60177086517365 -7.029370867131294
13.117997457645057 -144.24969996562314 -7.030838748613691
12.944521039485311 -144.69477715668893 -7.024118424264506
12.753212009163043 -144.99558206991856 -7.017611675590964
12.831924506966708 -144.92296544995787 -7.020230941830212
12.913288759968703 -144.4815862701476 -7.02343215429248
12.73202546617642 -144.93371471833112 -7.01688862461093
12.676005359159507 -144.7949678343247 -7.015138346628154
13.317034748509387 -142.3108874975219 -7.04647385811685
13.348803021981576 -142.00264291467943 -7.049997821842504
13.279694248028104 -141.9947063020696 -7.047361692689365
12.566954688664243 -144.38485177025765 -7.01189467818443
12.835668238366932 -143.3204688986649 -7.023682137361369
12.915155601913849 -143.20724805956488 -7.026943939976531
12.89408731772258 -143.08249172472338 -7.0267122646944715
13.118318494728976 -142.4054670121042 -7.038424806295491
13.12494589952765 -142.25949119412027 -7.039624956166651
13.192921282388802 -141.97715095578744 -7.044280865580883
12.811977285294967 -143.21910447605464 -7.023154225096267
12.834565969437463 -143.09357883150088 -7.0245239653254234
12.960930214684051 -142.4553534914898 -7.032317279120114
13.072001830383448 -142.1581187375065 -7.038404502687589
13.019095989736925 -141.98778639877176 -7.037625719210856
12.348324409003784 -144.65790706892224 -7.0045087536157045
12.697498366488281 -142.9691070399642 -7.0200613817540205
12.856007972076112 -142.454177149728 -7.028475328670114
12.881294703111022 -142.33332557374166 -7.030097785084404
12.896385367046253 -142.11438218847593 -7.032116208136098
12.909830833039369 -142.02751629005655 -7.033223968787081
12.963782787531926 -141.99014649429873 -7.0354711297269175
12.495978650168608 -143.52745523537556 -7.011088169306116
12.616085222600995 -142.8592569354567 -7.017606836626485
12.675668120434779 -142.63042850279155 -7.020872068879753
12.702810357538674 -142.4851180550622 -7.02265887703671
12.767943340055524 -142.4261885566173 -7.0253176706553315
12.82179208066056 -142.33666424993405 -7.027838823324784
12.842195364960634 -142.1550821060741 -7.02978888590343
12.900316066298672 -142.0461689897808 -7.032664087154165
12.921643768353535 -141.73526328883625 -7.035843131832004
12.539983442359649 -142.98848503059227 -7.014413112645251
12.668962082330705 -142.58744672420963 -7.020812102053834
12.66946047109983 -142.51335117478618 -7.021240519132753
12.7028078336145 -142.43545638207127 -7.022932935494102
12.731057080411466 -142.153606307939 -7.0256377878498615
12.896337252430287 -141.50676640152233 -7.036732199286852
12.921019854927273 -141.47267698737173 -7.037974044130641
12.908886885547243 -141.35041439746166 -7.038641820795303
13.054251220678868 -140.86764918128478 -7.049174660647158
13.030301702137024 -140.67793164809754 -7.050291638903781
13.077695729424686 -140.60960106920507 -7.052955859483474
12.24048010706375 -143.6424701142013 -7.0020210478799445
12.40613419131136 -143.046014214651 -7.009438829652005
12.490904544907622 -142.7452663267226 -7.013661419368271
12.565871563936549 -142.59557668821313 -7.017077679411102
12.716692198002137 -141.7729791672421 -7.027726451517297
12.779858258038592 -141.50051755793132 -7.032321771116042
12.857885834309293 -141.21776769540296 -7.037955685107038
12.882642180397074 -141.0405922836625 -7.040586257384122
12.957503736338605 -140.92123090721918 -7.044815392249229
12.486916025112514 -142.44540226542674 -7.01495534290408
12.810738612447995 -140.9965471992078 -7.038311147644656
12.895974557871583 -140.70315264473186 -7.044805637200664
12.87705836262074 -140.58080147792802 -7.045476881882936
12.869894869059763 -140.54134902057152 -7.045664752300537
12.233743117961687 -142.88651827423405 -7.0038368471856485
12.60784987671575 -141.2644920395561 -7.027792809813298
12.769843704978669 -140.69000776515648 -7.039943690483858
12.636265666575826 -140.597504886905 -7.035820257194544
12.521123887284707 -140.64303582152408 -7.0307929276776155
12.445669462011056 -140.71317615894438 -7.0269959679737415
12.851329458364447 -139.0328535803676 -7.066842293604605
12.858283410033552 -138.95263145615363 -7.068573601164174
12.209572133423393 -141.31665057971685 -7.012068515896768
12.318823016994573 -140.9675925042815 -7.019434325414384
12.33078898289686 -140.77018245846352 -7.021968863364279
12.324726331202395 -140.71391626274735 -7.022261790738675
12.439094668084827 -140.28208569291493 -7.031779785470094
12.629993977515642 -139.55435084147211 -7.0495212153954405
12.779400633213687 -139.00067117850847 -7.064557805017897
12.811599512243445 -138.94331040761978 -7.066934806269417
12.115694365313484 -141.27589946868545 -7.008883970721501
12.090015844280153 -141.1915863722633 -7.0086150134393606
12.158337507569684 -141.1077288016497 -7.011974550962386
12.164239461771324 -140.94918806650014 -7.013628270133034
12.216935807403296 -140.89512229956776 -7.016197152827636
12.226794805749735 -140.72058327242655 -7.018372675296242
12.28738304524652 -140.68492150248844 -7.021180924630934
12.535339973359848 -139.56735753769183 -7.045494036208518
12.608810624770149 -139.0635109022847 -7.056740861208661
12.590924632434643 -139.0292327436726 -7.056635314985491
12.048866373585167 -141.30242922489293 -7.006052569553114
12.030740426445435 -141.13077595692653 -7.0068703288992955
12.023804220449433 -141.07296301261934 -7.007052332646592
12.133451809064493 -140.84869595352876 -7.013481387380244
12.183287951200283 -140.31477161655664 -7.021351631737306
12.349014090282823 -139.6068997198722 -7.0375514189092945
12.55379734943965 -139.08375998142827 -7.054130753055919
11.973934063355914 -140.86380675086068 -7.007145741876739
12.037406054873095 -140.7307972658244 -7.0108845550953145
12.24428920086841 -139.6168074330078 -7.033179429676368
12.357790451626537 -139.45012730805738 -7.040279935261167
12.345212057516296 -139.35837146653552 -7.041279805911235
12.341545744464451 -139.29182174639257 -7.042151350692838
11.974462069653786 -140.67765764474774 -7.008986161118011
12.059689489413852 -140.27157350764315 -7.016946001670787
12.045246056926462 -140.21942736487193 -7.017083635182897
12.086585513427572 -139.9942564037105 -7.021607404486003
12.127255091230209 -139.81585249485926 -7.025692858762234
12.161584127505645 -139.7366528193563 -7.028188575283106
12.19537428319111 -139.62978730906676 -7.031103395505418
12.271462920356461 -139.35797012963295 -7.0383179786559635
12.317420932714445 -139.27510382302472 -7.041532779511839
12.30267962846493 -139.1279948854077 -7.043448695344987
11.919476708573338 -140.20973082691597 -7.012177979480028
11.972449727067733 -140.1258399583141 -7.015328326917021
12.02633401559369 -139.8829275733032 -7.020710549173848
12.034785878360525 -139.8291319021206 -7.021830417894286
12.101675138961928 -139.3570160888143 -7.031547681885162
12.206451810256109 -139.21211506126613 -7.038176340997408
12.194508902925818 -139.14887895439176 -7.03872474427025
12.256870750299003 -138.90120300887452 -7.045624157416289
12.258559626682004 -138.83577662110952 -7.0469152002731805
11.88281356519995 -140.1321998246057 -7.011735700066834
11.871722053139955 -140.07628289928562 -7.011984999680262
11.922996625219977 -139.9388885012314 -7.015874197273596
11.93266243444983 -139.89001248870932 -7.016941119096522
12.004050272308064 -139.44821453743822 -7.026206284917381
12.111422796222362 -139.26114023075505 -7.033508581019078
12.110904489135642 -139.22983360727068 -7.034013488130722
12.154749058933843 -138.86176661389428 -7.0423796668990315
12.20319338116004 -138.8253464175648 -7.044989314194045
11.806425795523205 -140.04612090942769 -7.009841964719387
11.822947606294075 -139.99244318569095 -7.011178131653811
11.957541885719053 -139.4618253577903 -7.024205443939344
11.854098121586677 -139.50319600859098 -7.019387946554273
11.901585569449248 -138.59664049056178 -7.037476249282565
11.759417752560338 -138.81415428465166 -7.027572570018161
11.461844923483454 -139.45888178414248 -7.0044731870038905
11.579360086019246 -138.9756014382856 -7.017451520348302
11.646767641033536 -138.71196473639566 -7.025182122930666
11.533250094102875 -138.84129543891285 -7.018165085997341
11.560245004942633 -138.6394612737092 -7.02322989640753
11.611413185811518 -138.44241724210403 -7.029286969191136
10.764750010745402 -141.57131931273202 -7.092594659274912
11.510555986521537 -138.42176412927384 -7.025852389804419
11.538754668556372 -138.39303595735845 -7.027541793983316
10.920842361504882 -140.5713821319624 -7.093540344667028
11.291756604851244 -139.01330700840379 -7.005294337516801
11.479885041976818 -138.33113772121555 -7.026607863412348
10.58905488419914 -141.68151710453498 -7.083254546483797
10.74504503686972 -140.77524908791398 -7.082053662573214
10.93471745104866 -140.04415133020655 -7.0950319899206775
11.34239049059046 -138.29354069657032 -7.022119488544278
10.369722631300814 -142.070034363263 -7.077994580862143
10.47677866260787 -141.71723564290812 -7.076940583352882
10.479898549527485 -141.49933018677908 -7.07312998968249
10.548056109592252 -141.34103243544064 -7.074943620524581
10.603179544989272 -141.1771801589888 -7.076317974855756
10.641545810228935 -140.99409302335755 -7.0767729103695975
11.264368798798323 -138.2596373311337 -7.019859641048614
10.357967880629827 -141.65081140512999 -7.0683076843651556
10.45841729426919 -141.50621310352764 -7.071902230515866
10.430882914666206 -141.34848700678677 -7.0674642062327715
10.889601778440637 -139.52997542665162 -7.096174218008719
10.86921952166364 -139.40337422279583 -7.096467263183854
11.163454717062304 -138.38230142653 -7.013113730663771
10.31480074262778 -141.6307813692365 -7.0652146341626425
10.291871255915536 -141.53194050914757 -7.061879392289447
10.428627734289645 -140.83818978840267 -7.060737650827909
10.788513650552746 -139.57379145444725 -7.088101680256908
10.774074533954831 -139.52252425824577 -7.087644221963501
11.078800043046176 -138.27309728795498 -7.012302261969359
11.213535016581458 -137.60680171516174 -7.033825195580755
11.310780295419857 -137.2499159081715 -7.046809787440143
10.714874064421362 -139.4755440748448 -7.083837889066517
10.818953994164534 -139.074899061385 -7.098590424555487
10.78328181492346 -138.9713566880228 -7.098237799927008
10.947094123153091 -138.36371964264154 -7.005128015318703
10.949392882077557 -138.29866445739378 -7.00676639595963
11.00086075822876 -138.2082645288921 -7.010814534511947
11.004947832884104 -137.9051650541238 -7.018367217716761
11.0507376642618 -137.85163237458318 -7.021414462775841
10.463107216688677 -140.00402153255837 -7.060519607231121
10.709772071276795 -138.95164912509514 -7.0932521069192696
10.730707842677717 -138.87548836811553 -7.096613166447565
10.757414953192605 -138.82269462979593 -7.099953542321541
10.88078553454611 -138.3573692617963 -7.002704550711307
10.874560809881652 -138.27568943397307 -7.00439520977487
10.866888342804344 -138.19804998776993 -7.005888990230315
10.931344338748366 -137.89528147171356 -7.015767714906516
9.610598583614266 -143.15178031710036 -7.070284390406189
10.370226414111503 -139.97203437368285 -7.053785931592886
10.528082155279911 -139.06583223838166 -7.077142788161782
10.639520721082112 -138.94400707692307 -7.08818945964087
10.653936774274364 -138.8602316241512 -7.091351792877451
10.638318030680924 -138.77580885168618 -7.092381264321428
10.77894182389109 -138.22793446161342 -7.0018546978114005
10.805358702239921 -138.04030187857444 -7.007424915567437
10.914069030781786 -137.59643553985302 -7.022880368218788
10.461226601723673 -139.29183790953186 -7.067741063702173
10.448645887484085 -139.11253391647696 -7.070189459283473
10.499406579669067 -139.03229917369262 -7.075725219075538
10.5171575888799 -138.9016255643684 -7.080139319749835
10.558079346019836 -138.86452676994435 -7.084077796941403
10.53826596551371 -138.74225398412094 -7.085902675921031
10.714376992846425 -138.0765013139991 -7.003010131453467
10.842767512100501 -137.67628132259455 -7.018112163132334
10.88005043558432 -137.24027538205098 -7.031302839526241
10.980353046596555 -137.09347139119524 -7.0391278126111505
11.057343917427549 -136.58247608717326 -7.056540285249217
11.195063281944034 -135.9948141576174 -7.078969267622248
10.176197533754248 -139.91674600644717 -7.039793307943104
10.407997831442197 -139.0661948067803 -7.068140245655844
10.48580826679381 -138.68962236316247 -7.083544286046597
10.525654867693177 -138.48335218248903 -7.092756066717285
10.679065909133062 -137.951173119788 -7.004822211691393
10.737479018866292 -137.6468053483795 -7.014988813034976
11.037420466542564 -136.22700974182237 -7.0664647287019475
11.081822769612423 -136.0070227497613 -7.0746841259329
10.38810129649054 -138.66765094498763 -7.076999866301802
10.362695943115481 -138.50836623339035 -7.0801442360505975
10.556685651012216 -137.77517774031378 -7.004827070549055
10.676986716412282 -137.2613634570899 -7.023434553512505
10.885015976809813 -136.3638331616835 -7.057153653951439
11.00120232398789 -136.0383156828407 -7.070980323783287
10.253901583653452 -138.57014877040933 -7.070301243019778
10.270293111902562 -138.4330791588575 -7.0760346887094245
10.405131619596087 -138.05975711855078 -7.099590665811863
10.468827869139645 -137.67402839541944 -7.004352243610286
10.550064343592394 -137.57258760105526 -7.0101114855037086
10.544816317701155 -137.4955362580067 -7.0120695612866815
10.873451732044236 -136.13898070857275 -7.063624439611319
10.192453003620168 -138.50363584723513 -7.0680446003432635
10.227101496847478 -138.48739752600025 -7.07106189832437
10.302280021526155 -138.1760919270799 -7.08778765093058
10.312515352318002 -137.91345182782638 -7.099249113330884
10.417135899130578 -137.6949522253298 -7.001844317837792
10.448302771212724 -137.58282653818344 -7.006070454902544
10.466597643757073 -137.47382345474355 -7.0098193289448645
10.49108249342478 -137.42948098399955 -7.011909742603828
10.515234005422705 -137.27946648187313 -7.017107746111088
10.520628148805972 -136.9892574202303 -7.025755833229791
9.514461492733425 -140.7443432716445 -7.082710540884132
10.060792050850822 -138.47317755261454 -7.0596729872581205
10.222128627407745 -137.83022139170103 -7.096757585808418
10.294405408737873 -137.5303349060955 -7.001961730524576
10.411823334289647 -137.3372994946924 -7.01168583024938
10.00991255744094 -138.52841654719242 -7.0540968390584196
10.142116733501927 -137.8038207310094 -7.092599349532481
10.198287553562091 -137.7459583598143 -7.098915380121437
10.21823905001748 -137.37620975064007 -7.00373318739533
10.260375676424644 -137.35930142781987 -7.00565813263026
10.344148994052818 -137.01793916672779 -7.018670855908186
9.90655244875172 -138.27325260403532 -7.056302417096268
10.065715276051503 -137.89019926320853 -7.083555160769151
10.095808068803263 -137.67304243565576 -7.095620783315226
10.108083977998179 -137.62668761631022 -7.098582590327666
10.169402032303559 -137.208758855116 -7.006919252470665
10.252838202833392 -137.1095228493293 -7.01281660099253
10.2539909342046 -137.0166818694563 -7.015627270886369
10.27045705257851 -136.9489276391639 -7.018195403454211
10.261793753310908 -136.71361314157053 -7.025094250884292
10.307180107613776 -136.59471640859252 -7.030309241431158
10.397583387228526 -136.52407649496894 -7.035621769791586
9.78344327491902 -138.46367407583202 -7.0403012163437655
9.87245423841176 -137.985925095616 -7.066278284444167
9.930232156421418 -137.72846602969665 -7.082163489513731
9.972976608428516 -137.69759092315206 -7.086421160316957
10.067013743231144 -137.15932745879007 -7.004817058216968
10.220872565954648 -136.80642483266251 -7.020912323573244
10.211895565192902 -136.690347804345 -7.024169488662882
10.19598255063147 -136.60059531393705 -7.026415700425634
10.494429136574212 -135.53606966021997 -7.071206346239011
10.549221222178996 -135.46545652717637 -7.075360736260421
9.622721023846667 -138.66983483077695 -7.096334001012417
9.838883214974544 -137.73833324557742 -7.075791320608011
9.890970389748404 -137.6409540810033 -7.083928924008796
9.923453386331573 -137.54752214227886 -7.09067915960835
10.130203378152673 -136.7540061772768 -7.019470119692189
10.067849502058225 -136.6553976999028 -7.0204018720621155
10.115117779422858 -136.62299566232016 -7.023058865861893
10.382650294754775 -135.51940717246137 -7.068483451763006
7.395815552722949 -147.54149078341902 -7.090281296895189
9.10772082848523 -140.27224547583688 -7.09116985438253
9.983413260643696 -136.70119352776643 -7.016193459256292
10.021990205294443 -136.68644702917453 -7.017968495547894
10.298510194300384 -135.5520949688018 -7.06493112237162
10.315907053605812 -135.45858203452974 -7.068679875646289
10.287193835964029 -135.38715352025866 -7.070313595047204
10.29382961599897 -135.29655524018227 -7.0737631907194665
7.338874139029211 -147.58800047050107 -7.0896545022770505
7.339797808639846 -147.5479646369185 -7.088540425272091
9.082776053812267 -140.27829488681868 -7.088312061029832
9.186617470732557 -139.5608043082216 -7.082426958197441
9.423922599596752 -138.9252997897454 -7.064639576606462
9.374564006682316 -138.721802435542 -7.001815515846921
9.459357091519445 -138.68621147626763 -7.009100729125182
9.456423113065913 -138.62087404328244 -7.081242513830756
9.943270979294386 -136.70792733303895 -7.01465051098785
9.954313508527648 -136.63034005904342 -7.0175333283538235
9.935341259475763 -136.5472029576077 -7.0197976617311095
9.992893778687577 -136.42724352735038 -7.0255717024971265
10.202988142972774 -135.35852413285218 -7.068911965258269
10.216523731050989 -135.22983412798615 -7.0737977177879445
10.262471387846993 -135.09481193100564 -7.079966346779984
7.04535883810707 -148.15503781963935 -7.095846652926795
7.155157053103252 -147.78671408816697 -7.089132364671656
7.190552227585365 -147.65632540921882 -7.086615320615824
7.223791536946407 -147.56577624419376 -7.085206164744272
7.26751557826201 -147.55954314340107 -7.086460403831626
9.082518609291814 -139.55785825399565 -7.014059650908647
9.214493248605944 -138.9819394996791 -7.040000199172587
9.341789660523265 -138.71908567502823 -7.064510591903458
9.327501414846216 -138.65540505284557 -7.055040800460489
9.368858432986135 -138.54518472734446 -7.076142758056031
9.404422760551984 -138.46463115115185 -7.084156830319066
9.383018114656487 -138.38243264925532 -7.086780854557467
9.430270767094672 -138.2732195709335 -7.098088636725755
9.824856035713964 -136.59166956971285 -7.014974038445758
9.868704334105253 -136.4985456179201 -7.019416337550649
7.006720336383519 -148.2688177290983 -7.097828364031157
6.981241291671341 -148.18296776288912 -7.094603077945783
8.99917183940534 -139.79812160275532 -7.058769836637292
9.058682251644232 -139.56193525304724 -7.011463506433022
9.07731725952501 -139.52821681887943 -7.06659357402525
9.181705083971632 -139.00016120552974 -7.035787639410773
9.22913890618033 -138.72837584354411 -7.0523215478536105
9.239388449431173 -138.60347285208502 -7.059762089417177
9.25552594657797 -138.53223842564557 -7.056140713131787
9.284895370247877 -138.41930531797092 -7.074873542970102
9.321834883511114 -138.3527073815311 -7.06552374080499
9.573565353565504 -137.177225080699 -7.089640940008201
9.66379113467394 -136.7336993257187 -7.005322559083281
9.771708428347774 -136.55912372226697 -7.0145459131794015
9.937121348425947 -135.55109692780198 -7.054614307874239
10.060293702668728 -135.24336967956376 -7.068916558859812
10.119900808025426 -134.7754225184241 -7.087273631122438
6.819290778536833 -148.2888937846697 -7.092599321704025
6.8870075373018125 -148.2248359698953 -7.092861385139094
9.12425976280712 -138.59108285364394 -7.048817460226718
9.17083463095118 -138.50237359283992 -7.058576500688146
9.16901903018822 -138.4081890222587 -7.064167098191863
9.238275545094856 -138.34018397676329 -7.075177523061773
9.501877918631704 -137.25479237799036 -7.081115093201243
10.06829694238929 -134.79487741341586 -7.085051840193154
6.7864248444188755 -148.31212206532086 -7.0922148425521065
9.041700732022386 -138.59873188325432 -7.078233859810701
9.179418916534479 -138.04004240928327 -7.090468416465481
9.372122265667237 -137.1144170655756 -7.082542739478842
9.976065868084294 -134.79629006910164 -7.0824786936601765
9.948333945722478 -134.7154587354475 -7.084551340360034
6.633055554026381 -148.56660348679407 -7.094368056315597
6.592626865115922 -148.49197720943152 -7.090855650382661
8.718212841059625 -139.4021068331553 -7.0960957352343295
9.222415524534298 -137.3529229098397 -7.060044497111359
9.224094803289562 -137.32329573458864 -7.0619577505847255
9.281920538489546 -137.14499181294377 -7.076068209727527
9.5197203067028 -135.93939801351925 -7.029000051118952
9.787381464728462 -134.94155069646686 -7.072142871294661
9.807917881946647 -134.85499492829413 -7.075782149897977
9.895631483370181 -134.44666854105148 -7.092764554674671
8.634277715670255 -139.439624238334 -7.077919872209604
9.034960828515212 -137.9128382875036 -7.087746659091817
9.19986191280135 -137.26556161101763 -7.0642855108953615
9.210156297364573 -136.87976774926202 -7.089329626785899
9.336634037021769 -136.3807395925039 -7.008291813036511
9.371665182183948 -136.28541636349422 -7.012610987363397
9.38613843200928 -136.21175903042362 -7.01563806166131
9.511612968853496 -135.92559199488343 -7.029380570004634
9.687041256572774 -135.00477258350364 -7.067189354793546
9.742028647159628 -134.8538073932056 -7.07397688500846
9.811560868952547 -134.66776302132726 -7.082689490557379
6.515575599517779 -147.9396404318082 -7.072865617885143
6.55219247940565 -147.88973522407537 -7.072571996124409
8.583479732628078 -139.3953485534337 -7.066832200042568
8.60348593012795 -139.34765973329266 -7.071553235365697
9.295989067166792 -136.0470970755719 -7.019109894340057
9.357544681557192 -136.01182053867103 -7.021941352255373
9.57196580483712 -134.89369344815688 -7.067966092041947
6.156154183231029 -148.90766729465628 -7.088243725793417
6.4411311227277555 -147.93009912446635 -7.07012851599017
9.553819136739358 -134.8714101473973 -7.068352713860007
9.551119875704183 -134.81457436502254 -7.070407240664816
6.26865489503587 -147.9499901034823 -7.06525917174806
6.093121294984454 -148.4607687135562 -7.073893124476727
6.132287180930142 -148.42048773277924 -7.0740830583796575
6.240729023368297 -147.93154382657826 -7.063779115453535
9.46790474412461 -134.08471749574758 -7.094666517362891
5.908885602094713 -148.95694160932206 -7.08212158363059
8.75417693350809 -136.59063546049632 -7.08867293465886
9.164680484417783 -135.02544078267033 -7.052493435835966
9.37737844428382 -134.1093912617814 -7.091430486607046
9.385447704551309 -134.08623501544562 -7.092386532147534
5.895646340217919 -148.38470850802472 -7.065914913978278
9.264433381643519 -134.2070771634401 -7.084968281963204
8.930493227174246 -135.02817425927884 -7.0464075145554
8.972907091501295 -134.97137543521558 -7.049615713153214
8.876660401080919 -135.1495448583933 -7.040726281020749
8.847497645440958 -135.03306879024808 -7.044178904705628
8.883822149642686 -134.9666006970216 -7.047564271836788
9.022680226260304 -134.23637899054705 -7.077678505383492
8.612200154320362 -135.57201135455918 -7.018573590716042
8.89724947376105 -134.35334863758595 -7.070396051985027
8.660459287930236 -135.10531242811788 -7.0368830453834965
8.660268598116103 -134.97755206724227 -7.041562077265196
8.663045344218357 -134.86508103317612 -7.045813121201406
8.754035907413225 -134.41222613073242 -7.064548909328836
8.503528055613783 -135.1461898875111 -7.0315785564280935
8.549275554771706 -135.10253208130626 -7.034265440054213
8.502267138163134 -135.00895012627956 -7.0365928027173
8.91186154782037 -133.5646387742543 -7.099518420519228
8.440045183391755 -135.15928104471908 -7.029553004439286
8.49163033547509 -134.82515899175564 -7.042967100606146
8.60829262976963 -134.42068848659522 -7.0606629868334725
8.340964841936676 -134.95152791524575 -7.0346921696088005
7.732261344246962 -137.17037303456786 -7.089543914604805
8.438406944744823 -133.67181147809538 -7.084071155841427
7.673665127107561 -136.54868862553334 -7.057187315976935
8.33385027685672 -133.19976981715217 -7.098925158346092
7.402759926193171 -136.2357267293014 -7.073801849410185
7.822884831921071 -134.81337443124792 -7.027613729932404
7.350354854796374 -136.21029395008972 -7.074648157684122
7.254923685229368 -136.16230138847988 -7.07629622608122
7.221974984268209 -136.13036202672515 -7.077991977478398
7.120522020108851 -136.24588272992406 -7.0680490760767585
7.180904207263288 -136.20398739345288 -7.072022565024524
7.06737188513932 -136.22473462256647 -7.068704447367008
7.03615016043266 -136.2048050205154 -7.069676114453637
6.434121270522111 -136.54539987666126 -7.0395672386176305
5.485314066235145 -140.1822877178194 -7.045395915394514
6.267044056911844 -136.74497575573912 -7.025331104164754
6.2968662716888755 -136.70531918001743 -7.02806804075268
6.344358210485338 -136.5873275726019 -7.036222952906882
6.385666450802907 -136.5649634511853 -7.037977817876018
5.264195088934282 -140.4726466058718 -7.069328042291646
5.347755370910443 -140.42128124795306 -7.061672393698557
5.42047300961254 -140.1009500582082 -7.049062191078526
5.476763138298583 -139.93429191062899 -7.0428094030735435
6.029091024648576 -137.44783965068106 -7.065438886315376
6.062122137874468 -137.38751628662712 -7.069973361862881
6.219290451200162 -136.73991773952167 -7.02549064462351
6.19556391483325 -136.6968057123183 -7.02831656015331
5.175781563783552 -140.53789372364741 -7.077724226628288
5.284966520447565 -140.13977675916342 -7.0605189425847135
5.288612799173828 -140.06310842646255 -7.059342385385611
5.329913685436247 -139.97152249989665 -7.055233224007993
5.325506093933518 -139.82832677036149 -7.055210929518396
5.875408672388579 -137.51751721494793 -7.063668233801168
5.915260320830065 -137.44195002380363 -7.069028757980269
6.137210170761826 -136.65330270757343 -7.0309974426355515
4.9128582533080145 -141.14719714922936 -7.0044688325769044
5.071131518771469 -140.61702410250592 -7.0877993586060155
5.143018194676452 -140.28523969017556 -7.074141601031453
5.153914663486893 -140.26126885081752 -7.072847934776141
5.198795407759214 -140.11726875052187 -7.067221068863448
5.235276856433613 -140.04453494037813 -7.063564469191698
5.211940407865423 -139.9469466733 -7.064966965253234
5.2456819157064105 -139.88063673163208 -7.061969489928596
5.269497319726611 -139.74882345180427 -7.06024774226767
5.8326234865449695 -137.52597876243107 -7.064237761949801
5.050813775341618 -140.3120578919481 -7.081893268217082
5.081132369433023 -140.21094142566216 -7.077923383781375
5.149149695875804 -139.9541737148583 -7.07023336279293
5.1863700821922 -139.80748726716593 -7.067100641414237
4.636057137540279 -141.62057633758732 -7.026347635883976
4.741393681662542 -141.24333598816392 -7.012923610859476
4.812547959257426 -140.84455788723324 -7.00226124469137
4.818093744637726 -140.62354871143472 -6.999021711349213
5.03583778717447 -140.04575355973338 -7.080086429270676
4.587406897341713 -141.38623845715716 -7.02184825020487
4.625066441349839 -140.98821453325166 -7.0122295278598985
4.938738235144666 -139.85869297756247 -7.088121869242824
4.944165044232406 -139.73457137226242 -7.088354847290079
4.978144286091057 -139.71978169012328 -7.085546900993262
4.594147334874893 -140.91138916825525 -7.012288881520709
4.832245210212233 -139.94174669848317 -7.09699671087154
4.864562667566504 -139.83498605277185 -7.069549876084107
4.477579892008444 -140.86436430624244 -7.01655064584812
4.5296910258260645 -140.67064659955247 -7.012178710174111
4.680354760629898 -139.97915984304575 -7.004980057063115
4.68427181781536 -139.9462667075211 -7.005083961571962
4.8188186661567105 -139.72286832992543 -7.000878283855873
4.381533243308279 -140.98229914312813 -7.022184992799838
6.19827295061756 -132.3296623761634 -7.082797289872129
4.695581736269618 -137.67417031569855 -7.095504616950353
3.8656559715144456 -140.8298281760187 -7.0433721013874075
4.609958692911787 -137.7065243337279 -7.097059650711932
4.652539595348843 -137.68969710527733 -7.096325920482022
4.077915209576721 -139.6425008504131 -7.041045890590754
-6.876091787904771 -152.06609495205475 -7.025946899119276
-8.672324499558435 -147.22365100133857 -7.0265764656710035
-8.94687441287449 -145.98625867696998 -7.037530883974792
-9.62163037028893 -146.328578110786 -7.044106648835591
-12.912719436597577 -156.40531167381695 -7.085078242022789
-13.36341328572464 -155.8144269713522 -7.083061642323405
-12.772550455005245 -153.70522064997988 -7.068309291002038
-13.665235208548172 -156.66227817991492 -7.090517146877908
-12.930613970756148 -153.71007710147194 -7.069380174492141
-13.75195084074975 -156.60958451680398 -7.090434305306489
-13.706288969790496 -156.45287385517403 -7.089224990866812
-13.010938506486948 -153.60889495422774 -7.069640287173296
-13.758807878438382 -156.37144399973175 -7.088813516681415
-13.754627350147949 -155.77123105574782 -7.085063497492629
-13.600936872125605 -155.18362845636636 -7.080815956161046
-13.764496579964703 -155.54123558078612 -7.083779533580517
-13.6954922743763 -155.37068951310775 -7.082306880523059
-13.708366432516673 -155.15006558478518 -7.08120705365201
-13.327803120339205 -153.14138973685698 -7.070635588350177
-13.999924332875569 -155.83933804196687 -7.086773897472122
-13.8901035535899 -154.05335566384693 -7.0778698743535795
-13.551025246390179 -152.66347635938075 -7.071581731113917
-13.57948228113365 -152.37627329413598 -7.07155727676894
-13.656156798225588 -152.63160092128896 -7.072549540303836
-13.980365693979007 -153.3645411990097 -7.076582131603175
-13.730584686764374 -152.36725107941356 -7.072874537489342
-13.715647197735578 -152.26121824657204 -7.0727274627290555
-14.032620535411077 -153.2913877733785 -7.0769549009360775
-14.015081783376228 -153.17091869796454 -7.076490031626856
-13.986891720672606 -153.04418228671213 -7.076105023223831
-14.068307760063725 -152.3738402586866 -7.076050598497425
-14.10194373517091 -152.23989345080568 -7.07636781167022
-14.037279951713831 -151.84883382007308 -7.075800849205577
-14.014949010247452 -151.7355607289143 -7.075564790954256
-14.137155523077851 -152.10993108179684 -7.0767322104183
-14.12117642355907 -151.9988844133444 -7.076522484991822
-14.072711551745442 -151.67092993484044 -7.076259954249217
-14.112149905340875 -151.59346488872325 -7.0766693392663065
-14.13568520134056 -151.50691411265703 -7.077066839162236
-14.144308932196981 -151.41364708983576 -7.077205714231186
-14.110783707791153 -151.30093373572024 -7.077064780243838
-14.17225100828589 -151.1388732614118 -7.077990354047297
-14.16805727120396 -151.03740418044006 -7.078082111595358
-14.222940352758553 -150.9689771718049 -7.078885183338937
-14.162560642460651 -150.7412620696091 -7.078753646700536
-14.336844218587672 -150.54438147865488 -7.0812357843112
-14.652092715504633 -149.66251998670256 -7.088671450866242
14.772121842503148 -138.3193714970729 -6.903180548365661
14.650740587549016 -137.84293362203678 -6.909409604629275
14.672863653863951 -137.70974888938056 -6.91123683851391
14.699040179573831 -137.63676167272266 -6.912406213179843
11.705048711643952 -149.3052755283157 -6.995701742776884
14.47743998422851 -137.85465736249532 -6.908266857529031
14.274155503815422 -137.95762081404845 -6.9058678631454375
11.591060983614865 -148.6612417757336 -6.990393642919655
11.61352880154356 -148.44654845342095 -6.9901677010707575
11.66103124194456 -148.3838406651805 -6.99123177620981
11.561842269047741 -148.4593126153239 -6.988874671378064
12.082979769986917 -144.64977253129385 -6.995963288678051
12.203115518427321 -144.31992684750298 -6.999997002183877
13.928171443102645 -137.186152441154 -6.914233085360598
12.090491133430572 -143.71301161589415 -6.996827941921885
12.072491193077438 -143.48551067577947 -6.996658976516818
10.674298511547791 -149.15346125049666 -6.9692686350576505
11.993257129837982 -143.64653162543158 -6.993710638840049
10.541714049862742 -149.21489537606942 -6.966423438093155
11.726112672449466 -143.55710349449518 -6.984890836698671
12.06781843917637 -142.4257382059059 -6.9997611216056494
10.27029136923806 -149.59171784408363 -6.961989042786574
10.144532978140447 -149.54325940174863 -6.958959767672764
11.64822517251379 -143.01349911478184 -6.983071150994139
10.655671609673835 -146.8284782596872 -6.959159514076203
11.037815746878632 -145.5456359176473 -6.965748243760964
11.822002604815212 -142.21163920281708 -6.991854788418178
11.804883190684926 -142.14595801799445 -6.9915698272760425
12.93718300813725 -137.1364645096131 -6.909323598855899
12.967439815903896 -137.0373950960225 -6.910633294244684
10.614293687775728 -146.8376563707525 -6.958146422207986
10.499448291273373 -146.66278868830406 -6.954548926896869
11.543164884240081 -142.31168958075963 -6.981429325823526
10.759864087523228 -145.23320359489105 -6.957040385685988
10.784547580215063 -145.15657906872605 -6.957556922891643
10.340129727906273 -146.36870001133582 -6.949300599727348
9.657740911888048 -149.17494276335808 -6.94651973242994
