ply
format ascii 1.0
element vertex 808
property float x
property float y
property float z
end_header
-8.88178799063173 -21.041444113666294 -0.3168017399002755
-8.854617785648522 -20.823094508009724 -0.31062238819495747
-8.861129656880776 -20.663531570044682 -0.30559213085841164
-8.911302415191292 -20.589141362532107 -0.3023372424498543
-8.974752556180682 -20.550442571007828 -0.2999117769057582
-8.957232238492216 -20.36201729716916 -0.2944144833792237
-9.040421383941862 -20.34841911944878 -0.2923546160701356
-9.110740591799956 -20.311904552304885 -0.28982096829338816
-9.167820020102642 -20.25497618536084 -0.2868998075519753
-5.502746789015959 6.514318554506165 -0.2690888335997599
-5.758435670538131 6.318117684729682 -0.28947818081215465
-5.836588946947688 6.269242083263022 -0.2956892719687982
-5.962073736586635 6.191374310650408 -0.3057983033522612
-5.921751926640309 6.226353900402636 -0.3023523552445487
-6.089266885512588 6.04086652884399 -0.3175858250841666
-6.09062175048885 6.113145749611775 -0.31630043027585786
-6.0671181962726735 6.164894873855518 -0.3136648491453124
-6.211455899369452 5.955101365217326 -0.3280214244666426
-6.19459249708821 6.009873856233018 -0.3257140534670658
-15.672401134734866 -0.6069792246870075 -0.27828394624948594
-15.60205010090154 -0.5162354840506304 -0.26968779243829993
-15.895402245072098 -0.7271858075538503 -0.29267447021742654
-15.99957705666662 -0.8474245607621369 -0.3043457311299965
-15.96095623602326 -0.665264246335777 -0.2894138329987733
-16.36084475990797 -0.9699182197598918 -0.32212442596133933
-16.345274261398693 -0.9085705080599552 -0.3170260482899515
-16.47415707899073 -1.0335978095403506 -0.32965854625270263
-16.3714811105322 -0.7860830461645797 -0.30817566155306453
-18.925341641975574 0.12664279207154994 -0.2968794842394461
-26.734193224755597 -10.88269894306378 -0.3005063415376037
-26.812983030732685 -11.131365668142406 -0.31736275254757745
-26.848658134914196 -11.032251495117375 -0.30991081804507675
3.1828084912992187 -1.2619495560093732 -0.16793463954689278
3.2118337667879944 -1.2193239752605614 -0.1671819390555485
2.925822087266722 -1.9885824182888356 -0.1871083378546952
3.047704556249096 -1.4493602026396228 -0.17335876497900396
3.089670795310938 -1.3954251060823522 -0.17173848223355115
3.1297501587992826 -1.299366485918151 -0.1789041065547275
3.1530458927700664 -1.0596114701018449 -0.19440800860937532
3.1817080411784704 -1.000391376568138 -0.19367884048483802
3.1936604549570347 -0.9016711407643833 -0.18672962205024674
3.18848857794742 -0.7971543161641155 -0.17737768841264626
3.2123167144311537 -0.6980062060632972 -0.17522090044681943
3.232165920619255 -0.6055063208125991 -0.17385260163834865
3.2313170502635824 -0.5488133237136935 -0.17104063490720697
2.881897766890169 -1.9513046330643082 -0.1773862665938294
2.9227063015593506 -1.8931921269974559 -0.17156002266495005
2.8969330541718623 -1.7127680808808714 -0.19508038095594069
2.942186676632499 -1.6691791671645235 -0.1958334605332287
2.9541428686863913 -1.5674987382324022 -0.1914532072978443
2.9730233294219763 -1.4710048738419854 -0.19834156807920936
2.989793944167301 -1.3661874653253223 -0.23005546559661938
3.028800856249726 -1.309426739758849 -0.2225776661211188
3.2067184330484473 -0.560626201798798 -0.16698225973032915
2.647141319779564 -2.4028313067262004 -0.1733343742138958
2.6885050499306473 -2.344477825329319 -0.16623016007560726
2.7126309486784486 -2.0979382343228368 -0.1886914928667972
2.734628648930989 -2.005898192469078 -0.18149043599107315
2.762543768887246 -1.9363651785496576 -0.19853318019022287
2.804323662194605 -1.850072298923181 -0.20874930771509714
2.804030929243254 -1.7269666135284105 -0.2090868898610953
2.845731181972991 -1.6474835527352547 -0.22516102174415148
2.8738769785234983 -1.545263917590595 -0.24535596512667282
2.895939244063401 -1.4511140018276059 -0.2520955526511571
2.933731783212064 -1.4006184536143693 -0.250615017045927
2.948825807190885 -0.9649180263781654 -0.19270940465469283
2.4656119469527145 -2.949826786495397 -0.17354969657706482
2.455854063084925 -2.919654209200489 -0.16959590599545235
2.5443404762377653 -2.556674724021825 -0.1933204176741294
2.5476719942088843 -2.4958198159446416 -0.18394849380823536
2.5874696993709927 -2.397055041487346 -0.1858496443334654
2.603563188801009 -2.315654625927622 -0.2204492995699899
2.6295570616980743 -2.2036992722315087 -0.20174705537389634
2.647577772505528 -2.1097821954385605 -0.21309122897236224
2.6802355427612223 -2.0161731317078075 -0.21037359915447537
2.6742090077229825 -1.9202904842109239 -0.24250723481383432
2.708252098873767 -1.8225212194758862 -0.24488753194426777
2.7428458824522854 -1.7444743261158808 -0.2420680014580124
2.7636021698938276 -1.6365263456147692 -0.26418363003905393
2.748757952709936 -1.4017088607729398 -0.25857580932552426
2.793675744093296 -1.3508278195570251 -0.2589678529867597
2.865389227904114 -0.9998287212302222 -0.17766040998361057
2.878812852377594 -0.9369834232168743 -0.17415474583723334
2.908271859055859 -0.8477229593090119 -0.17285480404568618
2.9095113608569245 -0.782119961448393 -0.16811939891416583
2.3238829492067934 -2.9685652292163054 -0.17436058123343662
2.4112990717248124 -2.6480863440449953 -0.20373039983212773
2.431424669031984 -2.5823074981291128 -0.19384975416484296
2.4560236440768253 -2.50008127878029 -0.18157766745532702
2.4966229959657387 -2.366905278212636 -0.22398245217252805
2.513552214831769 -2.3104296861417346 -0.21432969430255022
2.5222609546151236 -2.1738421223955777 -0.2467053377948052
2.5756730314538148 -2.1162761548060938 -0.23886805698132516
2.5709689403778295 -1.9761191003720253 -0.2576677082249879
2.609419727228837 -1.9395859012414236 -0.25828249865124847
2.661790860768358 -1.5087288402497818 -0.2628540810154025
2.710481160917926 -1.4402922535516816 -0.25799741593310926
2.7495791182332523 -1.3107262873105405 -0.24060720127928237
2.7002022764376825 -1.2517184499454224 -0.217639127110688
2.746507401827966 -0.8895824412774918 -0.1792419316267683
2.751161004843957 -0.8459665786315486 -0.17658705066152874
2.2709477736716264 -2.9238872626927166 -0.16816133340659492
2.287246924216478 -2.737339449052577 -0.21508953719318136
2.3306611731421083 -2.665602414437815 -0.21292229439234944
2.3256919385732457 -2.5769458542361203 -0.2338297790423181
2.3884751238021695 -2.464526849577414 -0.17390370294558735
2.381119933943988 -2.354878941365561 -0.21604610979996564
2.393096578336059 -2.2759856860042915 -0.22862205430442784
2.4256389771705003 -2.1929174265252698 -0.2436149777580297
2.501210529229486 -1.8039845284156133 -0.26129575577109887
2.569164548756472 -1.5906802876969042 -0.2636021288828754
2.636825591739476 -1.2576591460116324 -0.20338970368272866
2.597072334612113 -1.2292167107800551 -0.1884362113623413
2.727199228938223 -0.8998497210207079 -0.17508774753569073
2.740841427889976 -0.818587689322854 -0.1717751985676956
2.090215260068034 -3.1582985287642735 -0.1972696305418391
2.21987957045552 -2.8113066309202837 -0.22579948053228752
2.2111153753152233 -2.758836567123858 -0.21714608540225652
2.2591089746355193 -2.621090229940262 -0.26283644730017536
2.2875661836826455 -2.526579609968117 -0.2453313159670097
2.282830355223144 -2.4337130910840408 -0.22711110897570277
2.3038870583642552 -2.3481631547078043 -0.22673128103499107
2.3314172795740884 -2.283348737361467 -0.2575454722489024
2.3647642489664236 -2.1930018507283915 -0.23945291221317772
2.441461260615393 -1.7722610540232044 -0.2445445587154275
2.427478585264599 -1.6825949370437054 -0.26206885103610916
2.0285721253959736 -3.10813377188386 -0.19060889209982027
2.0443984525465844 -2.9899569377892012 -0.22666292394583656
2.0543247528231956 -2.905952344914088 -0.22019561640405586
2.0906164589437775 -2.78565080138119 -0.2197187362143492
2.117541665958487 -2.762726870872404 -0.21629549902435208
1.7509062532774433 -3.7744709064468984 -0.17405258329989934
1.7836829473219926 -3.7018236505206543 -0.16700498287195562
1.8645809139957037 -3.2966199383329466 -0.21503199535688547
1.8969788928309947 -3.2024117722399112 -0.20275088425483703
1.9452965481052482 -3.0856021059588974 -0.1875755425850187
1.9490482521461703 -3.0056252001650288 -0.25472685146627455
1.974653290821735 -2.9102099211245887 -0.23912725443286661
1.6795253905881085 -3.8343194644958842 -0.1801058115287026
1.7009530352127324 -3.784998989713774 -0.17531517587318088
1.7401364621596807 -3.437119518757906 -0.23369839114020294
1.7731657642072454 -3.3777505657318323 -0.22584308478440715
1.8283503522923663 -3.3205030499630883 -0.21821362764807284
1.5495206017934655 -3.8216259360680236 -0.17967568621536648
1.6109135988759185 -3.721577762707412 -0.16982238625371224
1.6152969170998028 -3.6825729189380767 -0.1660997672596287
1.6018865901562005 -3.516303885917819 -0.24480389951097642
1.6449842474096246 -3.4374468436385586 -0.2342571420954348
1.6943386843662203 -3.374919308516075 -0.22582842771680495
1.9544685328488942 -1.9753232336085116 -0.2563210872688295
1.9650206481755061 -1.8597114015736436 -0.25096518779328053
1.4440835987437326 -3.932548475572403 -0.19088092399517326
1.4785000768763514 -3.8145306501233556 -0.17947141913353581
1.516572056206433 -3.630690634305918 -0.2603627009996327
1.561544640502736 -3.503894846380101 -0.24350450245500663
1.5939759613170128 -3.478328367905165 -0.23992241706002698
1.9001483234129324 -1.9612414014175281 -0.24962649137608425
1.880571825388678 -1.8477123514519591 -0.2533114483167104
1.932613287133733 -1.809095383837373 -0.2425422044565193
1.2775191451967272 -4.156582014437392 -0.21329850501085063
1.3121983719617003 -4.110931818591112 -0.20871528313864351
1.35416028846009 -3.98435313509724 -0.19642537009741723
1.3913871569956067 -3.942095347943701 -0.19215507139967553
1.4084547283480087 -3.81667178657427 -0.18016235208461545
1.7564609728570681 -2.0083868338648285 -0.2611265679880548
1.7483434305445655 -1.9417400775562834 -0.2451897762641773
1.7777562224863395 -1.8625271031955033 -0.25524888147692415
1.1699670411925636 -4.249649900174167 -0.22295180382932409
1.2065959197526046 -4.181711997912217 -0.21623431755042624
1.5991239415976242 -2.1657471783852333 -0.2615161716722766
1.6022484133908 -2.1230993465650307 -0.2497271663702199
1.6614748194690583 -1.9874591216220094 -0.2547122964009787
1.644353896145579 -1.9315211687036904 -0.23741884062943655
1.7074431096956924 -1.8234588571732808 -0.24079990042750415
1.057749658619841 -4.32790170919274 -0.23128815804147418
1.051850103789073 -4.227604833936383 -0.22186795445553864
1.1258283802312217 -4.149357311526744 -0.21384093188628742
1.5306174192748554 -2.107423813487098 -0.2471552366665854
1.5336306676396585 -1.9909413329972923 -0.23974358594113976
1.5529008762334773 -1.8940194359035252 -0.2188818754043925
1.5914613081403408 -1.817175397910981 -0.20280803984120704
0.9304604409043923 -4.392120845600044 -0.23848754254554333
0.9715857269728776 -4.338987844167586 -0.23310035454070327
1.035585013061262 -4.185999269961235 -0.21808340187020195
1.4189058068423936 -2.2230342620569914 -0.2306817728090348
1.4222575179976469 -2.073675069347546 -0.20296762788517533
1.4454575812195043 -1.9820049250883724 -0.21417243995899682
1.4675968047017443 -1.8508010649788946 -0.21396067034024938
1.4774417555845976 -1.8088373333500858 -0.2071037211517288
0.8010600813643916 -4.669408235514558 -0.2658451835771946
0.7778959562099952 -4.591625597215278 -0.25873562763287483
0.8849187394241004 -4.39238845834986 -0.23893654398952688
1.3088324076474933 -2.334055298345466 -0.2611934676475188
1.300115518123952 -2.135611485403324 -0.2654376665217782
1.3307824651080786 -2.0392727727539306 -0.23782904359072338
1.340138540923162 -1.9736898073408695 -0.2236022027620836
1.3342438198710083 -1.8652360347128887 -0.23203032529281664
1.3951166694351347 -1.785159052521024 -0.21618189288343273
0.7240673822227779 -4.583958146285701 -0.25854175593470874
1.103180725769163 -2.51391959042856 -0.24894957770021714
1.2015285533384468 -2.296776795970263 -0.25796965098390945
1.181059158804051 -2.2321692710187335 -0.24435117691295616
1.2236519714231484 -2.11346447676073 -0.2544789123030453
1.258536954417138 -2.031732702179201 -0.24062315559930345
1.2413489856849709 -1.928327600019464 -0.20484571704873655
1.2568362519223846 -1.8603224883989489 -0.19583301118967308
1.3009664513761299 -1.7507285259650054 -0.1947099122677411
0.6136475245269476 -4.627487838307224 -0.2637529675374139
0.6022370755903018 -4.568290047782171 -0.25830546466000337
0.6334787067641806 -4.508905112158974 -0.2523957631305231
1.002338190103865 -2.5496562266906944 -0.2608200931177112
1.0581595027060233 -2.4765618554874296 -0.24387005767171194
1.0987222306971385 -2.4039139074053546 -0.2277754411193365
1.0973069115381056 -2.287925680560292 -0.2507653172015203
1.0879294408269289 -2.2029747677519116 -0.24383177755434016
1.0853567147936132 -2.111948817580751 -0.22358215566505568
1.1588787452343174 -2.0196998398118584 -0.1976059276956534
1.1731010144432568 -1.9030484521675988 -0.2208179943661788
1.1905323513238826 -1.8412483240765163 -0.2316897708651559
1.1720907148987396 -1.686048899333827 -0.23470194220011673
1.1593343413115331 -1.6355921270994718 -0.22097157527704123
0.5332123985865269 -4.632967426998518 -0.26511042794050727
0.9025628969411125 -2.5346930464938167 -0.2633959030324837
0.9958127583108114 -2.4055134313834152 -0.2334788703961948
1.0054136210004678 -2.165101347774534 -0.2414704814122451
1.036440054362012 -2.1364557397947523 -0.2327078904388537
1.0944521526285924 -1.6727636202409928 -0.23404171605968688
1.1126701847531142 -1.6346826292737322 -0.2282546021760119
0.9268923572523772 -1.9206646350416634 -0.2444124864374284
0.9301700944397128 -1.9003025555075412 -0.23915978281577835
0.9472627394605583 -1.7697483756778218 -0.21343184399236884
1.012524657360479 -1.6852559039523813 -0.2186113366541395
1.0011212895083104 -1.6033740191390868 -0.23873007565898186
0.11514442618754317 -5.436248702227596 -0.17479106629699948
0.13250981872120637 -5.334541484597489 -0.16863471800147556
0.6410562254644653 -2.890544201832983 -0.26369452987124187
0.6642126835281604 -2.840036833645328 -0.25477429693287174
0.6837512268996049 -2.7336622017854766 -0.2372821144618834
0.782784869417702 -2.1054520523420193 -0.24842740709031483
0.807490882133812 -2.0609797622968338 -0.23672664025409534
0.8284440016471813 -1.9473584737883267 -0.2183659736389553
0.8456752159725938 -1.8716047138056018 -0.23746497999281815
0.9176239579790472 -1.7833698912429634 -0.2132038591094132
0.8984416986588667 -1.6714243941780782 -0.23341799421385198
0.9157364746261396 -1.5425593011536536 -0.2389268217984307
0.9581765633470735 -1.5141461252869957 -0.22257804521327176
0.04415694926019076 -5.363625434123605 -0.1703702587971341
0.6529882978753868 -2.4189093784587694 -0.2582269492725727
0.7250838772644635 -2.113685119096237 -0.22645497515368063
0.7181415607952208 -2.0035326829923417 -0.23421354863968155
0.7477091534320158 -1.9239742184720603 -0.21508635769996995
0.7609279432460359 -1.8353216809421529 -0.2418387866635061
0.7500461384884657 -1.7505299615095438 -0.2290116440637921
0.7960955776231915 -1.6317897285870013 -0.24150619074816115
0.8343662370868776 -1.5012064485172392 -0.2455793223143535
0.8202769137902957 -1.4667659920079252 -0.24035897428496455
0.8362334396884475 -1.3704383342362219 -0.2142389460887379
-0.09915433660135942 -5.6268372744776975 -0.18626828042667606
-0.060634528833668044 -5.524024931497431 -0.18004961267498432
0.5577776035401933 -2.381052789768045 -0.2586434953754586
0.5411406550489751 -2.300507246052036 -0.24573690332149506
0.5536638213258311 -2.2048670375695947 -0.22802282312929656
0.5882737698593736 -2.0913607670372976 -0.20550524750205854
0.6217223073193548 -2.0077847484945606 -0.23727130712895744
0.6374628221847386 -1.9269995578412253 -0.22816604245476166
0.6620442773934174 -1.8039456040529742 -0.2244852873808117
0.6944801503223291 -1.7542159568745854 -0.23802169773738555
0.7088298162634028 -1.6053816647690997 -0.2514999612792214
0.734051264169965 -1.4246723577361653 -0.25048306599320375
-0.396558118475725 -6.304339528135172 -0.22722247499577322
-0.26555619563110255 -5.783328477085609 -0.19565532389636472
-0.17079447423443672 -5.6145681863695245 -0.18547235764449743
0.32640136709856526 -3.0527294752503047 -0.21179617935708345
0.32875460944585355 -2.72192987412211 -0.25398567053042787
0.3395950735688227 -2.666332969546519 -0.24509055000026828
0.49665642084177897 -2.2458062317761645 -0.23992930142131647
0.4735785668278094 -2.1739414258471896 -0.22968452165321815
0.5481254985165297 -2.1031784736576444 -0.21103983322348077
0.5696389652422413 -1.9771152860183638 -0.24569102432998005
0.5475240650861252 -1.8832952734436 -0.23058263941402454
0.5676511144247539 -1.77664110712216 -0.2620768465256731
0.6257144363941006 -1.572897591146208 -0.2604840196765667
0.6039868731983101 -1.538227829585157 -0.2575071513496186
0.6631017753744491 -1.378110584692341 -0.2575045761421906
0.6281386782855571 -1.3263210360230189 -0.2557516580617245
-0.45519345556006185 -6.180699598760496 -0.2196555762039599
-0.4329877219222453 -6.071249300881323 -0.21301582742839964
-0.38560525757369213 -5.878153553872883 -0.20130596489984962
0.26914037235194344 -2.7430711716097775 -0.2605787989458949
0.2809683218055745 -2.669142677530925 -0.2489527912048434
0.37484323012399545 -2.2441150431064654 -0.25037334498292546
0.39851297043405354 -2.169503426231489 -0.23568529518749867
0.4193728611133629 -2.1021460518074866 -0.2225505543533297
0.41492103042379447 -1.9651076997447532 -0.24680354072989721
0.4186813583877782 -1.9006620564721828 -0.24993399239613856
0.5070312086873747 -1.8203951532977567 -0.22411231004651969
0.5199421362976062 -1.4789763656209096 -0.2630044608566903
0.58228372812257 -1.2675734584273057 -0.2565031971911085
0.544674834242014 -1.2148219740664312 -0.25711928808602663
0.801551195904074 0.038143742314715734 -0.16653359708594986
0.821523828236126 0.06905468292034878 -0.16611612366080322
0.20609300200929614 -2.707705571952307 -0.2590710459666823
0.18961914681284475 -2.6358727992633235 -0.24960026216751877
0.22494865655657081 -2.522236566921488 -0.23093548685726342
0.2628775033710149 -2.2348696059882567 -0.25907863469864373
0.3657673817962799 -1.9289283490626734 -0.2618220882364446
0.47215897314266075 -1.430339326089703 -0.26397814777983386
0.4403594994258524 -1.3801424912376796 -0.2619886501862071
0.4998141650340895 -1.1597922768212405 -0.2603238945392163
0.4757797104018435 -1.0624794973847447 -0.25308698725664247
0.6295117197465604 -0.38913289956217645 -0.1757360224958122
0.6571716109146195 -0.26816621530299417 -0.17351819278759203
0.6576506502573096 -0.17668941989959264 -0.17861512212672281
0.6973704678174087 -0.08132331490241063 -0.1768029161926243
0.757683486756445 -0.02878831282368488 -0.16856508088846567
-0.6113598369672189 -6.237229152397914 -0.2229211945783987
-0.6177942630441828 -6.151896941176624 -0.2177040691321796
-0.6087344875009508 -6.033063069151682 -0.21045971079453485
-0.07799306295260999 -3.2796661838280725 -0.25337203051378393
0.11501217271726549 -2.6480953333172157 -0.2560257322615513
0.1309402944221194 -2.1902845089362764 -0.2645551118336815
0.3907488602872009 -1.3267570535306248 -0.2640015911245499
0.34762374339877744 -1.2556467266550668 -0.2626939666478519
0.45926454789813365 -1.047163375262419 -0.2555758659685991
0.45430958987966497 -0.9527758901939941 -0.24601681716910925
0.4410481151410395 -0.8481438948867309 -0.23976860819653453
0.44374780556916993 -0.7518048122104791 -0.23207054440305402
0.46185409657557397 -0.6939474858088498 -0.22385001917980787
0.5154559828496097 -0.4221983498419397 -0.20430212311138182
0.5749822889473303 -0.3871608477955964 -0.18969323563632895
0.5945476474093434 -0.28780193297341417 -0.18778465240065154
0.6372369682268038 -0.15773248477715052 -0.18452380967810778
0.6445143971970031 -0.11396589714915528 -0.1858856360556411
-0.8343015844657273 -6.704411199075908 -0.2511250104989668
-0.7401603946614816 -6.130186381648151 -0.21618176788747986
-0.6780473336400554 -6.065190364505442 -0.21231069819595305
-0.006666052931707744 -2.630497666018924 -0.2613721013129543
0.31431971487147714 -1.1973218340206546 -0.26186741668634944
0.297589332232463 -1.1249147752527127 -0.2561788834753892
0.29042828417579414 -1.0219060582991517 -0.2456465389822468
0.2872883198151108 -0.9547157518389742 -0.2392919335244686
0.48436838766664914 -0.4310876326250625 -0.21227164267716728
0.4164642567754746 -0.3205611979347904 -0.18068516099483603
0.44997331598138723 -0.2342736921279358 -0.17474462451529754
0.4817688501738766 -0.18279175064617614 -0.16931998533811557
-0.8429630314722334 -6.159377503280416 -0.21777701610230288
-0.788487922227791 -6.114399794860525 -0.21512480763279684
-0.8332733576078692 -6.043679551721789 -0.21069882446246735
0.26667369650931905 -0.9070222099958796 -0.23968998376818873
0.2548638325410777 -0.8047805197276671 -0.23407513205803612
0.25613516852041807 -0.7178186631865379 -0.2279285312341465
0.272139768601251 -0.6237416920079406 -0.21919415815836785
0.38480196244506293 -0.3125949358811493 -0.18765394492771956
0.4059982995370819 -0.24229006134631792 -0.18391837028232638
-1.0468718757164313 -6.743063952983546 -0.25314704322567655
-0.8924974055492951 -6.051062651913098 -0.21102520537463748
-0.917987182125819 -6.0115868185315975 -0.20854027417065574
-0.910243263751263 -5.908033817918033 -0.20219173012688446
0.06795051870242297 -1.254535404040348 -0.264734036101895
0.045947524789847094 -1.183434122650067 -0.2602761453826246
0.22219238650664308 -0.35110781400412033 -0.16761836784506948
0.22920995919541065 -0.3392918523157544 -0.16609305863607676
0.009382037815322652 -1.1383232989008296 -0.2622126465374301
-0.008007910141784702 -1.0681972952194183 -0.2580253986323819
0.018349511660825657 -0.989148133465347 -0.24481503817119002
-0.0007536505809728755 -0.8332564151467687 -0.23490300182370566
0.05869028981196234 -0.555878046212902 -0.2058957822634742
-0.16352985478883952 -1.4560338018799786 -0.26543661284336995
-0.1846510872329019 -1.2915908835633005 -0.24862895024909484
-0.058525199647287085 -0.9591289302466043 -0.2573103581813111
-0.028944397383063647 -0.8583417327269709 -0.24261612418642037
-0.029675079390034442 -0.7474303251214182 -0.2344574338269286
-0.019209227311991928 -0.6587161573434817 -0.22674042661176497
0.03340740886899285 -0.5751383799995338 -0.21182109131929264
-0.23394134819906798 -1.3079219048208013 -0.2584254613682254
-0.23293557898629613 -1.1813836838061607 -0.24415430734667634
-0.33115375321185625 -1.2128796048778125 -0.2634458324444766
-0.3662783369967155 -1.1175283667617266 -0.25925957354647217
-0.28995848106406674 -0.7649478010803054 -0.21627991348395423
-0.1589438733377162 -0.32589286318481636 -0.17131237869595486
-0.16225508781801512 -0.17236472770765066 -0.16721128203613966
-0.498957730494634 -1.5012825251360993 -0.24175722307323688
-0.4966580249126462 -1.2521034605961234 -0.21469344117774578
-0.408424696967439 -1.0845184861872263 -0.2629406661344896
-0.3558170312255591 -0.7899859183597766 -0.2289562486788533
-0.34580874347935575 -0.6813199043605327 -0.21970801636011983
-0.2958013472798633 -0.46495171497005483 -0.19909842729214852
-0.31420179908301815 -0.4377588426672274 -0.20076250610921456
-0.2417882001984366 -0.2817650577999045 -0.1828895266345685
-0.19092636824246334 -0.17631197089328887 -0.17175467498982663
-0.25578750138446704 -0.1456835211861055 -0.18104490513154992
-0.6268061489859051 -1.5261867199821135 -0.2603957604173337
-0.5293117307870525 -1.2501468609334987 -0.21863387237103146
-0.4805683520622641 -0.8344978839996444 -0.25285658858480786
-0.43564473284223526 -0.7468721766493479 -0.2389368467207866
-0.43015209137229626 -0.6874871018884866 -0.23397088976228958
-0.41362976211779734 -0.529553904039164 -0.22157131021743884
-0.37254010902253043 -0.4667378458482742 -0.21163626479064987
-0.34348799568802346 -0.37672163686848176 -0.20272595638120613
-0.6887966877382077 -1.3390870787939793 -0.24788982398695728
-0.5265244257270401 -0.6858961906875196 -0.2496128764410876
-0.5409504540893324 -0.5706652351529061 -0.2446914368606202
-0.4860590590508198 -0.4605308296949695 -0.22966881395003078
-0.8033544091606535 -1.282045028900632 -0.2565839195834755
-0.6557977893929801 -0.5917973792702178 -0.2647365417161696
-0.6244277017198612 -0.5304825733048916 -0.25598853956529843
-0.6066084618139818 -0.33669340790685554 -0.24321607881218352
-1.0072799814588334 -1.7785079778398265 -0.23480681541757917
-0.8492217648512743 -1.2842938046520755 -0.262634998729613
-0.6624640439229332 -0.5223112783660148 -0.26171410099793113
-0.693857824750407 -0.42756621929769656 -0.261689507413932
-0.6806193681700665 -0.32410156215093056 -0.2545777097213801
-0.9421176622951792 -0.937588726386774 -0.24299643005309512
-0.7411873157013673 -0.3330379703846276 -0.26470046521123036
-1.1552331858541591 -1.8571679075670755 -0.2562907379884387
-0.9619184301930681 -0.9383549792215269 -0.24560881766269588
-0.962669484523389 -0.9203403055601722 -0.24422271570146153
-1.0339266838285717 -0.8190900488523902 -0.24536153113719492
-1.0317495665490486 -0.7906821387612334 -0.2429120782988535
-1.5811111905995499 -2.7356171450025073 -0.25990313736345216
-1.2871865414531323 -0.05061807563371645 -0.23077889337636162
-0.6920932345012618 3.2681971987048297 -0.1749839549538934
-0.7579687198822738 3.141496468025056 -0.17595517607071845
-0.7871928866199713 3.252349568074601 -0.18100846429629724
-0.7735404216190993 3.341989848685713 -0.18257426402994342
-0.9080556653179293 2.809438224581483 -0.17868490116663494
-0.8993898280257242 2.9638914785656203 -0.1816344983189968
-1.2091289182554306 2.1282630462863033 -0.19255521696727693
-1.0876951466865568 2.844530182213501 -0.19346895250844082
-1.0446807212251632 2.9742823399697658 -0.19287843306165456
-0.9567513940220027 3.134847016017159 -0.19003217909426431
-0.9777287172913312 3.227101491623503 -0.193867612622024
-1.2126598816419873 2.58946945218535 -0.19904461809361165
-1.210793243764499 2.6445075797688204 -0.19979936278718224
-1.0948741172231116 2.933503071095728 -0.1958943460581323
-1.1104666098230989 3.010420751635553 -0.19876556386460223
-1.0618649332774983 3.218055107235357 -0.19983565900232125
-1.2965925347572167 2.648926101388917 -0.2071435134723055
-1.2769886238559809 2.7751009354771314 -0.2075693668639923
-1.2309683308048776 2.845795002305484 -0.20503963012267432
-1.2033421439167284 3.1674651911026883 -0.2094094564507958
-1.1274209088039497 3.269952759609563 -0.20597333402704135
-1.4550434310390066 2.3368396618491056 -0.21717923337435646
-1.38852115513285 2.5732235303191136 -0.21397739838620813
-1.3856241064464 2.666823277085366 -0.2150533356496116
-1.5639420726523507 2.492855657615383 -0.22872444018618118
-1.500701390119076 2.6356246193755726 -0.22469655616903145
-1.7375330757132037 2.3923184416552896 -0.24403749247167986
-1.7569715986699768 2.479094872837367 -0.24649428718294145
-1.6738373524396115 2.5356020810926427 -0.23923324421684475
-1.8528492588175176 2.3991072316031086 -0.2551082816282807
-1.7899272899574576 2.4878987289339833 -0.24966361987146102
-1.7894824038932131 2.5801646652849293 -0.25036786829080143
-1.8447576505902816 2.657863000596151 -0.2561672429360667
-1.9274697925424045 2.3882694712449912 -0.2622641603291163
-1.8570726846417176 2.6224249548214464 -0.25701376475793164
-1.8581506541040742 2.647048643137032 -0.25732090461962626
-1.8225868577236666 2.858866139350367 -0.256186568671638
-3.5484000342208475 3.6301223161691376 -0.1834284211848341
-3.8794753447410546 4.970301651494472 -0.1834429209741048
-3.9328070415568996 4.946518803657034 -0.18731979731900256
-4.3467929500589175 5.816515702639917 -0.20273373057230934
-4.378527729075728 5.948478375434464 -0.20316021361759876
-4.140532487798609 7.339311286295569 -0.17660984029272866
-4.090237013209087 7.422459835479938 -0.1733274245993639
-4.056735047857927 7.529840218776469 -0.17089090022735415
-3.999297443664501 7.691926122596236 -0.16698776239080534
-4.597385027041662 5.325147603600282 -0.22628707032007242
-4.566484498535762 5.403411984071267 -0.22296225755317814
-4.516732918492039 5.7562032441130935 -0.2145605952382575
-4.303017648623265 7.09835309234775 -0.18752714506019738
-4.276780045126521 7.118131307078933 -0.18585705292985077
-4.208598715439521 7.345806686473393 -0.18041661407251933
-4.651367574229166 5.421378352598543 -0.22842660953681
-4.664715673494991 5.589151192873983 -0.22674543318623566
-4.38679361579971 7.152731491484609 -0.19201017755542757
-4.331019834894844 7.247331005018037 -0.18807797510993057
-4.321172690208645 7.3524116337355085 -0.18679323438557835
-4.759851198682364 5.441939822460586 -0.2354809662495712
-4.464326682008256 7.196638709592225 -0.19621888583602384
-4.603823999904818 7.146328594705622 -0.20489040082850218
-4.55852700114341 7.203349185718652 -0.20172662470506525
-4.715594822631207 7.061939664543738 -0.21236505862074748
-4.6663692779749955 7.111837204072817 -0.20894225891367998
-4.587405943308719 7.240481362906625 -0.20313118739191394
-4.841270945337951 6.937288029243472 -0.22127420220995087
-4.782919621021668 7.035286046600559 -0.2167141483927198
-4.909107736853689 6.8822995913494935 -0.22606419618241683
-5.038843847924367 6.819940130067952 -0.23491152058467885
-4.993306044930039 6.874361646397032 -0.23142559920166084
-5.262664186892131 6.720547856631676 -0.2504582095569365
-14.280853807067746 0.41786719681485684 -0.16799017088959423
-14.388792502761401 0.36996914611077747 -0.17409998821434175
-14.719201262265702 0.04222023500587846 -0.20659843456347965
-14.67620234580481 0.07799561423895585 -0.20289858020754847
-14.663082939261589 0.20391073124124337 -0.19301748490405768
-14.602727283666024 0.2888629468599697 -0.18516810888227422
-14.638703073065876 0.33858717452072784 -0.18223285810632608
-14.808497936116606 -0.0007406448037131641 -0.2119418889756489
-14.733045865689828 0.11812519451582704 -0.2011631190962816
-14.732726222182393 0.15763324878617657 -0.1981216289701513
-14.86780815910009 -0.047091553676540165 -0.21685848486123985
-15.199251408640972 -0.28211636142803403 -0.24241658191165272
-15.17251971460049 -0.1508038608181953 -0.23179229308975743
-15.228617265750806 -0.26223079545881883 -0.2416080440213169
-15.191173052293827 -0.16706536224583213 -0.23342927974377037
-15.223402471485095 -0.09858025642563017 -0.22895307827224648
-15.354917584633775 -0.3363097902983386 -0.25015087242653705
-15.328337526863486 -0.31629965613691907 -0.24804396331588202
-15.302906641262506 -0.2118449631066649 -0.23944171349297189
-15.46191323445921 -0.3719008595382097 -0.2553822856791179
-15.569301015096048 -0.42836550538757534 -0.2621849926983642
-16.191113776779964 0.7444671679709349 -0.18711060429667545
-16.27131925021 0.8776852621446194 -0.17888808143345863
-16.629435156703977 0.9764207871937061 -0.17965107029727534
-21.67614155245394 -9.370073839269928 -0.24818844100126664
-37.44479295380293 -11.255542132805457 -0.20714267189616642
-37.410348784549285 -11.104336894716804 -0.19654688084006267
-37.5147123377273 -10.989563822806513 -0.18700355203949484
-37.608001097582246 -10.86781960743982 -0.17707564561100902
3.8928607097231795 -0.8327122010514648 -0.07726806971723152
3.8922391331035584 -0.7588580895193187 -0.07163377929356018
3.975289248015202 -0.5833423633894086 -0.06600000904937248
3.785549886882698 -0.9039646404527074 -0.07403170143560214
3.8551665461272786 -0.8374917530269523 -0.07453742558290329
3.881303331634143 -0.7338157939351205 -0.06888970783706636
3.7438340941499746 -0.9004732430423718 -0.07032028004383797
3.798305764915566 -0.21088221908709925 -0.10715349790594422
3.86672881847267 0.11429008847835309 -0.1032103221399937
3.9046454057084183 0.21945125028407653 -0.1044625740645874
3.907668982162083 0.25865958668551225 -0.10385089653771012
3.410645395362618 -1.8601701097742631 -0.0710362792287163
3.476301163641181 -1.4192259590746588 -0.0964211887006502
3.489522252030507 -1.3785768396131466 -0.09325677767659608
3.5246161428783997 -1.2629664753612588 -0.08449481118015827
3.512674632094516 -1.1865076053151715 -0.07623837733178557
3.557026973280793 -1.086787458165687 -0.07074247990737542
3.6309337176946093 -0.9743181273880687 -0.06708063515326121
3.5681042929306988 -0.8806283294218175 -0.1208413908911043
3.606796790007802 -0.7577915538710235 -0.11599634793742061
3.6369299139396416 -0.6811926826703296 -0.11418807664840502
3.66002031426384 -0.5895987806599002 -0.11094091977911583
3.6971952883159194 -0.4885342681273137 -0.109271489301692
3.7162306854112037 -0.3934938827880334 -0.10634664099165025
3.7498431367110596 -0.3063567805492028 -0.1059087355583257
3.7841370693403613 -0.21064198298086612 -0.1055254480973265
3.7978566017451962 -0.110434172450942 -0.10307543773181566
3.82370583154629 -0.008933831948021997 -0.10234123415877705
3.8465192531360395 0.08890301715433135 -0.10178868442492353
3.8645024991256487 0.1584944840550072 -0.10176506788631973
3.8871584595624893 0.306062988634648 -0.10068412688011935
3.8859460285635823 0.363875473956939 -0.09942468441041638
3.2676513858665803 -1.9468520456448455 -0.07466966787162485
3.355662569486471 -1.5114027214923953 -0.09703054455187649
3.3847660853627772 -1.4461198892522669 -0.09218290593725062
3.412555334087871 -1.3392635924508358 -0.08318554047160248
3.454730408004031 -1.2992032274813001 -0.08247422650180385
3.463826392689046 -1.1493978929097768 -0.0688302240056251
3.4435561478188736 -1.0873406818718805 -0.11346426998098438
3.4562205930868313 -0.9423784589418922 -0.11280947895710211
3.5218625562973225 -0.8574342956950115 -0.11356195539900801
3.550379360706329 -0.7881540840128521 -0.11160748748031729
3.586037410227686 -0.712870038183626 -0.1103712049973016
3.711104478873053 0.34645139409943293 -0.08200506500129875
3.7514199669007815 0.4189899141404263 -0.08498776999880608
2.7720583611988436 -3.847749986810558 -0.06668314657099311
3.1220381441071585 -2.196297341253059 -0.09712804243730525
3.1357281519024287 -2.1122406512505068 -0.08811611525774245
3.162152194932932 -1.9810660567569052 -0.10058033061436586
3.172553843543443 -1.9356813526766385 -0.08753182877354934
3.2206199366301114 -1.7119235824527126 -0.11031587056520625
3.26292256790852 -1.6362423295994832 -0.10433368321797556
3.279615956038141 -1.539664326878643 -0.09445847716219533
3.274155347937707 -1.432447294054068 -0.12687920561770724
3.293082422945039 -1.3383597648480383 -0.1271664162340983
3.3105417864829985 -1.2293528446298225 -0.12329262923378198
3.3453636668941003 -1.1388402048509105 -0.11796394872307198
3.3679112552096777 -1.0278652174402463 -0.10998128116959036
3.422451739106634 -0.9582320377137563 -0.1101939081715606
3.374877385476938 -0.796032756832525 -0.15170708891806098
3.407093186336633 -0.7380584235075826 -0.15252847134321978
3.430312440398693 -0.6452216137624507 -0.15007275017348326
3.455744296523152 -0.5427505545826286 -0.148176920034295
3.461868992739463 -0.44828875164392556 -0.14457768848921684
3.4990242673134824 -0.34319637448245066 -0.14589675120908052
3.504245281596491 -0.2444197007915222 -0.14347024498727715
3.528703337845005 -0.17007034425834622 -0.14501942588945255
3.6061700056218267 0.24892407196967425 -0.07299324346219169
3.653314688766737 0.32857147216051885 -0.07649189034444057
3.7196893752617552 0.45317377453196706 -0.08142595818640233
2.665197584405029 -3.9533565039216754 -0.07426026537858296
2.703845300642933 -3.889304429979313 -0.06996911103944212
2.7472508294398956 -3.6192031091189327 -0.15722965607543518
2.745657738695523 -3.5671159106766535 -0.15235623758349265
2.781130506513069 -3.4775731612107648 -0.14402542622169037
2.775109940348198 -3.393380480728581 -0.13615333184353082
2.879114415782033 -2.7437848937674403 -0.07616019101589243
2.8830873556161207 -2.6999934398647447 -0.07214921340900321
3.002224343129381 -2.150295232268924 -0.08802202364778983
3.046382270128877 -2.0867166537843986 -0.09850108064693569
3.0790762926911865 -1.98716212739533 -0.0989587221954755
3.0949188902394065 -1.9266632793448588 -0.1131323180850698
3.1023827978443403 -1.7688608310955618 -0.10911799306997638
3.1407381350266284 -1.7060585910623287 -0.1335993046749658
3.1455801797512812 -1.6054023321457356 -0.15075923854647924
3.15746065380244 -1.4995013633271328 -0.10921779288069292
3.2076788504236466 -1.4241088986863921 -0.13405219380959693
3.243186978918825 -1.3085285219787113 -0.1243727666243975
3.220811952943211 -1.1999104556536937 -0.15176470958106986
3.2412982553559795 -1.1160149068649035 -0.16008637450781824
3.284684814220342 -1.0224458967325076 -0.15136758593406788
3.3134408830198003 -0.9248683324775683 -0.15266675301117133
3.3522542784631058 -0.8360895746653936 -0.15130907263639004
3.4047740086417893 -0.5873783739250656 -0.1428218466545509
3.476982430594568 -0.20676675418660506 -0.1384869366820231
3.4735034573092927 -0.05337373026966852 -0.13502291460673102
2.545532554892792 -4.1193807379936676 -0.08551259054643297
2.589946018843305 -4.083656201924436 -0.08291319510417602
2.6090495163396086 -3.630031336427491 -0.15819802229101054
2.6548695763651944 -3.515199804856549 -0.1474403900987793
2.7141050941652116 -3.5039024623633073 -0.14641750919167532
2.6791640706807622 -3.2627422948223503 -0.12384260350736173
2.721594410180845 -3.134133321169126 -0.11189964563082222
2.8359522728396267 -2.6869152444347018 -0.07997490902759956
2.87868386769013 -2.3332718961096752 -0.10570364635528326
2.8946615567016907 -2.2729465091401257 -0.09902992936306115
2.923529142780078 -2.1735591651706234 -0.08827450799898018
2.9652203960262344 -2.086101307621629 -0.12377817674058339
3.0027106000108015 -1.9905602445763888 -0.13173935647731283
3.012118322371907 -1.7722911317700718 -0.1035026148151438
3.0305372307362175 -1.6810118332342894 -0.14963510398864754
3.084906738709943 -1.5883770627993932 -0.1421612526905681
3.0645653951435636 -1.4761889179719225 -0.12512300833216275
3.1000139612534006 -1.3770688217341984 -0.15218993965148775
3.116629361372902 -1.313885588826534 -0.16477636275343913
3.356347565822545 -0.02145231936430303 -0.11847726571139847
2.607640788016396 -3.331045006730159 -0.13017116823089314
2.6793323248080765 -3.06784188647932 -0.1056542289548286
2.6347200557111576 -2.9612392069853573 -0.09564833010480833
2.694064068659384 -2.806260297760004 -0.08135628972109367
2.714597342008508 -2.750744651669859 -0.07626577049275832
2.7333428135891147 -2.6580864271917513 -0.09190344987525326
2.757724716288926 -2.554204673974045 -0.12931040098521482
2.793441002005819 -2.471871039777292 -0.12012182323219839
2.8164849888179484 -2.3411157635467217 -0.10499266651803887
2.807317532205008 -2.21720680186533 -0.13675237161499237
2.8230204298276114 -2.1494836675259656 -0.14381481563646786
2.8468515100426197 -2.060825131901218 -0.13242537574246452
2.910112234917058 -1.8427427192200145 -0.1624988493992512
2.9101563201041447 -1.746708333376461 -0.14119773728073715
2.9537873277152276 -1.7058094254372418 -0.1457372049524775
3.186810850201403 -0.5464431382637935 -0.1626831618265172
3.18146507589596 -0.5314124594940939 -0.16109348749840213
3.283486819294828 -0.02644056415047602 -0.10859423514697025
2.500071293989871 -3.164298431660734 -0.11450711654819215
2.5017212548164354 -3.1056213301249547 -0.10900738247543149
2.5830872282616397 -2.9033720703289214 -0.09017469057911788
2.61651173956061 -2.799848444603986 -0.08058788673675682
2.615474035494016 -2.7299905132271465 -0.10638512429427474
2.649790196222491 -2.6379174411210644 -0.1373512870082817
2.674540103147538 -2.527023833379753 -0.12417287318799561
2.6915169826556937 -2.42901668555887 -0.11255804558040994
2.7099524229005656 -2.318664508014467 -0.13639214534534938
2.7312352151471333 -2.2300203344780787 -0.1420507359799334
2.7677016170087407 -2.1818682584666362 -0.14569551202728415
2.7995805191654757 -1.911232120798589 -0.1639106676175384
2.7664953862927204 -1.8700921449977335 -0.1544012802274772
2.85117170507023 -1.7581891072379672 -0.14401734866833332
3.035722351900753 -0.5353026008058708 -0.13433273145437588
3.0860544897478213 -0.47581297257103616 -0.14166079522133196
3.1031252487854415 -0.4113104782312148 -0.14307575446628176
3.140948576215693 -0.07646060222680873 -0.08959978331142969
2.4170211012200897 -3.0932502072877455 -0.10783838381159094
2.496592184284371 -2.883005195966149 -0.12613362746649898
2.492856256781165 -2.774392277710347 -0.1517449072106325
2.5357697958915155 -2.7108420290544473 -0.1444227631164229
2.5240878306238548 -2.6255834086010537 -0.1335487526524859
2.646982045348345 -2.3218171922237305 -0.16100279762665307
2.8691603634430547 -0.833706430947884 -0.16279666160377362
2.8831590885319427 -0.7399598317607999 -0.15950790811323395
2.999761992036299 -0.5555664549395957 -0.12843889564905045
2.988461993409217 -0.4490274685420445 -0.12324900651045706
3.001798816866415 -0.3755299557316614 -0.12430300448111334
3.0080849306241646 -0.11572566000859041 -0.07191999221658181
3.0461291915710955 -0.0677022962444841 -0.0769951968724758
3.061104509929086 0.026517362416612178 -0.07924910533591822
2.3166993775808336 -3.1748336293092523 -0.11556203484783878
2.331195154485769 -3.0591636647290716 -0.10466885797741254
2.352108887540904 -3.0085821666607453 -0.09990295517221595
2.3747357184439393 -2.8622773384221336 -0.16134120874627764
2.4186310121026757 -2.784435142707778 -0.1519999140853715
2.456696375801866 -2.669066906326053 -0.1379334569906454
2.8129294488226497 -0.935662537261914 -0.15923924219251978
2.822940206599588 -0.8578534243289031 -0.15431163999852734
2.8122830915058046 -0.7015129875054016 -0.14152279100034348
2.8350974119500503 -0.6168526036195515 -0.1429530103178347
2.819805519881891 -0.5520576463258746 -0.13766550814827355
2.869590861508324 -0.42567407874965724 -0.10147989213798772
2.9386056409100867 -0.371249306570242 -0.11303012915453639
2.971331235272271 -0.10687456124191863 -0.0670481866995144
2.984204479961883 -0.038326014252811125 -0.06899522414493744
3.032869027323131 0.1420695635650958 -0.07700255366151652
2.0536243772921643 -3.9160465348991096 -0.07765791444711012
2.088610806999261 -3.813074298672607 -0.0712372475378998
2.0972440770162404 -3.581780313296679 -0.1544001356211367
2.2758304503559983 -3.0469220643290345 -0.1035668080808306
2.2709656618615606 -2.988959124538465 -0.09811711200391879
2.294669416414328 -2.8580003639779115 -0.15995703656552282
2.704623850862036 -0.7674116219766033 -0.1587595070525476
2.739953842537971 -0.6945347875630145 -0.1357186205527767
2.7781068039649757 -0.5738482333719445 -0.1290465419764455
2.771332968255807 -0.5286886924561386 -0.11581595863853664
2.796615011052113 -0.416174392635373 -0.08846388829924262
2.8261572178161947 -0.2214870482576542 -0.09414808328452545
1.9176061723597695 -3.9663244391031927 -0.08164091991891663
1.9751414420266706 -3.9206958275440775 -0.07851547440367049
2.0087746941440763 -3.800715362862565 -0.07110936932392996
2.040580500912064 -3.7217149836701444 -0.06615179147698885
2.0798780384803486 -3.403153241815036 -0.1375663669586151
2.087569435221665 -3.3109363103068237 -0.12883453545467718
2.0841450849716296 -3.221989877895571 -0.12043358220571224
2.106446992629619 -3.1260118072138945 -0.11131340341970106
2.1060413253145347 -3.0340969833517306 -0.1026316515641974
2.1638937308591624 -2.9272383136886306 -0.09244042843260544
2.1759157495430377 -2.834947895517793 -0.13165526539966219
2.6590664194508786 -0.7549936378008354 -0.14606782256173795
2.6584829640030687 -0.7037602294989518 -0.14341838252132663
2.6819227653008904 -0.5538281327100847 -0.10772838820004799
2.6684815191300624 -0.5010065273547919 -0.11893265702249153
2.6824560302842295 -0.42606199994666216 -0.12303634535641214
2.687225373452573 -0.2825840082652739 -0.0977201163319964
2.733779436611642 -0.2285985562752454 -0.07895058472241381
1.895415349024072 -3.883766394809397 -0.0768655112052628
1.8649081290546896 -3.8217276507376936 -0.073368244546226
1.9480344110401702 -3.7094460100804905 -0.06610288464929663
1.9470681587711063 -3.4981276717667966 -0.14700005346301795
1.988093118029839 -3.2870550199954884 -0.1268777747695717
1.999775548029064 -3.2002415037054077 -0.1186286830004647
2.0475398334229826 -3.13814305708025 -0.11261099353977563
2.0945586808945684 -3.0372576933676148 -0.10295682684894658
2.106697733644408 -2.9017982218044955 -0.14925982293627196
2.1081872196222013 -2.830461068063783 -0.14462696644028253
2.6093356392250033 -0.46132347946351376 -0.1286281029830646
2.589210447182699 -0.3689333219652031 -0.10901647014278912
2.6307179027938545 -0.2861493867087577 -0.09372972541632568
2.652879588603568 -0.17954721433235432 -0.0674807405206728
1.72356588487582 -4.130214577335654 -0.09262659184608918
1.7152612790745234 -4.072358361858145 -0.08922561626767703
1.7654861327717724 -3.9693056087458785 -0.08279070783986128
1.8356875913564976 -3.7563554474871466 -0.06966079584528263
1.8152690478065203 -3.690594871471094 -0.11509565873985808
1.8440224013644542 -3.581921778884215 -0.15536490117849874
1.860839708533517 -3.509644389118582 -0.14844415420065424
1.9216091218968203 -3.3622653783760046 -0.13423654868508805
1.910797536752567 -3.3392493902464877 -0.13210106919060174
2.5478304477322267 -0.3130564030557558 -0.08358197402049242
2.468739944317826 -0.2351119513871811 -0.08499200139384759
2.577107076977139 0.12731414998060664 -0.07197794780441916
1.6776565472672007 -4.033529672162615 -0.0871209856383519
1.6779519089400285 -3.9526932404434953 -0.08230054908197251
1.6467254750751834 -3.8565909526844315 -0.07674070708647908
1.7612303467237191 -3.4786992422340854 -0.14598332012272305
2.453095430568402 -0.2104788598901408 -0.07681420298231337
2.408514067720002 -0.13165450380511967 -0.08420739661590271
2.4076921473176913 -0.0425472103078236 -0.07830871622589579
2.4396148045241515 0.06689672251955014 -0.09335685684130438
2.503564391138406 0.1776969125056992 -0.06661107298733066
2.516520208982206 0.23369893018582855 -0.07227078256928252
2.485719233012236 0.35366203823036235 -0.07837060095505419
2.5013562541159406 0.43359197338651345 -0.08666234672724865
1.472054713349351 -4.309312425689425 -0.10457624975640153
1.4943343288588962 -4.136654997067374 -0.09417983397467328
1.5447194336946306 -3.930354686419085 -0.0816447934033914
1.588900051311727 -3.8131391653514592 -0.07444239363108579
1.5986232338122879 -3.753397682629129 -0.07083036696352918
1.6115154695784213 -3.6330100314552927 -0.16143075851801025
2.350475528459709 -0.09563218871242507 -0.10122919274555275
2.3511553417589943 -0.013407762264681211 -0.10263610622970173
2.386292262182298 0.08056312135237997 -0.08750526841645784
2.3728010795035024 0.17004449544053124 -0.09545655792856084
2.456514381574636 0.29766445045222145 -0.07075490124331077
2.4454377271160688 0.37950960600306183 -0.07663527360106875
2.454327739558622 0.46832060091057204 -0.08526431568792914
1.338639944046351 -4.434837442384712 -0.1126161583373736
1.3744827460129978 -4.1875709212861265 -0.09771941556692512
1.457045364398803 -4.022162199324274 -0.0875145608686693
1.4246819071171548 -3.8773902070282302 -0.07900987668576677
1.454168739644477 -3.7756525971721913 -0.07282042658643265
1.4930969200450994 -3.7318863328131626 -0.07004336699910946
1.5272149636880106 -3.4934456384564188 -0.14874100649691074
1.5383118954013948 -3.4621876706808914 -0.14570903979908212
2.303065548022387 0.028528014909196764 -0.10966807343692961
2.2712232706512965 0.09623959395885928 -0.1149518424386505
2.309960281760878 0.21765484869848772 -0.09711596110232068
2.3110667041315 0.2679331453264141 -0.09978799381636533
2.3540896876350565 0.3861593041288276 -0.06893444527465381
2.3584308498911386 0.488982294702099 -0.07882724009870631
1.2074204766425831 -4.57067899574297 -0.12119653175803774
1.2423153824712996 -4.39801365595256 -0.11076502998106344
1.268017453471427 -4.290548596071853 -0.10425681906669759
1.3170825749451458 -4.175574381044213 -0.09721833860826379
1.3274329656829775 -4.136632994904083 -0.09485529579613303
1.371204378044273 -3.8803017142983105 -0.07939090122522718
1.427276600569172 -3.7333156169032944 -0.07040209962937305
2.1318628555333206 0.0721267900606476 -0.09392577302051394
2.1917936776526137 0.15609346001669233 -0.11414887320671713
2.1962753958228363 0.21800793856122314 -0.10021061578053148
2.216454602710946 0.3076197231816076 -0.09546269297358406
